7.812451296062683515e-02 -3.339485891565562590e-04 5.131064136799577957e-01
-6.740333869529357980e-02 -1.428432186591592212e-01 1.045221315406306140e-01
-2.454233605061975632e-02 -1.540831655238886766e-01 5.704093060217395594e-01
3.908893441911125838e-02 -4.157131268070091840e-02 4.230661207028124648e-01
-3.002195163265327649e-01 -4.343639428578940365e-01 -1.365543640244854806e-01
2.338333377263140112e-01 3.448208476928270039e-01 -3.009337461634858379e-01
-7.772047923608052522e-02 -1.911241992332831097e-01 3.234771339909498500e-01
-2.635784523579083882e-01 -4.635697131815526562e-01 3.889836000772829983e-01
2.980633183546819720e-01 3.774204723096910574e-01 7.614985308536456610e-02
3.702017291227789886e-01 5.489016736805414354e-01 -3.761489033728431797e-01
1.050999055164154455e-01 2.094660707812506240e-01 -6.020278503306603080e-01
-2.138489357904508337e-01 -2.379347293636610849e-01 -6.203990339231960638e-01
3.362937766079642232e-01 4.672895626900399058e-01 -1.569976565409379465e-01
-3.319106775727110881e-01 -5.193440349475042517e-01 1.247888650751895340e-01
5.670795148067887537e-01 7.920767455627913955e-01 -1.505613267471402061e-01
-9.843838726352648061e-02 -2.077015783829820050e-01 2.412121440534144012e-01
3.093060096362283684e-02 -1.337933381834263517e-02 1.652059587243804029e-01
3.804929841847622951e-01 5.464819010641159824e-01 -2.660977705240303304e-01
-4.551835387377374254e-01 -7.057363647751387914e-01 2.051810615020228934e-01
1.989683308811846518e-01 1.526875028809718815e-01 6.271534572025707632e-01
3.022743191388024830e-01 4.033036214598840208e-01 -5.333036801387742304e-02
-6.538830292683218970e-02 -2.131021049839456338e-01 5.792446164686825272e-01
-8.573141990747154551e-02 -2.011847628436281843e-01 3.153746122817382980e-01
7.774186845419103764e-02 2.038104271979709892e-01 -8.160855014353869397e-01
-1.303589706224866085e-01 -9.235823973344414739e-02 -8.004193196255081633e-01
2.611667993744172175e-02 -1.237536950396584123e-01 8.378331701055564684e-01
-2.702664905281928487e-01 -4.689695411154048421e-01 3.627416603522500838e-01
-2.450331621462503162e-01 -3.805778236562135652e-01 2.004641428048797511e-02
-3.186729457368160656e-02 -8.449680503772732942e-02 5.137931417133960454e-02
-2.329150483877246991e-01 -3.523946656580271286e-01 -5.188711895207130664e-02
5.766760415869680301e-02 4.107474831958668471e-02 5.668067791749443335e-02
1.598812103592078260e-01 9.385879121540814662e-02 6.508763799479059253e-01
-2.366626193190862759e-01 -2.991619712208700710e-01 -4.319256910415736339e-01
-2.880247918592496181e-01 -3.835132927813403314e-01 -3.549850684853976812e-01
2.226556042051500706e-01 2.306310506353592971e-01 3.381348096982799145e-01
-3.270300272683270837e-01 -4.771582305974815807e-01 -1.044199441087178271e-01
2.478693119658224031e-01 2.353894249392184390e-01 5.383626444444539194e-01
-3.012357765626633710e-01 -4.792618617471231524e-01 1.456904685956229850e-01
1.118328922480163884e-01 2.397571216553090467e-01 -7.370139105337649710e-01
3.024163807252062269e-02 -2.443507953727983364e-02 2.306848279319377304e-01
2.730790032619652141e-01 3.196085078406785129e-01 2.225472133631755112e-01
7.134790357643262804e-02 1.893214398266522269e-01 -7.806080434423642300e-01
-1.168905753660901548e-01 -2.845503648046382450e-01 5.711103439379441316e-01
1.641581507039219512e-01 9.749999437322243168e-02 6.664366190752838426e-01
3.339856680984804038e-01 4.846830337485572016e-01 -2.911062428368880184e-01
2.562632301886765274e-01 3.159913655225566886e-01 9.189024265108672318e-02
3.251532738888043839e-01 4.339205419581906309e-01 -4.242634747604701051e-02
3.881076681311747961e-02 -1.150584664502937171e-01 8.977312640608248184e-01
-3.979087369191676160e-01 -6.234518432916945629e-01 1.958616022855036720e-01
-2.754548944713731129e-01 -3.812384672184170320e-01 -2.545322132546050109e-01
1.588144643625349073e-01 1.351078372767663127e-01 3.732323837841193259e-01
-2.184321285911269284e-01 -3.728097381218782314e-01 2.134468999634223096e-01
-1.600759006748440905e-02 -6.857705206127973074e-02 9.338084318690034746e-02
-2.721789411615460532e-03 -3.566075971543648110e-02 1.414920992354440007e-03
-4.163755293112605949e-01 -6.058647255373026397e-01 -8.762729253065434931e-02
-2.998020824857121069e-01 -4.885874997650145879e-01 2.193921557680094392e-01
-4.954725421768876314e-01 -7.507383961904441350e-01 1.280981317362053784e-01
-4.926082424521427416e-02 -1.747735724278061398e-01 4.781813659534158156e-01
1.180604111123141897e-01 1.631621655901939472e-01 -1.825310711078765025e-01
2.465752110519434104e-01 3.850196667174663467e-01 -4.451774042627194006e-01
1.797540290415789721e-01 3.259132947292224247e-01 -6.738829108516309896e-01
4.016001520662978996e-02 9.167917946229368897e-02 -4.324251269599955760e-01
1.921803717545053636e-02 9.791786692456302954e-02 -6.649083780982530945e-01
-3.888977731515321640e-02 3.275468218991843886e-03 -5.829746643300844910e-01
3.535090914013336305e-01 5.318783014615346971e-01 -4.186189870600813823e-01
-3.000247535263863563e-01 -4.711849045792998458e-01 1.043410257383058093e-01
7.724284966818370513e-02 -2.343091439442006318e-02 6.550128010113466237e-01
-2.468077725015908885e-01 -4.320927920948693379e-01 3.383098035000935422e-01
3.256919936634291579e-01 3.783426245187839765e-01 3.234269945914584610e-01
3.923061426580070066e-01 5.094256378091542858e-01 8.282869101602843842e-02
-2.951646957425616002e-01 -4.841903407337826426e-01 2.333474518684203747e-01
-1.507091341960334618e-01 -3.142429461570403482e-01 4.539230605313611666e-01
3.038261409432523874e-01 4.178171278962512503e-01 -1.333538180051719035e-01
-2.833893269893340561e-01 -4.251494340047043408e-01 -4.211373854438441727e-02
-1.262669111612627626e-01 -2.316716267171503307e-01 1.417727709042725104e-01
1.111377824269603881e-01 1.736656958558474573e-02 7.007865406319524482e-01
4.306354983338018388e-02 -3.356051666043345649e-02 4.074795099238679441e-01
-1.126462524523636627e-01 -2.550814745422828600e-01 4.186502902124879522e-01
-7.060809314930756309e-02 -7.671618562804978503e-02 -3.542745575118575463e-01
2.879934014147987331e-01 3.060456967160500863e-01 4.473388886854666735e-01
-4.179273589694488256e-01 -6.015047973713696372e-01 -1.301652926007889066e-01
2.494483070095768473e-01 3.019755945831665289e-01 1.204358768128144658e-01
-1.207625599315203802e-01 -2.741494825501963883e-01 4.680749485010247679e-01
-9.388491202417599546e-02 -6.332892011166391111e-02 -6.545825776994392831e-01
-1.672138415101228903e-01 -2.303358824992548792e-01 -2.422520882997287739e-01
-3.781871595824916610e-01 -5.258748075091953522e-01 -2.570066889129757892e-01
2.339066155803823377e-01 3.143225429168221008e-01 -1.022104074823503156e-01
-8.352631559178846921e-02 -1.766174930148825930e-03 -9.594074387998071662e-01
-1.620044845557464253e-01 -1.578409521113549319e-01 -6.652708406557911180e-01
2.195183645272175132e-01 3.161787732846497723e-01 -2.461581612029508648e-01
-2.515517822840770967e-01 -4.504119330276686872e-01 4.137844736840612381e-01
5.159576498070285178e-01 7.190703055566051161e-01 -1.450898964650102485e-01
5.533466789481296388e-02 1.637339083850249122e-01 -7.612357889608738493e-01
-1.162918049039803753e-01 -6.264789440596583991e-02 -8.644036947282146555e-01
-2.775241506960158255e-01 -4.533019784384860196e-01 1.944695180671051626e-01
-2.971299916681416353e-01 -3.870167303785363999e-01 -4.156994383870614707e-01
-7.754654620192065473e-02 -4.899875085946613779e-02 -5.978707459808706437e-01
-2.640635640073232815e-01 -3.387784021021110203e-01 -4.258401829865788302e-01
-4.185956148980221059e-01 -6.069599082161349912e-01 -1.008663274194003673e-01
1.564685624769797945e-01 8.328606432437442308e-02 6.882512245546756890e-01
1.295531227195879653e-01 1.432192284353440703e-01 5.232644473578634825e-02
-1.295024387804332433e-01 -1.036696679508806174e-01 -7.191129039535288925e-01
3.784491032767130919e-02 -4.778367022311227202e-02 4.520046081670962002e-01
1.443595009256621632e-02 -1.220276318636649010e-02 6.362953986958043255e-03
2.446164872649287669e-01 2.404830042813564661e-01 4.754678036655237139e-01
-1.245861370618090574e-01 -1.018706205507139417e-01 -6.857290965171478625e-01
-3.488982799812571645e-01 -5.804830269589033032e-01 3.660954198177317487e-01
8.254927816298562870e-02 -2.161583946579903256e-02 6.918687269272587592e-01
-5.579247394641306812e-02 -1.910286937590198186e-01 5.238657207562728013e-01
1.468236757123342340e-01 1.668243760629666839e-01 5.735303389335417307e-02
7.378839169515451213e-02 8.607807200936277991e-02 -8.778904525836454809e-02
-1.981016684041813844e-02 -3.145033682586664825e-02 -1.825720347917245134e-01
1.404829787210387301e-02 -7.897942918007234969e-02 4.364475326335757188e-01
-8.392229659525685115e-02 -1.809891742101022716e-01 2.008111566982688223e-01
2.254952202471484021e-02 -7.564180801847634507e-03 5.061584057276779375e-02
1.477514096249268882e-01 1.650972443572122084e-01 7.707309466888871696e-02
-1.673834700054771529e-01 -1.674735188615222303e-01 -6.520262078944851769e-01
-3.699368184054372954e-01 -5.188487434245862007e-01 -2.270040351572029658e-01
3.611375148095269383e-01 5.167601620336478296e-01 -2.505160225284204234e-01
-1.119474151327053968e-01 -2.101852913731638017e-01 1.335069890708200091e-01
3.659022990915952733e-02 8.675921177485163005e-02 -4.331989312224256983e-01
-2.622599542250561022e-01 -3.324294244339231486e-01 -4.505362736219343800e-01
-3.761469450302743489e-01 -6.218035647065476290e-01 3.846430645845551610e-01
1.219848174373654448e-01 1.962880510060250328e-01 -3.616717259242213656e-01
4.083526507849594492e-03 -9.006177702006486208e-02 4.170700320319308263e-01
-3.845738967431747840e-02 2.323413523313019174e-02 -7.086197918696403031e-01
1.057562421034337896e-01 1.006406128391868354e-01 1.106855498789588027e-01
-2.896466467329418260e-01 -4.638321800539121909e-01 1.517271124872410504e-01
-1.219324227061925198e-01 -2.018654305968205220e-01 -1.205117272114153947e-02
-6.697055395175614823e-02 -1.392782481289492336e-01 8.533895844073471904e-02
-3.391034001886021887e-01 -4.820955691192297388e-01 -1.830313007907430622e-01
-2.034798083670050217e-02 2.152579318877320333e-03 -4.057145663672243052e-01
-3.117516085123232805e-02 -1.536002418211357967e-01 5.064717484579563944e-01
1.448862764892850513e-02 6.989428108679257567e-02 -5.262805971519267656e-01
-1.547732263726796231e-01 -2.563850246007760569e-01 4.094745210145684516e-02
-1.150086169131565167e-01 -2.817819343155110734e-01 5.703840168185633219e-01
-1.190856070341480277e-01 -2.567799243911190743e-01 3.706517549817633372e-01
8.754242859945830790e-02 1.477265644473437500e-01 -3.620455451533735602e-01
9.007474107177940170e-02 1.244489397624035792e-01 -1.876708847669451841e-01
4.249887695063976900e-01 6.175645494852558537e-01 -3.198160634606541652e-01
-2.236984385423446964e-01 -3.605610503570288450e-01 8.563067280647586321e-02
1.165753175697345143e-02 -1.076510827724886932e-01 6.007215580745223216e-01
3.349625951564142584e-02 1.068739070371886590e-01 -5.921825654437844477e-01
3.328323016658968903e-01 4.413355986536146025e-01 -2.018684940138654529e-02
-3.955255051647376674e-01 -5.793782509967113636e-01 -6.849947030880154664e-02
9.498753208310049823e-02 1.475027703501940457e-01 -2.923447734681076104e-01
-7.730202218132981029e-02 -1.873993838688459146e-01 3.031246129574953208e-01
2.197567265779743761e-01 2.812439335230246806e-01 -1.711131308424880884e-02
-4.631465455920921043e-02 -9.189989020931008112e-02 -3.298160957964883788e-02
-2.079415330096822667e-01 -2.665076726810004515e-01 -3.806986871203455469e-01
-1.539011040121000817e-01 -3.166676170571689486e-01 4.404085009830154829e-01
1.197624406764337540e-01 8.699811838491527949e-02 3.276694287499472558e-01
-2.124218424056080468e-01 -3.885001578078391415e-01 3.704330931050195397e-01
3.789087139289319395e-01 4.931645959908441679e-01 6.561453658349732099e-02
-6.087343370710374818e-02 -1.371008755834384196e-01 1.270902579469030125e-01
-3.236575394004214679e-01 -5.559067086029494398e-01 4.378761709649039990e-01
-3.215440301915640231e-01 -5.342876082658657433e-01 3.168588672871697209e-01
-1.735593001241243494e-01 -3.516304324426274275e-01 4.872500236452415034e-01
1.258143662485624037e-01 2.129010701496276622e-02 8.098443886335283670e-01
5.079420375714021468e-02 1.557648907427240659e-01 -7.511074810371306532e-01
-8.997003229035198391e-02 -1.074825023483132885e-01 -3.319687785769294130e-01
3.724393069330322326e-01 5.505470818908658748e-01 -3.663226071557820762e-01
1.990551539154847005e-01 2.037723863931543422e-01 2.962114346872476434e-01
-3.993789965856884422e-02 1.657667788611036710e-02 -6.789586997765781895e-01
3.026667392093055908e-01 4.694887606688736281e-01 -4.795299507966415686e-01
-4.240612366224451313e-03 8.031755315081588742e-02 -7.656542999287428986e-01
-1.578634858079236147e-01 -2.264787544099444716e-01 -1.815872482354024819e-01
-5.112787854342509819e-02 -7.305796887337985546e-02 -1.994600193395968113e-01
1.961723250975563881e-01 2.198307444335078908e-01 1.655045571312160069e-01
-2.341434624364830408e-01 -3.626502786080376128e-01 3.450782903427415671e-03
6.153370174292840250e-02 1.172377397261255005e-01 -4.024712744596863345e-01
-5.699942065500103461e-02 -1.856403440207564648e-01 4.778107580617826922e-01
2.177379238426580543e-01 3.632702143541384210e-01 -5.682841015089276082e-01
1.096371230226678289e-01 4.018693999500859426e-02 5.388381411456195647e-01
2.973480925052885207e-02 2.321096668782603525e-02 -8.336774306779455579e-02
2.881247677515010319e-01 4.247663222051350496e-01 -3.224116262083992490e-01
4.688986445261486002e-01 6.263601399700681194e-01 2.557796681815524206e-02
5.732675148378267582e-02 -4.437301029065767594e-02 6.084416550432912851e-01
-2.301695983530379908e-01 -3.176547498107769596e-01 -2.523162666027990442e-01
-1.747510307971120169e-01 -3.619025369739714004e-01 5.430312872067928343e-01
2.564570260766029230e-01 3.232196153865104504e-01 4.672750508909418593e-02
1.165321906453637563e-01 1.710553514074283632e-01 -2.477971199204148656e-01
-8.014995268972942288e-02 -1.318997762496008919e-01 -8.338817946435886364e-02
-1.128259360061973499e-01 -6.010198672501581435e-02 -8.491656620062846272e-01
1.717248708414672309e-01 1.194821735439964977e-01 5.930498152572637460e-01
2.084160736239561162e-01 3.224919966955797079e-01 -3.889273770245939010e-01
3.378162420483284967e-01 4.920200707784005423e-01 -3.036379530325875598e-01
5.031027284613682760e-01 6.824191755033776063e-01 -2.492070603830145656e-02
1.654450217858016714e-01 2.884696669891581022e-01 -5.618966122209745340e-01
-4.311699880507581240e-01 -6.409868530616560367e-01 4.833498805374212941e-03
2.653707441143451917e-02 1.233668913521390187e-01 -7.630788278912702394e-01
1.532005021770674671e-02 4.797300230874215754e-02 -3.763055039823229309e-01
2.834576525810352243e-01 3.453953092177452500e-01 1.502300214803680700e-01
8.520800451436451317e-02 1.376172979841682464e-01 -3.177965261626475302e-01
9.728821774167444036e-02 6.866440191207056828e-03 6.420172246790015746e-01
1.676051221325613738e-01 1.850104675157316914e-01 1.297537180726377470e-01
-1.643313682853456137e-01 -3.636073828308551414e-01 6.496168686056816854e-01
-2.153910252333772479e-01 -2.751183530906578523e-01 -3.930698786546972245e-01
-7.819415138454384462e-02 -1.817910397744216811e-01 2.585268953168211037e-01
-1.139907686194820552e-01 -2.374887799953642742e-01 2.920809959377039799e-01
-2.075743504242638995e-02 1.821820573814411301e-02 -5.137958095832072525e-01
1.444173619167948008e-01 9.666030088904599415e-02 4.909303736640250881e-01
1.445798320749844268e-01 2.538178056506178448e-01 -5.281386025066566736e-01
3.652979732664424772e-01 4.826405742549466082e-01 9.189616829466458470e-03
-2.763837739250373238e-01 -3.826054409585920579e-01 -2.541700978256781207e-01
3.791514798128832464e-02 -4.360178705420002937e-02 4.254919102934838770e-01
3.076837326800344746e-02 1.230310625818191034e-01 -7.221106983019636161e-01
-3.590364138698159402e-01 -5.375486902187438520e-01 -5.647857901380062655e-03
1.971906734209775414e-01 1.351762122946530698e-01 7.245739061135438863e-01
1.485525165251335156e-01 1.455186452252845153e-01 2.115572656395981743e-01
4.604151225483740784e-01 6.280569233356516623e-01 -6.320712021093445598e-02
2.103802777342252961e-01 2.092118125320623356e-01 3.647032856293081493e-01
-3.069806629932712583e-01 -3.986501851269251828e-01 -4.304522019493870477e-01
2.238206683290698898e-02 7.309035049770658266e-02 -4.746781424658002568e-01
2.753930346829741582e-01 4.017049425954964947e-01 -2.893630890389782273e-01
-3.961413287810990058e-02 -1.946894997773475910e-01 6.959414574895700367e-01
-3.104182732081233187e-01 -4.069039986377148144e-01 -4.083648720670582932e-01
4.067482711724325628e-01 5.194817228203112425e-01 1.499134585735718839e-01
2.382540799705090140e-01 3.269063131949070944e-01 -1.440754398947518278e-01
-1.587866061281439645e-01 -2.002454652385640133e-01 -3.604044899850213368e-01
4.301937307125283105e-01 5.488978042628346321e-01 1.738085698186227768e-01
-2.888421209513418741e-01 -4.617316986463542161e-01 1.454617830409237200e-01
-2.281889061174027789e-01 -4.083455116127055473e-01 3.547730690112600449e-01
-2.842351823934393673e-01 -3.791484002486331661e-01 -3.485916101272014678e-01
2.784657111336363844e-01 4.442674815975825031e-01 -5.375916234037764196e-01
1.518029703565262623e-01 2.636424082173662309e-01 -5.257253799065874089e-01
-3.532297658030203458e-01 -5.623287411278993231e-01 2.084983950695854793e-01
2.604811415426055432e-01 3.772850938182633063e-01 -2.674778543960432686e-01
7.976804688072290650e-02 1.900314980861445013e-01 -7.080336179702565458e-01
1.814072594660371684e-01 2.484451100912888621e-01 -1.556608595594188293e-01
-4.485327880232695130e-01 -6.867317868133684389e-01 1.427339001155778220e-01
3.638323181342968393e-01 4.947470244567627184e-01 -8.286324528506575082e-02
1.724890801464803447e-01 1.174690932533666299e-01 6.131277941315071978e-01
-2.678046814128534625e-01 -4.425749015234922146e-01 2.139054715421264130e-01
4.022954464246108475e-01 5.461416813217349064e-01 -6.403046982385235397e-02
-1.534788398227190931e-01 -3.047542232874052015e-01 3.669154250294351383e-01
-3.827873453030128381e-01 -6.271006287144679225e-01 3.581704758852421455e-01
-5.761519170876983759e-02 -1.282170848908147920e-01 9.926772098986703929e-02
-2.620915739528679178e-01 -4.439333208321250002e-01 2.750975429044569820e-01
-1.277939872746367556e-01 -7.859442845609072859e-02 -8.662869469404411715e-01
2.805993434927447905e-01 4.366251795695135218e-01 -4.684051117690710697e-01
3.687899394227224237e-01 4.691455989951614503e-01 1.288340706191663243e-01
-7.992614778659211383e-02 -1.521705666370365972e-01 5.029899278454035699e-02
-8.020931147965656245e-04 -8.468562249996360036e-02 3.373727476124672719e-01
4.702257448154149033e-01 6.781365679404022240e-01 -2.984855209698532019e-01
-1.337424657998763922e-01 -2.588155043902555241e-01 2.495145970147961689e-01
5.579729600589709015e-01 7.822690730496010270e-01 -1.703493194624767226e-01
7.692643471078798589e-02 9.213384883230664457e-02 -9.834870100863499220e-02
5.271492197661506451e-02 -4.578358191272450389e-02 5.753261656272822266e-01
-2.319031733100733808e-02 -8.793453009818508539e-03 -3.606876215374147376e-01
-8.744690171825171554e-02 -1.843276364361708664e-01 1.901814386051766115e-01
-3.787874386861109915e-02 -1.815862493601274330e-01 6.267587245839149057e-01
-1.120856933870054556e-01 -1.210737771877475472e-01 -4.464379701764524255e-01
3.443644798344443481e-01 4.314570654054998289e-01 1.496756511329467298e-01
7.832745352785283610e-02 1.417454294420790184e-01 -4.076763869677488827e-01
1.519244994392159320e-01 1.797181407534199082e-01 2.038080727000291664e-02
4.393986207309805714e-01 6.121463237468512952e-01 -1.525392189429481959e-01
1.560524203036954549e-01 1.045008682716529885e-01 5.466706538054310061e-01
-2.212642953430566939e-01 -4.121063573495173382e-01 4.426717145568599410e-01
-1.978659924967038630e-01 -3.010323381811156884e-01 -6.414038710098284024e-02
-3.092449667866679075e-01 -5.404071768966510758e-01 4.693410443333269622e-01
-1.711444082373481945e-01 -2.452265538870857797e-01 -1.815847695905844494e-01
4.152022757392219154e-01 5.222569627801614267e-01 2.093872883109512140e-01
-6.895072308717505039e-02 -1.546596833242739055e-01 1.670720556958725234e-01
3.590857611324808629e-01 5.234828102088785462e-01 -3.129798715942195275e-01
-2.667993523170797965e-01 -4.013666700443537239e-01 -4.447926324879357407e-02
-6.101592425910761647e-02 -2.017543729096089866e-01 5.456346221477936798e-01
-4.162100240358732606e-01 -6.088163644060994306e-01 -6.694262563042767400e-02
9.697164714177693157e-02 1.615982854485742970e-01 -3.656911186644631884e-01
-2.310942735072193666e-01 -2.642193328637105765e-01 -6.077944784385527210e-01
-7.867524778175027933e-02 -3.547345572910479139e-02 -6.960486109031553958e-01
1.190640689908179645e-01 1.940998537460168205e-01 -3.742356898875678906e-01
4.425820489200482655e-03 1.052830668728934813e-02 -2.330098209228222972e-01
4.752613519191724312e-02 -2.985775753872176898e-03 2.498389803675436505e-01
-4.120527687993968957e-01 -6.522171407799457477e-01 2.530043584893053588e-01
-5.249765274179799511e-03 1.313134272725236668e-02 -3.386073467968223061e-01
5.859949615937350142e-02 -7.295500609803620695e-02 8.057159838449731160e-01
4.206920814683279275e-01 6.161274769191253942e-01 -3.498706329897988132e-01
3.401942017360978787e-01 4.335611790097371743e-01 9.778389609644881630e-02
-4.152000204129069894e-01 -6.461989062507691450e-01 1.850727027802883673e-01
3.122275188835895166e-01 4.686408961725478384e-01 -3.863826572452324082e-01
-4.425400099071849502e-02 -1.763696642726503283e-01 5.344425101145636736e-01
3.571781504883541625e-01 4.702969185366807636e-01 1.491507164041959779e-02
1.086027819577881776e-01 1.930779306413752672e-01 -4.634955866802695779e-01
-3.617564282420061145e-02 -1.594689431488892917e-01 4.987440298046307841e-01
4.175006033039349584e-01 5.849499076028455979e-01 -1.766634862139995210e-01
1.401106197014447552e-01 2.103878781792714314e-01 -2.870790829517232412e-01
1.509831358646510913e-01 6.364409159563991225e-02 7.655197837965900254e-01
4.152658155539451501e-01 5.824444217919548805e-01 -1.808789860026262797e-01
3.638257312868699023e-01 4.476301020757862403e-01 2.230469125610702597e-01
-2.464371001757684754e-01 -3.976440417212570577e-01 1.180024227916844637e-01
6.594057527019908140e-03 -8.089098031868909022e-02 3.805296312988447616e-01
7.833708085085523687e-02 5.637628409060151113e-02 1.467868533348047067e-01
2.037378127561212393e-01 2.105548034377727196e-01 2.950922057696201972e-01
-2.245625782029225803e-02 6.843449262862295879e-02 -8.554658787316433699e-01
-3.283510214468231547e-01 -5.327305895214962117e-01 2.443497482570919366e-01
6.680447776881166810e-02 1.626993591943513492e-02 3.015151103843173863e-01
-2.819037741709502776e-02 -4.086507499456504267e-02 -1.982534633134930280e-01
5.426626189330761851e-02 7.816108202743761446e-03 2.414782259951705756e-01
-1.118706996931100039e-01 -2.078536148312784826e-01 1.190686480506428363e-01
-2.051880204354280812e-01 -3.594665835964538925e-01 2.482039430176060102e-01
1.695804243680493761e-01 2.313137527364713120e-01 -1.528260531092953955e-01
-2.396137799812862179e-01 -3.198129674462601990e-01 -3.248736673974630951e-01
9.936156220706453268e-02 9.113383827088621103e-02 1.138026779179477088e-01
-6.540122732345482470e-02 -2.345737457086004285e-01 7.185598976856221176e-01
1.061261144127606248e-01 1.231280237956889623e-01 -3.195394133699507033e-02
3.229568753198062692e-01 3.870361242413559721e-01 2.419004775409733798e-01
3.674001406277462300e-01 5.472783774807512547e-01 -3.912889430139973035e-01
-1.296461547341888898e-01 -2.764541041754824957e-01 4.016070397224633104e-01
-2.059175138487137902e-01 -2.262542836399640545e-01 -6.235447235818678546e-01
2.294950583601642891e-01 3.725517101251041852e-01 -5.207819609847469389e-01
-4.415930309024742040e-01 -6.569909001254559122e-01 1.321594200767909830e-02
-1.517320057922837417e-01 -2.987537328154839522e-01 3.439619105248526987e-01
-1.191447939484694685e-01 -2.488527173939651393e-01 3.186310571118873280e-01
1.378244952915923249e-01 2.571826260640485140e-01 -6.119138221543765077e-01
-3.802271747112250400e-03 -6.524125411534714702e-02 1.836018866845950948e-01
3.219991187453443149e-01 4.441192104934520990e-01 -1.375684252028512022e-01
-1.197429298066993511e-02 -1.294119570340277470e-01 5.254062638261902674e-01
9.582238289749914206e-02 1.127767353067248568e-01 -5.918600326103364007e-02
1.448354774206018769e-01 2.759803811380112659e-01 -6.697157500500886540e-01
5.204180249874116315e-01 7.232230515367435997e-01 -1.311700397625473469e-01
1.537940120322211224e-01 7.515784192777565098e-02 7.165177703579101998e-01
-1.212318252873658270e-01 -1.579433001817559801e-01 -2.908529805376735000e-01
1.762516535051079913e-01 3.193171064649577562e-01 -6.631536498653819445e-01
-9.251374599823632139e-02 -2.320389242318118272e-01 4.535651493021510272e-01
3.331646832246772938e-01 3.980326523155662266e-01 2.640631372994349246e-01
3.001798627563705135e-02 -9.238162205710316599e-02 6.698697696931963375e-01
2.240908665619219531e-01 2.638037088242322081e-01 1.358730311303217031e-01
2.501025934168440434e-01 3.232717028431837392e-01 -1.186030942583722603e-02
-4.567751249913187817e-01 -6.811956907455311017e-01 3.122775227460876379e-02
1.724659757782457878e-02 -1.006367021819315061e-01 6.064048073864189980e-01
3.649936352766608438e-01 5.392245640185691080e-01 -3.610484928270147886e-01
-2.371817979890350134e-02 -1.383322167760011323e-01 4.756797468211307889e-01
-3.558603215111764695e-01 -4.876828721833909586e-01 -3.003548501786544866e-01
4.647069678757363709e-02 6.448107556780668936e-02 -1.979560298196139656e-01
3.056742462163580254e-01 3.254800923447266348e-01 4.832107902726807680e-01
8.163257072701725348e-02 -3.245403480617187197e-02 7.538471753388875651e-01
3.795171198602960150e-01 5.096279351841290772e-01 -3.571891566197642892e-02
1.053571371681858437e-01 1.488856086845245508e-01 -2.062690349386660515e-01
3.247815677510265120e-01 4.584027919640353277e-01 -2.048179098932581543e-01
-3.115494013540516050e-04 -1.172024717617635575e-01 5.530292011906198235e-01
1.515573458544546559e-01 2.270126577080096575e-01 -2.901086135227967655e-01
3.039177472208675068e-01 3.550290633125824935e-01 2.752226031565968567e-01
2.054970905234622669e-01 2.945510826278083250e-01 -2.342407081841286487e-01
3.512212670969974693e-01 4.504370879169098951e-01 8.927663713180231109e-02
-2.174854152684583229e-03 5.464408635198250014e-02 -5.799981758163406109e-01
-4.087839840658493706e-01 -6.052457110238598226e-01 -2.205720246985333130e-02
-2.962556010307327847e-01 -4.196527581409955077e-01 -1.957504236682331145e-01
9.106414189010435256e-02 6.643632386106791687e-02 1.981243254581886715e-01
1.426337058621464093e-01 8.926371441969141451e-02 5.226123966926736752e-01
-2.741046491649998806e-01 -3.838173777844826051e-01 -2.254077616921352778e-01
-1.671454101561982708e-01 -3.224761217635021548e-01 3.567207074757400842e-01
1.096776710354574885e-01 4.891412867897566852e-02 4.825367231589270389e-01
2.175227813494390837e-03 6.338801413198508206e-02 -5.969038269423255771e-01
1.885138640787108744e-01 3.109278267930254969e-01 -4.962701158690436265e-01
-3.301188412447769727e-01 -4.382975393155586485e-01 -3.850901208719484936e-01
-6.767044826100808430e-02 -2.093182995016725501e-01 5.337532451762920793e-01
1.393909899587895407e-01 2.645887400810396639e-01 -6.456483822674775608e-01
-3.342940085514863879e-01 -5.381014747932459930e-01 2.247495641511252917e-01
1.958429602881822384e-01 3.015913482148305791e-01 -3.684562887875788562e-01
-2.686879207975335568e-02 -7.590258073932608374e-02 4.138973205132513711e-02
3.452911925014006678e-01 5.257341311044004817e-01 -4.540511416248750320e-01
-1.731026656284790632e-01 -2.689805526642962685e-01 -4.528058524167143800e-02
5.080800590693985985e-02 -4.472246296445572117e-03 2.895760316931957901e-01
1.103668696090411294e-01 1.396716974601303340e-01 -1.005121962204283265e-01
-2.580950944405367431e-01 -3.096011760916508870e-01 -5.606013704328123293e-01
1.155682218886819185e-01 1.113017224475254668e-01 1.313979072551510752e-01
-2.461834490062931591e-01 -3.272351266162599193e-01 -3.368978163796986225e-01
-2.418794349338027061e-01 -4.210523781699664347e-01 3.117918315871228141e-01
2.450378791824010805e-02 3.635105928455873402e-03 -4.196433053633747030e-03
-7.477122636026732605e-02 -1.935543111893841921e-03 -8.780517748259800692e-01
1.990077066209439971e-01 1.635204001125197537e-01 5.571671238961242167e-01
1.370981552371411394e-01 1.313866182381671910e-01 1.983292291799391982e-01
-3.309964323255447094e-01 -4.534786007325179447e-01 -2.945511525946017395e-01
-2.030528304650092847e-02 -1.345044254536191808e-01 4.821078279823597934e-01
7.338254667333904413e-02 8.953810526324246233e-02 -1.139782894326476365e-01
-3.656525712005129214e-01 -5.161213766689433102e-01 -2.054424932261852133e-01
4.249240469732695757e-02 -1.078578137358312816e-01 8.847199527221706328e-01
1.598567406793391377e-01 1.337583783481751387e-01 3.915498745526251878e-01
2.141738240059121445e-01 3.098183996248525807e-01 -2.538469327450889601e-01
4.828173792544592224e-01 6.598263831820851966e-01 -6.415730201816984002e-02
4.117614459063671517e-01 6.045107711323555177e-01 -3.562984138741315809e-01
4.547255929376327610e-01 5.915405330195188105e-01 1.217705238172182014e-01
3.017088179637671397e-01 3.475268198370534689e-01 3.036923697894214902e-01
-4.314716088828365881e-01 -6.855284360626739959e-01 2.913152659428382418e-01
9.741291695911535875e-02 9.144097692661723453e-02 9.394539809519304729e-02
-6.413456013347880458e-02 -5.427322916499380256e-02 -4.406745681646048740e-01
1.117969107032464882e-01 2.254943179146469967e-01 -6.447231423927766158e-01
-6.918427210590535892e-02 -1.763343005479822423e-01 3.056830239921774495e-01
-4.751824322514118237e-01 -7.180713327489317566e-01 1.019574959687800236e-01
9.087114567294241052e-02 1.095823098280545860e-01 -8.382867097357096786e-02
-4.268707529672171042e-01 -6.508058781738191856e-01 1.080069008162660438e-01
1.730688443190888659e-01 8.916166827187962940e-02 8.022667126509409607e-01
1.605143291432851449e-01 1.472157342810457015e-01 3.101876911018003335e-01
-1.609290709095771987e-01 -2.791406575916293709e-01 1.322901136780915698e-01
1.534594141062781136e-01 9.903278948329849452e-02 5.584101050849988868e-01
-8.699546837640223518e-02 -1.123841087314832732e-01 -2.728713328207617583e-01
4.230804048671769901e-02 -9.988655340827827522e-02 8.312657084727591572e-01
3.145523775801331023e-01 3.898725088675139006e-01 1.464393796425913219e-01
-2.564009604267443107e-02 -1.465927833366313104e-01 5.117049345558193352e-01
-4.526325535239306697e-01 -7.030063832236852495e-01 2.108372247489662399e-01
-9.713726804313287111e-02 -2.840046414302496158e-01 7.486403435172643839e-01
3.678839270356471514e-01 4.738726877732571952e-01 8.983183481098815093e-02
1.565987605026059742e-02 1.255266916427064949e-01 -8.768129399677166980e-01
8.065728751207157377e-02 3.365073812836793382e-02 3.156320703621695034e-01
-3.340405410205837811e-02 2.054612920692626757e-02 -6.448415462784401475e-01
-1.219301582678858770e-01 -2.732268726947025272e-01 4.513805573954841055e-01
-7.326092448156172610e-02 -3.817836853128338259e-02 -6.288514868754883080e-01
1.483958325503216824e-01 1.597956787738010476e-01 1.174079723789497043e-01
-4.431851350384249377e-01 -6.553130523526422557e-01 -1.227419908542384808e-02
-2.039477312759825633e-01 -2.981187315510034908e-01 -1.388107771659619072e-01
1.186041459072020715e-01 1.356676028364943720e-01 9.989639619457477311e-04
3.164594980982240319e-02 -1.089141215365353466e-01 7.921526035146758682e-01
2.888998506207469674e-01 3.308541918121819525e-01 2.945452821007618072e-01
-3.311099827549545543e-02 -5.390086581399967242e-02 -1.587070627308028448e-01
-9.218041154149976546e-02 -1.661108963639145453e-01 2.849358699643279522e-02
1.661903951358434037e-02 -6.504191127854293264e-02 3.695046643108135798e-01
-2.058178748573426808e-01 -3.137031064642978873e-01 -5.475124051401099312e-02
-3.164281049422165148e-01 -4.701697015864525486e-01 -5.261716039542653489e-02
2.777397884937223699e-02 5.434652482580252381e-02 -3.035320569462618412e-01
-2.383723254737378228e-01 -4.137171154473644474e-01 2.963065217900268666e-01
8.596136111090477150e-02 -6.135849037485763963e-02 9.812295524745042741e-01
-6.165629869175814903e-02 -2.180487252586425784e-01 6.455776504438949237e-01
-2.813408985990659694e-01 -4.981824754668299216e-01 4.509298142489506778e-01
-4.921138567226368554e-02 -3.297127933983844128e-02 -4.422092009116006528e-01
-2.860012880461355045e-01 -4.851658421619207684e-01 3.236809873693317074e-01
2.123152952685999906e-01 3.280681202466537161e-01 -3.893946905670297443e-01
1.537429604525500926e-01 2.192025392421832475e-01 -2.193558172386944893e-01
-4.464499663816518527e-01 -6.978888027346347167e-01 2.342786900941450645e-01
-1.916821213193560525e-01 -3.638844933053517749e-01 4.006985656603523904e-01
5.775448040764673274e-02 -3.626759858202583536e-02 5.597271624881150487e-01
-3.175826063315557307e-02 -9.026902086855283225e-02 8.986274418884011850e-02
2.846036010041712028e-01 3.841257512280528141e-01 -9.077528000899043326e-02
3.733417703805207433e-01 5.239591334293315361e-01 -1.853916154472281252e-01
-3.107706968817374737e-01 -4.677759996707325785e-01 -1.630140933986548926e-02
-2.658289674882217124e-01 -4.237554685964581846e-01 1.098056701347762121e-01
-1.876342300038252031e-01 -3.180531563321184474e-01 1.401824876554120525e-01
-2.996575202841292307e-01 -4.128559286088063773e-01 -2.710726410966185496e-01
8.377425510896789607e-02 8.360731028762506678e-02 1.979375125211804351e-02
2.983884508504619504e-01 4.180992613559446069e-01 -1.850319581873445807e-01
-9.635302607673057462e-02 -2.122841663188367034e-01 2.900868207980171753e-01
-3.657310549460554561e-01 -5.602838345089934391e-01 8.062273384034367163e-02
-1.115457444154652894e-01 -8.614629224858613710e-02 -6.683024659393338451e-01
-3.177904057780673308e-01 -5.064639452204172665e-01 1.705845672834281901e-01
-4.222437216784391545e-02 -1.262683898102205104e-01 2.276971402335208339e-01
4.176194381730232719e-01 5.439350301367232854e-01 9.077057783051574458e-02
-2.238017574043502100e-01 -2.668375242084897181e-01 -5.239435664214915356e-01
2.779889007754259844e-01 3.988347389760232842e-01 -2.469287140039544970e-01
2.042268060315337586e-01 2.540238766360068956e-01 1.729276192800139819e-02
3.929470655314499239e-01 4.890428389912412355e-01 2.210668507308812536e-01
-2.575680438263493466e-01 -3.830668949585314675e-01 -7.869417921160253016e-02
1.394972998890214866e-01 2.159244388089111844e-01 -3.286548699906388094e-01
-7.860966994991090695e-02 -1.125990003564776619e-03 -9.184949919655911454e-01
1.556306287982535952e-01 2.546662002631502331e-01 -4.323479420789179128e-01
-3.252307102356146729e-01 -5.015520580040528920e-01 7.048398262772227751e-02
4.531627437782597551e-02 1.470136848425711851e-01 -7.444932746221110120e-01
-1.679253207730155573e-01 -2.496323308475568992e-01 -1.234656800423520745e-01
5.026694757723944307e-02 8.657923460511229852e-02 -3.066589819612808299e-01
-3.382531273037071573e-01 -5.030732844548928551e-01 -3.901077697529529986e-02
2.855159049963694740e-01 2.892882785661611833e-01 5.334485415612268966e-01
1.149046803011078699e-01 1.448385977331655694e-01 -9.246827924235428986e-02
2.468093090657530464e-01 2.403345524585980275e-01 4.965329020723011633e-01
9.575825692502640263e-02 1.405902442737503033e-01 -2.403907698162321971e-01
4.398086076674859873e-02 -9.347061910350179179e-03 2.586495768845392673e-01
-1.765082835328312186e-02 -1.131519803165031562e-01 3.677808629544617181e-01
-2.573293294386248542e-01 -4.727533354667441401e-01 5.059049431775880512e-01
-1.474166489693312654e-01 -1.508229722277631413e-01 -5.771213921123856672e-01
-2.462019973270048179e-01 -4.516054449821345629e-01 4.705751697523006816e-01
1.767994737698346253e-01 1.031107634369867465e-01 7.458810776746561677e-01
-4.742489239940066853e-02 -2.092362041843130738e-01 7.188063036284751961e-01
-8.878533780854969137e-02 -1.111605498382591956e-01 -2.972242542914298458e-01
-5.240017348239949663e-02 -7.957692974798985519e-02 -1.687896459045968023e-01
-2.640900847191889889e-01 -3.811778090270367403e-01 -1.507476230459933453e-01
1.825001362733043586e-01 3.202290093709754815e-01 -6.117970678835626952e-01
3.992660027780339793e-01 5.819287487961736227e-01 -3.241967406748818004e-01
-3.159385538445783070e-01 -4.310468453506321462e-01 -3.021877810589187474e-01
5.417636133925230607e-02 -1.045800791007730395e-03 2.982020954013644420e-01
1.690921454595659401e-01 1.678740270469767926e-01 2.546664928735209443e-01
1.847856493882952811e-01 1.116870522502693419e-01 7.633952517640629765e-01
4.875030770377937195e-01 6.809406307073047060e-01 -1.583175257910904299e-01
1.084728528490273014e-01 1.153407928892978274e-01 4.012721014800782471e-02
-4.423586072049009998e-02 -5.424315014515447564e-02 -2.584632735311060414e-01
6.170902294208703218e-03 -1.542941022946316965e-01 8.533200173024000357e-01
-5.545188900320972836e-02 -2.224902658981179615e-01 7.312947197947352596e-01
-4.010898945999225029e-02 -3.132402285520669710e-02 -3.694667569209448277e-01
-1.062166401119981340e-01 -2.176778924443545371e-01 2.346955115343428711e-01
2.062085203740387507e-01 1.562126077953744918e-01 6.706310186598818390e-01
-3.422339996225333691e-01 -5.710938258479048013e-01 3.662131599792896042e-01
-1.497366206884489237e-01 -1.843307361981523507e-01 -3.807934040063771786e-01
-1.390241894857628113e-01 -2.294623723406151450e-01 1.048326723508302520e-02
2.342990622533576428e-01 3.185453733916274732e-01 -1.260353981882789964e-01
2.831557622076181224e-01 3.353789200482004129e-01 2.125076595815097447e-01
3.020410666985847148e-01 3.648897116713787914e-01 1.939858846354124422e-01
8.356910952182979024e-02 1.557872154910347972e-04 5.598354554828101071e-01
2.224021410888627481e-01 3.680541364072923427e-01 -5.565944402040283734e-01
-1.126103584752868175e-01 -7.656877612367064823e-02 -7.402565450829512450e-01
2.152089045080753937e-01 2.647846482860100603e-01 4.808412678341537211e-02
1.157309443368338964e-01 2.286307118808527661e-01 -6.290280886553567541e-01
3.421455428277049848e-01 4.909173543110055271e-01 -2.567914044890710068e-01
2.585344123454110798e-01 3.240459283174581540e-01 6.040445101263112321e-02
-5.446610549595416045e-02 -1.506276028415705903e-01 2.736653321021981222e-01
-4.138679437201189248e-01 -6.442612846298859663e-01 1.847008946008404928e-01
1.458856300972025399e-01 1.920244402099245407e-01 -1.148914093131828823e-01
1.665669788326000489e-01 2.142812445416477640e-01 -6.984292243746269280e-02
3.807011074222956815e-01 4.944876142452780954e-01 7.345348867407122673e-02
-2.647773741655892743e-01 -3.498252677706114588e-01 -3.606467485150304242e-01
-1.751066911050813413e-01 -2.315074939501438889e-01 -3.069956780719615419e-01
2.068872224514085589e-01 2.432110947432011283e-01 1.118968188228528504e-01
5.367318237671016290e-02 9.860867735853540150e-02 -3.535523176991312577e-01
-9.438914003167378497e-02 -2.575570380505450840e-01 6.020848323792656887e-01
-4.728131110177278829e-01 -7.342823193935545945e-01 2.289483204541974404e-01
7.406439591902153063e-02 -6.366835494664563333e-02 8.871728442119868330e-01
-2.988452863007178273e-01 -4.833174576329562488e-01 1.939399798649609208e-01
1.985515304502938616e-01 3.058211878753605006e-01 -3.710954454659812218e-01
1.229003831569433491e-01 1.080602622844750865e-01 2.196596553677284402e-01
3.186195570513515596e-02 1.137266207981665334e-01 -6.516643785808019507e-01
-1.746078553288919755e-01 -3.525422311065670167e-01 4.835592583777473252e-01
-2.679395468940327096e-01 -3.443241534456284447e-01 -4.253570780630200887e-01
-2.198099025484222813e-01 -3.735721603244245292e-01 2.057682357245312066e-01
9.647695934906409809e-02 -3.882045497735076012e-02 9.312647590487980187e-01
6.611505547197439603e-02 2.171038773892478707e-02 2.598658268847835462e-01
1.159856559956487232e-01 2.482758412457809760e-01 -7.542658609369439215e-01
2.284786160633267837e-01 1.877578543353833895e-01 6.699253574487987750e-01
-1.568100022640425972e-01 -3.421826743700325246e-01 5.794344492950880277e-01
7.688260213765341078e-02 1.311856164826678273e-01 -3.523470832695310695e-01
2.111296645795118776e-01 1.810220134696504946e-01 5.546332488120094828e-01
7.956941511196187478e-02 -2.265495775824795388e-02 6.713009194576142757e-01
-2.873324813059538463e-01 -5.038329354701501783e-01 4.326996840864074656e-01
4.277492969678144130e-02 9.683918608861395022e-03 1.240106362156977032e-01
-3.686274174105801937e-01 -6.025461239774655420e-01 3.285177189736211423e-01
4.327690974663824831e-03 6.057007455816781905e-02 -5.588734158623755999e-01
6.800867875246303929e-02 1.704585095517644477e-01 -6.887247551498250075e-01
-2.549873243112436016e-01 -3.258986938388596655e-01 -4.262794407732471424e-01
8.427844335930678721e-02 1.674461767700261561e-01 -5.200220528955409316e-01
-8.162423762517823436e-03 -9.447253441097805404e-02 3.334571576546537242e-01
1.017444438772541065e-01 1.486415765949362644e-01 -2.378010218215516058e-01
9.179420969727931923e-02 6.243743874962277146e-02 2.307848691427651089e-01
5.455258193857676075e-02 1.221180301899996677e-02 2.155578416014429510e-01
-1.077168714643325087e-01 -1.508071891971745626e-01 -2.133055092257161445e-01
3.104630206384326740e-01 4.849167546124194539e-01 -5.082504820309153848e-01
-2.215789314037438229e-01 -3.819605390714845283e-01 2.440248996343001853e-01
-1.529100336841304475e-01 -1.758422261709843282e-01 -4.650064897295863031e-01
8.274533343411140385e-02 -3.162608892612763130e-03 5.738332854020848917e-01
4.383654361631553892e-02 -7.788724254237984479e-02 7.024167611753968643e-01
5.014047984468394947e-01 6.863857251580016694e-01 -6.624342952347594959e-02
-9.695079180164109522e-02 -1.851065358430227237e-01 1.081196098693778390e-01
3.142658277681138063e-02 6.176013206880379136e-02 -3.181924118030972637e-01
2.571928344362962165e-02 -1.453401268795829170e-02 1.249333750775816071e-01
8.929777692663536104e-02 6.667883097476480329e-03 5.700601640377455093e-01
-4.073944691002283069e-01 -5.993713353717640135e-01 -4.746720391718462634e-02
-2.461936454093181514e-01 -3.423101617219184156e-01 -2.390961679853199906e-01
3.890012026345650575e-01 5.297604777303216439e-01 -7.951843924777192429e-02
-1.097559575193417063e-02 2.691106146812455302e-02 -4.805781844610235720e-01
-1.323831007055281672e-01 -3.241080397646017297e-01 6.859759345679981024e-01
5.330322666415797661e-01 7.486002027155181926e-01 -1.803338811715019807e-01
2.925722706697035380e-01 4.531366001968794022e-01 -4.658749468183744358e-01
-1.366773335221639352e-01 -1.618632353489785902e-01 -4.069827675034508041e-01
1.506464259918418869e-01 1.268063965510517477e-01 3.522662932237145550e-01
3.951991695390340564e-01 5.105325456357937552e-01 1.021602765467667928e-01
-1.323217631826612006e-01 -1.561553411360311339e-01 -4.041225413711889147e-01
-1.319878705337330649e-01 -8.708529243276885712e-02 -8.495928196366898666e-01
4.313869050141901085e-02 -8.492001481510612348e-02 7.416895231150808510e-01
6.632342300463063556e-02 5.469966124573565590e-03 3.672388515440153656e-01
2.239349291405796916e-01 1.970426442093932973e-01 5.679803708636648185e-01
-7.321432850194724284e-02 -3.650110609610083406e-02 -6.393162544161308247e-01
-8.952995538320242253e-02 -1.973761981775711272e-01 2.558220722566271199e-01
3.765713621660558563e-01 5.074000306639557811e-01 -4.825428016996952119e-02
1.825087080569904041e-01 3.002066052345277458e-01 -4.816958709169478214e-01
-2.861118830633770926e-01 -3.777433943319783993e-01 -3.749187837623310093e-01
1.186900964387177237e-01 1.737496018123816932e-01 -2.455121888673374164e-01
-2.972532549940340996e-01 -4.456104885352695777e-01 -3.632990006559029539e-02
9.208388689472143951e-02 -3.951342481960181535e-02 8.954945602102288849e-01
-1.924496471787854879e-01 -3.981109040372631802e-01 6.159242430871767482e-01
-8.160540291618764708e-02 -2.023904825403107788e-01 3.610265951082850533e-01
1.662148847116860784e-01 1.390321729021555541e-01 4.155861962280558708e-01
2.843240107378602333e-01 3.946626218856468249e-01 -1.617631443638307964e-01
7.277609535031548393e-02 5.046887704954097775e-02 1.341724821076537844e-01
-2.494998581349580982e-02 2.343549311498263274e-02 -5.861082369743437770e-01
-2.796997678330997439e-01 -3.843787820266145738e-01 -2.730511991307618125e-01
-5.400942191911496659e-02 -1.640046420388328527e-02 -5.938001503002322545e-01
-2.378456223837716599e-01 -4.038106919966317765e-01 2.368037897610858200e-01
1.867163639754057525e-01 1.296200607170321928e-01 6.646392655222057577e-01
3.575946936382263797e-01 5.320338865624116842e-01 -3.821775947909396010e-01
3.264661631139778586e-01 4.928848931700418046e-01 -4.132974475560788896e-01
-8.350583807430708716e-02 -1.326094466404059424e-01 -1.095422812634758020e-01
-2.264376922803360698e-02 5.461648810569533913e-02 -7.674526109829081788e-01
3.692375714989795665e-01 5.013939221809770030e-01 -7.647857980271167977e-02
-6.773822268940891955e-02 -2.834035635867538511e-02 -6.421128393761650344e-01
4.730241438363623763e-01 6.675760390991545279e-01 -2.042547056832596519e-01
-1.507599664790348210e-02 -1.614308213698352756e-01 7.048996011937451733e-01
-2.042664492925761466e-01 -3.217533966873493689e-01 1.174773737058760342e-02
4.011927281622529318e-02 -3.298617692103644056e-02 3.767603460177719743e-01
2.298452220024619075e-01 2.936831745289976148e-01 -5.411133238228510965e-03
4.764180128585276397e-01 6.821250750072448410e-01 -2.676232722122888208e-01
-3.755827647012865977e-01 -5.654431724620385680e-01 2.381846508428676207e-02
3.632759395490339771e-01 4.549520763146289171e-01 1.704592522344214878e-01
1.762762162626554663e-01 1.722931127318680922e-01 2.918242447724858635e-01
-1.600139858353815114e-01 -1.626589069803502374e-01 -6.157373063623217124e-01
1.251380653555721374e-02 -3.885605518956328913e-02 1.618257797085892180e-01
3.209630868473699605e-01 4.414453703039071808e-01 -1.297019472986930821e-01
-1.804594517030226053e-01 -3.109610594640471182e-01 1.598969060623161575e-01
1.538400332697503481e-01 1.485095399905038693e-01 2.406042266403456975e-01
9.010214812593982103e-02 1.381527027424589993e-01 -2.764099226756073779e-01
9.679260541404111073e-02 1.286340831860836864e-01 -1.532675486123392106e-01
2.679173996456786222e-01 3.422921945968149804e-01 2.792741697554284447e-02
9.678855230004272669e-02 7.062085445605201239e-02 2.234248863852042744e-01
3.377540787316220539e-01 4.589168014101637216e-01 -8.923990466619402540e-02
8.638357412868154228e-02 1.975197038488329393e-01 -6.960179947168938508e-01
-3.542695471722367428e-01 -5.602892072309415550e-01 1.857225269939959955e-01
-1.752135751988835310e-01 -2.527568935204430045e-01 -1.699849051404335454e-01
3.180053576358510825e-01 4.086034631852018539e-01 5.645589132414906286e-02
-3.456386840528681836e-01 -5.432445005173633934e-01 1.541537058122811610e-01
-1.926521522675209708e-01 -2.062026208160329943e-01 -6.321569464193925736e-01
1.549129794799958548e-01 2.468670881818197382e-01 -3.882801463733643321e-01
8.735059307164533271e-02 8.027337800563309755e-02 7.422726511563336460e-02
2.382381980189795523e-01 2.641504152812338968e-01 2.633067766080948169e-01
4.234796083500106945e-01 5.498170473391105206e-01 1.062923814794964755e-01
-2.504535354726499918e-03 5.816073467130279066e-04 -2.319462979246655066e-01
1.483903875967101937e-01 2.314607627461840733e-01 -3.480247195557755746e-01
-2.553836291551332405e-01 -3.218659332186117328e-01 -4.561004418102513891e-01
-2.808680320778569883e-01 -4.524133413822223893e-01 1.580462747113026700e-01
6.536010848005084639e-02 1.265216807418498568e-01 -4.276840998189165854e-01
6.671907590425214807e-02 1.062767693603112462e-01 -2.837592184972190790e-01
5.552480523658075151e-02 1.617661749540267868e-01 -7.467146666250786824e-01
-6.168085160674335876e-02 1.276658469079341648e-02 -8.535289467417261910e-01
-6.036288478745873570e-02 -8.516496140373533419e-02 -2.054940417373851969e-01
-2.871670682756951587e-01 -3.971769941018439831e-01 -2.583924041621120660e-01
