-6.617635608488214860e-01 1.385395900128550961e-01 7.294159346612600903e-01
-9.478447119201784954e-01 -1.851313080444677017e-01 3.924696174985053965e-01
-8.884404763409312622e-01 5.808091233027725536e-02 4.556158762481637425e-01
-9.350741458827271924e-01 1.596370976686063148e-01 3.947110088891043755e-01
-8.263647712845381132e-01 8.996539026096968261e-02 5.302145876285702109e-01
-6.165744001168473876e-01 3.549185178291903164e-01 7.762362564678572108e-01
-8.199508844772371852e-01 1.525161402428280022e-01 5.356262347648268474e-01
-8.817958882625117623e-01 -4.803957187131999707e-01 4.845989582932256901e-01
-7.108131088727493996e-01 8.548729008392577100e-01 6.417373326250122023e-01
-8.100513135730224024e-01 5.185852093735346946e-01 5.335349076556932246e-01
-9.189084938986720186e-01 -8.536624951922486826e-01 4.537246362446189507e-01
-8.370721892742264414e-01 7.710877866393717195e-01 4.907407126494922611e-01
-8.768743906480689354e-01 6.423019219290599935e-01 4.471071204728626625e-01
-9.147761816956994085e-01 -5.906146129572308334e-01 4.485798246523484134e-01
-6.822435851278015884e-01 7.931420511395024242e-01 6.790310817948622679e-01
-9.449082859654299726e-01 -6.979480933088658690e-01 4.159283467685049862e-01
-8.296717876180028650e-01 3.074367712778456885e-01 5.177476610821128977e-01
-8.705781177799699622e-01 5.970064766062181949e-01 4.565540879494142668e-01
-6.307276682959493952e-01 3.296702851506407850e-01 7.599244045661435187e-01
-6.553096202876462772e-01 4.175697971878929854e-02 7.410506250827424424e-01
-7.669978477217933577e-01 -5.179866705366283908e-01 6.262975826654888500e-01
-7.695981219459133715e-01 5.159560711916144626e-01 5.830560615841673400e-01
-5.765228547703291628e-01 -1.267614994580206766e-01 8.438297968523369441e-01
-7.382925338271881799e-01 5.168198407836551711e-01 6.212667794515384090e-01
-6.962068788439479405e-01 -4.891382660666783733e-01 7.116608640681484355e-01
-7.426391854929070835e-01 6.815763218578636540e-01 6.095724757367232405e-01
-6.133677012102153325e-01 -2.389717748158441402e-01 8.031667322985901469e-01
-8.327632510849491965e-01 8.348005970291999533e-01 4.935358389067017182e-01
-6.305398473108514423e-01 1.633346780242942164e-01 7.665993009693775617e-01
-8.674555064044253694e-01 9.493325703756868572e-01 4.467162850025905851e-01
-8.913332180748899658e-01 -3.605326408132725757e-01 4.683031132286685772e-01
-8.295953889734370978e-01 1.821983597373953989e-01 5.226939374366401658e-01
-6.186047030256843771e-01 -2.178498328809984896e-01 7.959505285256368579e-01
-7.102723230721762482e-01 8.306157692223193889e-01 6.433379340735831953e-01
-7.000177549465129712e-01 5.310760230138948657e-02 6.859935040059449429e-01
-6.706310702487933151e-01 6.993761118365127150e-01 6.968508029383448932e-01
-8.254065438309621250e-01 6.182395195694496692e-01 5.109147598014787128e-01
-7.626525804605651659e-01 -6.445727652942141450e-01 6.365111060165615786e-01
-6.077446716019336836e-01 -8.305412461065640739e-02 8.039943011634420600e-01
-6.595321905834361509e-01 -8.251474436284881309e-01 7.694844034430008417e-01
-7.017934250633529603e-01 -8.484037688365130281e-01 7.187575229651880226e-01
-6.635570624426950781e-01 7.405655479495141247e-01 7.038966243641282539e-01
-5.473245631790293331e-01 3.569204503387811700e-01 8.607571193701316625e-01
-6.027162420233397322e-01 4.329948633771337763e-01 7.901405189066592616e-01
-7.528329526307706576e-01 -4.136759528169695055e-01 6.395599948381781585e-01
-9.546169332625190629e-01 -2.731326954696500775e-01 3.876064175166374359e-01
-8.671064039478825203e-01 -2.493328606422877958e-01 4.935906290440170152e-01
-6.445778971162877680e-01 1.175938966790861795e-01 7.512222836449036212e-01
-6.881539140359276274e-01 6.332590780568680966e-02 7.000909022085993749e-01
-7.075120317933174530e-01 -5.001914554787997291e-01 6.982783334206453807e-01
-8.753853548774173099e-01 -2.288159983319408008e-01 4.826817022672262314e-01
-9.070832662454899609e-01 -4.210037754978501745e-01 4.514054446220605032e-01
-5.676642730595361508e-01 8.835440315771772024e-01 8.155028171509637325e-01
-6.423378070329093248e-01 -2.070072118116704218e-01 7.665370488536101812e-01
-5.724250786919472533e-01 -7.716331057762905454e-02 8.469138954727275515e-01
-7.052277211544418778e-01 -1.897470230329404706e-01 6.890393276863101546e-01
-8.188796840292746904e-01 7.374294931861011260e-02 5.399872907004854561e-01
-8.502834185889605045e-01 4.084343541662020516e-01 4.886540274821258856e-01
-8.108239591542149016e-01 2.536310058655325550e-01 5.428578948784019698e-01
-7.223178375822665309e-01 -1.157681470804879237e-01 6.652946859269507351e-01
-5.751299333217106957e-01 2.253593400039504147e-01 8.318868873800426833e-01
-6.078321242667167335e-01 5.090132937565852167e-01 7.809450600381885321e-01
-7.884291238703018401e-01 8.858084521794905575e-01 5.457196879709463877e-01
-8.458290271112346437e-01 5.748659019698492134e-01 4.876465302880911845e-01
-7.665822215114148630e-01 -1.000392603923216800e-01 6.106100127137316091e-01
-7.326142858162163485e-01 -4.433853306690497820e-01 6.654111743200314955e-01
-6.536216263459487807e-01 6.147337500330589677e-01 7.209100981839106081e-01
-9.511587983161213788e-01 -5.930661286832238366e-01 4.042283254334587683e-01
-7.944461017090406196e-01 -4.697704217392515980e-01 5.908973086136066755e-01
-6.178296459993000145e-01 2.105806828205286085e-01 7.802958373064567965e-01
-7.682689499343297035e-01 5.007159749599862097e-01 5.852703809510492183e-01
-6.595765738055024974e-01 7.372748868546090684e-01 7.088868642796476438e-01
-8.333416770364264758e-01 -1.950231834532122066e-01 5.327345213551214487e-01
-8.808306674694275085e-01 2.657321867154227579e-01 4.568659161924382150e-01
-8.324344618431840370e-01 2.732265600465830224e-01 5.156982988162152060e-01
-8.995330567228789764e-01 -2.303735037884073467e-01 4.532422334607711933e-01
-6.604665594092896663e-01 -5.496352771240825552e-01 7.576669401328705034e-01
-8.675114569175881307e-01 -3.273655502494329239e-01 4.961195391743340455e-01
-8.013809481640653543e-01 -7.726515525872882373e-01 5.941619540303105795e-01
-8.615288328960800657e-01 1.918784091856376994e-01 4.833076359041608150e-01
-8.910723941279728999e-01 -4.209666490617473000e-01 4.709635431258515359e-01
-8.798382857799025292e-01 -2.598639649533357465e-02 4.693822433715607034e-01
-6.604517077516739443e-01 -2.154401422713937003e-02 7.372217318048308599e-01
-9.145186800150885142e-01 4.084924248512091793e-01 4.101793510049607239e-01
-6.509065159754379160e-01 -3.038531801992180870e-01 7.598219104587737860e-01
-8.501516488719329523e-01 4.830937681391936356e-01 4.859219765883219244e-01
-6.619825253307666246e-01 9.065388806037084635e-01 6.993887348026591733e-01
-7.670965316314940496e-01 -1.861676898188016627e-01 6.133191569205466154e-01
-8.631464255662633089e-01 -8.322407301657014367e-01 5.210157768791310318e-01
-6.929858467940807065e-01 -3.958880269253606948e-02 6.981759242827696443e-01
-9.328293652580254003e-01 -4.214939509777153592e-01 4.199719497070781848e-01
-9.234495059523074589e-01 2.255464189886957072e-01 4.063581819941374795e-01
-8.910181641842453981e-01 -2.145481517511194647e-01 4.630311480765831877e-01
-6.780962403492897250e-01 -5.665680541328109721e-01 7.367859390194826386e-01
-7.428796731298307199e-01 4.679814067270004485e-01 6.175554144397419343e-01
-5.337418032752463404e-01 4.433535712698629672e-01 8.740011219777507057e-01
-9.076033694030161136e-01 4.504299044708549027e-01 4.170023150144885893e-01
-7.461061792581125118e-01 -6.597755853200506504e-01 6.573139713790789873e-01
-7.101654649798168073e-01 3.394973727251773821e-01 6.624991423764831078e-01
6.459063897942985966e-01 -8.579217584284946074e-01 -6.449500943146957432e-01
7.627121104439890109e-01 -1.978881536363031046e-01 -5.278315132456730119e-01
7.080263189200372009e-01 -9.518298695676198629e-02 -5.986177052360649453e-01
6.586822346748819612e-01 -6.331092791171398504e-02 -6.601334906881857201e-01
8.641412643849982755e-01 2.777668507265325659e-01 -4.223529695753982516e-01
5.960436333855461122e-01 -5.026669916277319849e-01 -7.196304777378480511e-01
5.636890278840190893e-01 -6.016464369429305181e-01 -7.553207700895979704e-01
6.894037775353382136e-01 6.283242922719226575e-01 -6.494034185212967936e-01
5.064901826927630246e-01 -7.063533477466207300e-01 -8.211398659139711453e-01
8.156426851832940805e-01 -2.521196655567701228e-01 -4.610679031350535251e-01
7.445346727776757101e-01 9.683123881653479814e-02 -5.614580889673450592e-01
6.925121259154470854e-01 3.013913458235405532e-02 -6.224266672037167547e-01
7.661464718129977758e-01 8.582519067290099724e-01 -5.645610146572910271e-01
7.040526166831752031e-01 -1.738363515396480763e-01 -6.004243522743905048e-01
8.818475537816263810e-01 -6.845273350076212619e-03 -3.896936209911699978e-01
7.340151308828184451e-01 -1.326572199421665599e-01 -5.654165946913830565e-01
6.771928967344345018e-01 2.212912899758309460e-01 -6.485483441651010983e-01
6.030096420674516677e-01 6.235555710650560884e-02 -7.330149423530266661e-01
5.099460611757414830e-01 -7.249065886554413307e-01 -8.161990916201963264e-01
5.588532625999058645e-01 -6.638514705862413878e-01 -7.588179157247898488e-01
5.422838119629878051e-01 -8.087567192437732366e-01 -7.734448075616805474e-01
7.384873494334245336e-01 -1.772961664555215977e-01 -5.582234057765844693e-01
5.169792662888308410e-01 -8.690572739503540367e-01 -8.020212515591500502e-01
6.286704690458672085e-01 7.508473362648228067e-01 -7.283454407404758024e-01
5.372281112348670229e-01 -6.450648689799853841e-01 -7.859640605803156488e-01
8.411132369712663870e-01 2.901789194561739116e-01 -4.509659143506839496e-01
5.972406212555534388e-01 -5.120954977425205001e-01 -7.178028370164629690e-01
8.506932448037675121e-01 1.772749972304657473e-01 -4.348875969169697098e-01
8.058205190493622494e-01 -5.169837138059244497e-01 -4.628036743478788906e-01
8.589061620041626988e-01 -6.191867890975679689e-01 -3.939917452529221875e-01
7.913231597317724741e-01 4.003305296656467505e-01 -5.160598483383057600e-01
8.660816444914337664e-01 -2.041209433101514870e-01 -4.013095383007243555e-01
8.679566947038004354e-01 8.183500036681932155e-01 -4.386392917194599228e-01
7.965617943475810092e-01 7.447712959420337286e-01 -5.230070769460861690e-01
7.392903431774475731e-01 -9.257980565969011755e-01 -5.282382492987989231e-01
6.147282712296784357e-01 -6.984454984222381313e-01 -6.892182102170976155e-01
5.802393358453749039e-01 4.823470110944596545e-01 -7.771066029804987174e-01
8.866229184966937238e-01 3.693121040059937910e-01 -3.984358066694492218e-01
6.499435765115927355e-01 -2.469276850145863123e-01 -6.636939082997626027e-01
7.281845816458853982e-01 -2.808381988311411948e-02 -5.765916151170982218e-01
7.513788208232625720e-01 -8.192873722278429804e-01 -5.175977216597026365e-01
6.192800662238012732e-01 -4.406735366173296642e-01 -6.936461243795799536e-01
6.464469780164524559e-01 8.908651035614197911e-01 -7.120545688121847627e-01
7.372845063118498299e-01 -2.431077574889470849e-01 -5.571426720661195597e-01
6.418665466081647786e-01 -6.333699557148861348e-02 -6.806752138422899057e-01
5.940408691068042035e-01 -5.165162393601032687e-01 -7.215404831030618471e-01
6.318758585984117770e-01 -3.220980747371630093e-01 -6.828533461980982322e-01
9.346107556698572960e-01 8.158805526750936288e-01 -3.571162705134321436e-01
8.956866873561669662e-01 2.671934916649060243e-01 -3.834060748944581043e-01
6.415941869119280438e-01 -7.335841009001901059e-01 -6.550360987101546684e-01
6.225774518892930320e-01 1.647694121989854432e-01 -7.130786054932705120e-01
6.463882457153009575e-01 -5.800068763056570598e-01 -6.551305438591735752e-01
7.762174477741078382e-01 -6.841014081205702979e-01 -4.924922464782107712e-01
7.454645335955012442e-01 -4.525721386700032323e-01 -5.390329442006860372e-01
8.627319844484399036e-01 2.447273301142363910e-01 -4.227943337989935602e-01
8.359295515902709361e-01 8.141782231183136709e-01 -4.776033064538603434e-01
5.822179173925488005e-01 -1.112019224093657443e-01 -7.516896731637223716e-01
4.976962980303674677e-01 -6.007691075785769330e-01 -8.359741879661806152e-01
7.982006792260674111e-01 -3.371960895095753585e-01 -4.790790903190639272e-01
7.590942661692496873e-01 7.834159053220792757e-01 -5.702764090323610979e-01
6.170892894373070092e-01 -7.725802866628428021e-04 -7.133684752192414047e-01
5.620224714697045210e-01 3.543475205504524606e-02 -7.820433768980460387e-01
6.840035511607548413e-01 1.620951567147856931e-01 -6.379343403139507984e-01
4.767032092402744836e-01 -8.423547579808059460e-01 -8.522588456003915569e-01
7.617165679928548094e-01 -7.077219446211387155e-02 -5.339734076339939239e-01
6.740030211880532196e-01 -9.194559225908532918e-01 -6.082416713052155588e-01
8.375910270114895750e-01 5.224009507636815375e-01 -4.642673127840582503e-01
7.203236950845578468e-01 -6.081541228730602544e-01 -5.637172747571680409e-01
5.981223413671886702e-01 -7.375608510751526792e-01 -7.079889880369792943e-01
5.631763712648818476e-01 -7.618075303087030736e-01 -7.497408660658391177e-01
8.333761227559323137e-01 -1.064775234590993429e-02 -4.487609616580837124e-01
6.943492382221706505e-01 7.339406888696378140e-01 -6.474544396193577800e-01
9.007587498392926051e-01 -1.787933167235545573e-01 -3.599280027996982212e-01
4.998398741948105739e-01 -8.247951928935395305e-01 -8.246745750826777188e-01
7.909295185192827260e-01 1.572210440860961900e-01 -5.071203290346820713e-01
7.831667424790208498e-01 -5.008753412061978105e-01 -4.911026494466607661e-01
9.421117919095626236e-01 7.941992693789408087e-01 -3.471125552770827349e-01
8.524456672532709778e-01 -3.776885741285734149e-02 -4.244138917289386748e-01
6.505655655830262507e-01 -2.758964461641889576e-01 -6.618115316132905379e-01
6.817765540917567479e-01 -8.899525059256934156e-01 -5.998884522035035083e-01
6.032117746325513785e-01 -2.878994869630902564e-01 -7.191957484873690021e-01
7.013830524056440252e-01 -5.159301142566423692e-01 -5.904295876862805104e-01
7.031408063404761544e-01 2.364875503541760404e-01 -6.174381648093983932e-01
6.587291012328532203e-01 8.114255444765108294e-01 -6.939719689207844988e-01
6.705319039833705919e-01 9.055518200622193481e-01 -6.832005419257132228e-01
5.859455696096793620e-01 3.625776522855888584e-01 -7.654946133414615161e-01
4.881504010890195810e-01 -8.677312517953222892e-01 -8.372911569332450732e-01
8.460473284142966399e-01 4.240030251654086091e-01 -4.501238634441935282e-01
7.021386995234495387e-01 -1.813450998202948139e-01 -6.024715104960515211e-01
8.477417524381078984e-01 2.231204076916036838e-01 -4.402697544954399245e-01
8.148504635226683224e-01 5.123376004298537678e-01 -4.916581652276906245e-01
5.825087961921863178e-01 6.905079902741768638e-01 -7.824003024025342201e-01
9.237420154926785365e-01 5.292049859671825729e-01 -3.592853907312584250e-01
7.516890377998399764e-01 2.585328123185016147e-01 -5.589839030462389058e-01
6.463291129406023572e-01 -6.961148735882259908e-01 -6.507036385962676750e-01
8.082190779430042937e-01 5.201365215742925763e-02 -4.819219454719418927e-01
6.441015149013706864e-01 6.529502462767839965e-01 -7.057007651154924011e-01
7.804396270789688561e-01 -6.828641424791548342e-01 -4.873822029213323304e-01
7.904521687857767320e-01 8.798572283609378264e-01 -5.357053783967229421e-01
5.785743073859357377e-01 -1.273774171915099396e-01 -7.555140616151452271e-01
7.819702580588785423e-01 8.162992131319100064e-01 -5.436043770777460038e-01
6.022493374909537733e-01 3.348906127023631996e-01 -7.445043996405783515e-01
5.402124003371520100e-01 -3.252487412138365674e-01 -7.947110938701757998e-01
8.786328909800498188e-01 -4.774134089654539781e-01 -3.753864340737845251e-01
8.141047621613897167e-01 -3.092801443851914134e-01 -4.607317443267396895e-01
5.553037324538303565e-01 -2.541997200073748547e-02 -7.878931643896059933e-01
5.396973260262443173e-01 7.495159941630467892e-02 -8.108479529615826298e-01
7.612363172978870995e-01 7.401062036917261944e-01 -5.659813558517834409e-01
4.835751247115070983e-01 -8.806097994184036715e-01 -8.423814627310661773e-01
5.692619566817759269e-01 -2.424807350011269069e-01 -7.624301973394773668e-01
5.615269464421136503e-01 -5.068108630834767814e-01 -7.616369026473863713e-01
7.484356202534001579e-01 1.854230299512784896e-01 -5.601254326776781145e-01
8.303459050262222974e-01 -3.619230374699335395e-01 -4.388510053167767322e-01
8.891196718565260726e-01 5.844180925604559595e-01 -4.037209523215219975e-01
6.816926645998570011e-01 -2.334758258311726287e-01 -6.254291767736576135e-01
6.309167047601040856e-01 4.108909679588899078e-01 -7.124281568305355083e-01
8.757084324707978817e-01 1.077314375486936593e-01 -4.016332304966986899e-01
9.058837392058139981e-01 6.713676093145807267e-01 -3.866105443983570145e-01
5.850156627821080368e-01 2.738354475937818666e-01 -7.631918962169370602e-01
5.427083178114692208e-01 1.300100458989833507e-01 -8.093030976176162072e-01
5.745872365357547196e-01 1.626850171095909625e-01 -7.716246485362261431e-01
7.051930517802289522e-01 4.997864735437577699e-01 -6.251337989026322095e-01
9.096170064249124998e-01 5.663704322185773021e-01 -3.779812283725998978e-01
5.560790752392887892e-01 -6.290616839068455812e-01 -7.635550686926714237e-01
7.074850042545429707e-01 3.077911630022820977e-01 -6.148941047606383270e-01
5.386238115404473614e-01 -4.198373543239174444e-01 -7.929865033357040849e-01
5.308495058831395053e-01 -3.752307192149539894e-01 -8.042124050488702602e-01
6.390783187717664626e-01 -3.521780837878822901e-01 -6.728889360279807219e-01
5.015504151814373923e-01 -7.328940734755674535e-01 -8.261460443865762393e-01
7.565383836740396939e-01 -1.003839309082448367e-01 -5.391518452524161065e-01
8.612979888643557125e-01 -8.472807759179811216e-01 -3.822312293913590064e-01
5.860204704751897919e-01 -1.099585194490734080e-01 -7.470925000056077847e-01
7.229363208069325974e-01 -4.336000476072416898e-01 -5.672894935296759478e-01
6.987887192233016576e-01 -2.630662703642824285e-01 -6.033973168626116657e-01
6.253670005748397376e-01 2.190152108584528245e-01 -7.117727842906723668e-01
8.559481665486683433e-01 -2.872893088074340295e-01 -4.104662649227401316e-01
6.322715183901188585e-01 4.365427120711737330e-01 -7.117670571225288567e-01
6.136965526551513284e-01 -8.446070935292273596e-01 -6.848148891981754582e-01
6.288918845826223514e-01 5.696638477968196668e-01 -7.210541536485058911e-01
5.707975311268363994e-01 -8.143944255785658115e-02 -7.667945704575540589e-01
8.497082845595810285e-01 3.401817741409742801e-01 -4.424034453162197233e-01
5.876403248169600468e-01 3.293768498137794043e-01 -7.621377114849268164e-01
6.737536283838014839e-01 -1.182194936180393785e-01 -6.395939711352073287e-01
8.903872629307422182e-01 -6.178649636719646225e-03 -3.792869939672464108e-01
7.098471212704257072e-01 -5.853360806529148697e-01 -5.774000775749910108e-01
7.931671235763850802e-01 6.056235738715221029e-01 -5.217622202375091778e-01
7.071897437302812062e-01 -1.567360301291535474e-01 -5.972545408588180171e-01
8.387397333755221007e-01 5.857350832825146680e-01 -4.653181815239559871e-01
7.866497105010465951e-01 2.846688024231314174e-01 -5.172872738557950933e-01
6.848336071553358106e-01 -6.344455977466756380e-02 -6.281807247895651036e-01
7.620064957169970787e-01 3.545717989466303788e-01 -5.501011510191196052e-01
8.857613379947761878e-01 5.438062568036422517e-01 -4.062499360848366159e-01
5.009486059904659783e-01 -7.698036559165991610e-01 -8.254510057333821482e-01
5.432598437583979756e-01 1.678178134643846797e-01 -8.100943687005989213e-01
7.299633111768528693e-01 4.546207307716068069e-01 -5.931232787674450835e-01
8.121440785638222026e-01 5.661325118502519987e-02 -4.773052368097511211e-01
6.760123603375356449e-01 -2.882904678980744984e-01 -6.302444209032020961e-01
7.702243895235545423e-01 -7.430887726403624383e-01 -4.975278721538127225e-01
7.153410016508887637e-01 -3.589908676181083336e-01 -5.794593261219047609e-01
8.545746842324616344e-01 -5.630830571540563767e-01 -4.014572558931148727e-01
8.297332495524230023e-01 -4.485364723264473330e-01 -4.362432100312539918e-01
6.813225588050725312e-01 -1.667728267817994436e-01 -6.284660310528448202e-01
6.633402198705958819e-01 8.612598547502828827e-01 -6.902698996261769082e-01
5.976178448289023448e-01 6.221728216564310632e-01 -7.612945058810621779e-01
8.094203381958798849e-01 3.963438151211309823e-01 -4.937971101215912761e-01
6.394918219339948973e-01 -7.342431402961014930e-01 -6.575788963282332977e-01
9.153918259118341005e-01 3.679541137498359427e-01 -3.632379094280777099e-01
5.780557147354732361e-01 -3.908543981570146708e-01 -7.459379547837630131e-01
8.640335894227595404e-01 -4.369832712137973751e-01 -3.947881924997593828e-01
5.036230236434965368e-01 -4.785199917575523876e-01 -8.334709676924588750e-01
7.034837963259912286e-01 -5.901592113496038211e-02 -6.055684980362912029e-01
8.423417100490768750e-01 4.137320566693178936e-01 -4.542528021744794420e-01
5.043516641093925834e-01 -8.750882651867871731e-01 -8.172139487726429730e-01
8.863973368648863094e-01 7.187941075704263882e-01 -4.122536918262258987e-01
8.490122653810180386e-01 5.001869807425772807e-01 -4.494538766409120756e-01
7.158670807631396515e-01 -8.458378433916899919e-01 -5.599514963099397891e-01
5.925804264786144193e-01 -6.564475297282645894e-01 -7.179023310768471999e-01
5.577972707719678347e-01 4.159856202072675369e-01 -8.019512681546944188e-01
8.367725702514180464e-01 1.286665867552384268e-01 -4.500101041991563799e-01
5.947833466114457179e-01 6.286209320348271623e-01 -7.650071070185264777e-01
6.099296299122979326e-01 -8.143947692168811425e-01 -6.905874333031012391e-01
8.967199764701873077e-01 -2.297238347113893242e-01 -3.628883940069563274e-01
7.250440842090190019e-01 -5.937541330970656089e-02 -5.792156371120495972e-01
8.263884782740854584e-01 -4.778743934683860606e-01 -4.391924854351171859e-01
6.467903366402230070e-01 2.931905397144844438e-01 -6.884754275601571161e-01
4.954245885040533537e-01 -6.585577181502129118e-01 -8.365101129201967245e-01
6.228358172163390716e-01 -3.613672769242141092e-01 -6.923753631566099687e-01
8.778420032635666503e-01 -8.150001863870186269e-02 -3.916941202932389121e-01
7.495215934476915365e-01 6.692908833483495190e-01 -5.775484734166751455e-01
4.920585018937896349e-01 -5.783900506948898013e-01 -8.437287312617905988e-01
8.522530256234491786e-01 4.018154326909011975e-01 -4.416829681175399314e-01
8.829225313614417203e-01 4.978260439588369501e-01 -4.079362213731004827e-01
8.667855591487658717e-01 -4.780003976413502720e-01 -3.898368742672522758e-01
6.115232351191157711e-01 -1.623733646637458006e-01 -7.139062212748557013e-01
8.620177143549255794e-01 3.991523160176973506e-01 -4.296508295886968254e-01
6.229085426538120140e-01 3.943062698317133519e-01 -7.215686044005306110e-01
7.659577499928191813e-01 7.486532576666049543e-01 -5.605446556466444630e-01
7.954390059108138455e-01 2.827842745436291993e-01 -5.064768858016104325e-01
8.213360002477229083e-01 -8.693952264603889146e-01 -4.301935041956617134e-01
6.295300569277610947e-01 6.681456970929258166e-01 -7.240906733870943190e-01
-5.024959317582267798e-02 3.703899819894052592e-01 -3.189337042543103906e-01
-6.800814273986733882e-01 5.438371032379474279e-01 2.111243688145116038e-01
-1.476257384585779597e-01 -3.829199437592045729e-02 -2.781181689609552588e-01
4.882667459587745618e-01 -5.524693372531754854e-01 -8.453028009585689118e-01
4.444964433617929478e-01 -2.337068495543396796e-01 -7.794961501753400190e-01
2.101805815243326103e-01 -4.323038006450176662e-01 -6.071524334562115044e-01
3.668832263581301434e-01 -5.268983726734047801e-01 -7.438901256140670881e-01
-7.423757202228054020e-01 7.392528160276077287e-01 2.803880151594121406e-01
5.224847121683453555e-01 4.371660862123615265e-01 -7.797341923275060704e-01
-3.518701173259991544e-01 7.957881826845342177e-01 -3.275857475675240243e-02
-8.082464282752944706e-01 -3.859129822064905069e-01 2.278330836883836197e-01
-5.773053974634997365e-01 -3.637732773764499883e-01 4.157454100767256355e-02
-5.206380332629303442e-01 -4.545296772926044060e-01 -1.321433626518665055e-02
-2.858443478311615826e-01 6.375205172369424744e-01 -1.015567048232693809e-01
-3.666786148855527561e-01 -3.614287459634851207e-01 -1.299859587164877983e-01
5.128374594455232804e-01 2.527735976263528195e-01 -7.892829101759579746e-01
2.637623381353502716e-01 -7.060422859147457153e-01 -6.767083232284828442e-01
-3.430428225752803484e-01 -6.222955377587848780e-01 -1.739028719599195749e-01
-9.392817808462816664e-02 -5.774443028311286585e-02 -3.237499384997685192e-01
-7.996599911059374399e-01 -5.995133761339442868e-01 2.006545928072135665e-01
-9.204533762574438338e-01 4.566346135663797989e-01 3.989290333704120228e-01
-2.981367213684057438e-01 1.424460032783597119e-01 -1.382935720399453283e-01
1.607505669687053496e-01 -2.042325533550557182e-01 -5.452960960182536843e-01
1.568544502901256799e-01 3.819454712906298344e-01 -4.867511255583025220e-01
-2.848962977956674969e-01 2.962341121121800369e-01 -1.345660888009065914e-01
-9.357299572596650128e-01 -8.616193712807147520e-01 2.868726653197705700e-01
-8.399336629026702417e-01 5.891288196131135857e-01 3.457738916080054792e-01
-9.458511320139232348e-01 -3.215694402946560060e-01 3.461376128202443558e-01
-3.194888402450237752e-01 -3.458455519412227952e-01 -1.670008530641436673e-01
-6.398879816111565644e-01 -5.204287717421849507e-02 1.220598043512815256e-01
-4.163861104624398402e-01 5.074008584646557685e-01 -7.380539230452063879e-03
-2.731854435897628774e-01 -6.235267341510037920e-01 -2.309931010304334120e-01
-4.891056986090457914e-01 5.671475011204570871e-01 5.757110770521887966e-02
2.047198088960151263e-01 1.282973693036003060e-01 -5.497472282236908203e-01
-3.010801296613578315e-01 8.964409192339501953e-01 -6.467447676767805465e-02
2.057606597109298274e-01 -6.909106778763856038e-01 -6.279743457481066216e-01
2.086506925065480245e-02 -6.562050195230630101e-02 -4.181163825161789416e-01
1.599867495475300883e-01 2.233339301941840438e-01 -5.042873901895943423e-01
-8.808591336249171899e-01 -7.944112195002684951e-01 2.484695298662544793e-01
-6.832464166044859288e-01 7.087488211715824438e-01 2.292823772132824012e-01
-4.008220339132184118e-01 9.474199229635356101e-01 2.148775084649895417e-02
2.929387562918205345e-01 6.571036069969031779e-01 -5.717480544807360676e-01
-7.510835816405329046e-01 4.715279510355664949e-01 2.622020007473016001e-01
3.390845466048933443e-01 6.028798381654221217e-01 -6.145051119059999900e-01
-3.134851760845436264e-02 -8.935216573065854484e-02 -3.777738551926946853e-01
-8.345433738958893954e-01 8.970274016044024745e-02 2.942044589646224395e-01
-2.093849976566422300e-01 3.812412152131586796e-01 -1.881218838405960270e-01
3.365233033372416194e-01 5.647753233269851014e-01 -6.160153844250666477e-01
-8.382031288001490221e-01 -5.221429179773312557e-01 2.393974348631875138e-01
-8.616457884069339546e-02 5.624980282834132206e-01 -2.714967884577165758e-01
-4.126653435940162984e-01 -8.735509922925555060e-01 -1.408527920620709084e-01
-9.581916899033692328e-03 -5.335937546433001666e-01 -4.374869530424119746e-01
2.641486013344120920e-01 -4.757777148585904947e-01 -6.552737296325297223e-01
5.521533640631689499e-01 6.374638380115710268e-01 -7.850120981758087479e-01
3.166713680595136665e-02 -2.185962769797211436e-01 -4.413755931393906207e-01
-5.075468650257186631e-01 -4.703448682900153166e-01 -2.538498917638942753e-02
-5.079599132691825503e-01 -5.376365928237996084e-01 -3.140415137382798760e-02
2.177169908270968068e-01 -4.610683639931331124e-01 -6.160158953295639117e-01
-5.649011070215806951e-01 5.084394858452736532e-01 1.138426924448928818e-01
3.054388797376212938e-01 9.181744277257434250e-01 -5.572834216027615639e-01
1.158082290924158236e-01 8.735135774715546697e-01 -4.068438278309491896e-01
2.865189274323355906e-01 -2.442134653393643051e-01 -6.516460285829923649e-01
2.499053685263203095e-01 -3.435993819623247569e-01 -6.311724110345167116e-01
-1.770094865848844956e-01 1.955381305521533830e-01 -2.320671123105532974e-01
-5.380081223662867007e-01 2.139762774475205409e-01 6.409594770052885748e-02
2.137154478617977749e-01 -5.849180257575776753e-01 -6.244505457958410277e-01
6.547391707232692870e-02 -8.924388914704037834e-01 -5.325953063328846548e-01
4.200505966549313852e-01 9.452545332804102030e-02 -7.285555732147650509e-01
7.707934321336130934e-02 2.529881741414723995e-01 -4.338691876853572049e-01
-8.731870509851234752e-02 -7.952566284070793357e-01 -3.988021110350592480e-01
8.041173705641081748e-02 6.063986007800665767e-01 -4.032056536011563996e-01
4.555816157878896933e-01 -1.896277152245903416e-02 -7.682533070172727907e-01
-5.474932504409197875e-01 -3.813182690212715831e-01 1.560328653813853640e-02
-1.474366799962190111e-01 4.066323121654304429e-01 -2.362470732685272301e-01
-6.857727382638612035e-01 -6.278390660782952049e-01 1.050954883767782067e-01
-5.500011499167771767e-01 4.529518044786768338e-01 9.644957477097616805e-02
-8.775253448887547769e-01 -6.779781119538349499e-01 2.567482540424596560e-01
9.042223561967230316e-02 -5.988482688026038891e-01 -5.252114559126250803e-01
4.299535841621372478e-01 1.780872807639873323e-01 -7.287393776961973435e-01
-8.657193576771010646e-01 -3.020622236428486262e-01 2.826266880946394777e-01
5.923330475194616557e-02 -7.824054764285014452e-01 -5.171124217813817259e-01
1.958734765737342176e-01 -2.282627296340360434e-01 -5.762112335910288818e-01
-8.510857753345404397e-01 4.413371114216428914e-01 3.409096233773945550e-01
1.610766587319787946e-01 -8.716081833145978841e-01 -6.085989559877295063e-01
-1.021046146596963078e-01 4.988121395101609012e-01 -2.645119378222878792e-01
-7.412448178503875384e-01 8.820694586767943157e-01 2.929554130646828125e-01
-1.656920449473733292e-01 -8.506403637444208687e-01 -3.401140351171497711e-01
-8.660425830681084403e-01 1.943140570507669862e-01 3.297754815127677541e-01
-4.235728465799243336e-01 -1.882054629485413466e-01 -6.722265163065165028e-02
9.708088459697197803e-02 1.245285722866579931e-02 -4.729016887778800249e-01
2.469455099217965355e-01 4.450256814273905737e-01 -5.542689117045188629e-01
-3.201007124826198424e-01 -7.618445098730676213e-01 -2.057949710716032443e-01
-2.097645357856874337e-01 -7.879936451615333626e-01 -2.982523200557327669e-01
-4.377038544669705766e-01 -4.251259710658457092e-01 -7.807606012371809401e-02
-8.847247218786906675e-01 1.734520932161461582e-01 3.430416531206526010e-01
2.327176779786433447e-01 3.832765161747105354e-01 -5.484975588058771390e-01
-1.051710663219766612e-01 4.496815281069834191e-01 -2.666516439727679155e-01
5.406569968448960983e-01 3.031677373716986645e-01 -8.072118571142646859e-01
-6.986200173859598017e-01 -1.364093525307158439e-01 1.619913601774127243e-01
-6.659338619583963226e-01 -8.397984834782242780e-01 6.889478699392802274e-02
4.006460247073988512e-01 -4.373254769220832339e-01 -7.629656219729026301e-01
-4.765077707934224915e-01 -1.663292016598039713e-01 -2.198392691152958184e-02
2.550820041957536227e-02 -4.785414819938645370e-01 -4.609056201405219433e-01
-3.896701823550092758e-01 3.116692479243148364e-02 -7.415201927191750197e-02
1.529396609546178516e-02 4.952829135719064024e-01 -3.605926458770339904e-01
-2.102424705369245472e-01 -3.888438153374579875e-01 -2.601608655852177820e-01
-1.424029851048666528e-02 5.848228719011835386e-01 -3.280477469995054518e-01
-2.108182133802468938e-01 -3.210955787570611841e-01 -2.532921502252310497e-01
1.354930467419668827e-01 3.893616999154147496e-01 -4.686287981999013863e-01
-5.315136607628402343e-01 4.695597116196255083e-01 8.294033801111086457e-02
-4.722087536620501735e-01 8.916552545911193839e-01 7.444173261372410977e-02
-1.773446911030908957e-01 9.723866564635670617e-02 -2.410785953560657113e-01
-7.783478625561709441e-01 -6.776691810997552586e-03 2.392598446202426621e-01
-1.928888420431761896e-01 -8.030395877292014761e-01 -3.134368783139268588e-01
-8.479584681300902371e-01 -2.232982325729071793e-01 2.755809954126603456e-01
4.760628891015908914e-01 -1.859654593372563336e-01 -8.007315473613324519e-01
1.927993173425235629e-01 -3.911530891910097729e-01 -5.890898208561050620e-01
-7.432766432648133526e-01 -4.825669121153715047e-01 1.657159083226119323e-01
-1.648315544156532531e-01 6.685067663349953948e-01 -1.973249183870135204e-01
1.708214754189691931e-01 9.100520592979963741e-01 -4.482600207152644955e-01
3.194361773198868271e-01 -3.547446264894518198e-01 -6.889327281618193854e-01
-5.737158028893720729e-01 -4.003008875106787712e-01 3.519674490395729299e-02
-1.098637814623140002e-02 1.024619898123205475e-01 -3.762629188974380146e-01
3.106903178753629424e-01 6.650259882075789664e-01 -5.854774776671404224e-01
-2.795508747027861118e-01 4.993868417245632130e-01 -1.197369090147080428e-01
-3.203089826580503563e-01 8.924776391366239237e-01 -4.936625498381914945e-02
1.914606920436332516e-01 2.733545800746680632e-01 -5.252320567612142055e-01
-3.727078015005348410e-01 8.650174153870711091e-01 -9.224837884151184178e-03
-4.089530318787915619e-01 -4.485455489307204058e-01 -1.037366083824756008e-01
1.999643400917608671e-01 5.336077038819690976e-01 -5.075852336867722192e-01
-9.075940509129859501e-01 -3.956760339508673119e-01 3.079363594297157003e-01
3.505122818355290160e-01 3.066361885835678924e-01 -6.518069562389907645e-01
-3.097313938704758796e-01 -2.161957165007296344e-01 -1.627127189993306522e-01
1.372802344739591784e-01 1.319046771099329496e-01 -4.944044648721357404e-01
2.460863391358888985e-01 4.226608290843537064e-01 -5.556806636356987905e-01
3.353139529562645937e-01 -1.710614579511166300e-01 -6.845324682178048903e-01
-2.840381500726155486e-02 -1.134506058433872727e-01 -3.824516972985449459e-01
-7.460848509802947559e-01 -8.272110641052875524e-01 1.354528788195368261e-01
-3.594777521486930416e-02 -7.942064375870206971e-01 -4.405997649147234130e-01
-8.190299118826208646e-01 -1.065527622459288420e-01 2.630147695697703791e-01
-6.827127251612045145e-01 -7.190550680855384291e-01 9.398401837198053221e-02
-2.113701651859949959e-01 1.086679749561747232e-01 -2.122487126368488852e-01
-6.513327268172457440e-01 9.409560495039469563e-01 2.251874812943753246e-01
-9.407272069230790956e-01 -2.045706862431365958e-01 3.530097745116160257e-01
-2.581662238286562827e-01 4.175947724068681532e-01 -1.449033599404372652e-01
3.937876363849271977e-01 -1.345164816181910472e-01 -7.287702938842208766e-01
-8.310661963535677099e-01 7.672725640470198227e-01 3.553683590262657899e-01
1.627556674168776918e-01 6.899746267626724050e-01 -4.624691437549958706e-01
4.778461695142616761e-01 2.980649087983630041e-01 -7.564668996619317021e-01
-5.219884400709083883e-01 -2.596542447337403248e-01 6.293964058201104508e-03
-3.052640546868238824e-01 -6.643041335892254651e-01 -2.086822113997361117e-01
-7.353328795095457338e-01 9.405953659750023732e-01 2.936618430923811918e-01
-1.909743726258217589e-01 9.238032760743518645e-01 -1.518894778401281287e-01
1.885442189490333653e-01 -1.586080561717759241e-01 -5.636544476316678320e-01
1.222695099504146621e-02 -2.209163017839999021e-01 -4.257398000442947916e-01
1.976860323153220855e-01 -5.399180907260842099e-01 -6.071268891550398727e-01
1.303562938448080966e-01 -5.673962278393602787e-01 -5.548098782899945070e-01
-2.336327166373195763e-01 8.737488851527236422e-01 -1.218262792644136117e-01
-4.456036726035978446e-01 6.811106344125991141e-01 3.285631788828126398e-02
-8.957942005884386161e-01 -8.666253922075131122e-01 2.538292146358177015e-01
1.016384096675346377e-01 -3.744643845895265222e-02 -4.813319262681922672e-01
-1.759315152363667423e-01 -7.631486720350657560e-01 -3.234989582476510694e-01
-5.928078270938420130e-02 -3.123906797142803615e-01 -3.760600798533791922e-01
-4.670402159186886615e-01 5.578355503547411942e-01 3.869549068192577185e-02
4.093769447182193932e-02 -7.260619289349377059e-01 -4.968690532814000749e-01
4.883228246646509896e-01 -9.708292561055974212e-02 -8.023350530559724136e-01
-4.218182920511682754e-01 -4.423861623668352561e-01 -9.266223863258014892e-02
1.100092650109934372e-01 -5.829227457069783291e-01 -5.396819048011054498e-01
-1.743138707561013856e-01 -2.313834267391137733e-01 -2.745904283000695223e-01
1.434495806447639576e-01 -4.161340355138217761e-01 -5.512009791939634917e-01
7.424937104817938560e-02 2.847761611305364982e-01 -4.285586013744699940e-01
-7.791395234772259260e-01 3.834873381370446643e-01 2.767678588705078102e-01
5.170614601613403583e-01 8.898801271939199564e-01 -7.325500574542801457e-01
3.212768422063198015e-01 7.195928567295271083e-01 -5.889574740865235469e-01
-6.906744963166154827e-01 -1.003594396850339687e-01 1.589162827152661717e-01
-3.045472797095139517e-01 7.511197784874283911e-01 -7.557305147123762057e-02
3.321667812764858008e-01 6.932500163291438477e-01 -6.003272475909136041e-01
-1.448267596825308368e-01 -6.321976522586640890e-01 -3.364982540348910867e-01
-8.889173843334811087e-01 3.878061224668276075e-01 3.667078754557528408e-01
-7.865216381925266287e-01 9.006358511249282772e-01 3.316357458322807261e-01
2.343046437752858424e-01 -8.768759378568063978e-02 -5.942767229912642168e-01
8.131298216586885924e-03 -8.366333385097375341e-01 -4.805569874390847041e-01
4.063339849642361168e-01 -5.984475868051261083e-01 -7.828233555526570298e-01
-1.343414046339147794e-01 1.608940858821881204e-01 -2.701384363470440975e-01
3.346507823376300428e-02 -1.745158228905498432e-01 -4.386783338441108127e-01
-6.137052744486756750e-02 2.932769342064041607e-01 -3.171474538346356620e-01
1.294319153740586259e-02 5.455974010830378917e-01 -3.539229621750777377e-01
3.040378299495281045e-01 6.996505446091969560e-01 -5.767814148904352178e-01
1.539995444453053641e-01 8.941367833105959839e-01 -4.360437492633022494e-01
9.459493028653302715e-02 -5.772362129492044636e-01 -5.265732367690649784e-01
2.055906852432305698e-01 -2.575777719983633057e-02 -5.650087588553907025e-01
-6.412087585416880176e-01 -1.411317798695969385e-02 1.267196435548955114e-01
1.264552973616016318e-01 -3.840468765375500415e-01 -5.343100756348508895e-01
-9.266824515123581740e-01 1.506708756498321977e-01 3.751095333191737380e-01
4.915867560816503112e-01 -2.730016143544183871e-01 -8.216134187352586160e-01
1.788173227217515204e-01 4.810653804998640259e-01 -4.953011342164839736e-01
3.265168726102930519e-01 8.466548779264848612e-01 -5.812294799620029151e-01
-1.735189160183786550e-01 -1.220825547240925041e-01 -2.649147691093418078e-01
2.902676909580525488e-01 -4.002021061737294216e-01 -6.694373202826051639e-01
-6.313066931537755222e-01 -3.628737543568973378e-01 8.570161570818934926e-02
-7.438867881950489425e-01 -5.003974521904712702e-01 1.645293451874011159e-01
3.616588207176272274e-01 -4.697006016548038732e-01 -7.342266200995936076e-01
-5.641965624422192738e-01 1.182007295666822749e-01 7.640811533308133896e-02
-6.019784135057452135e-01 -4.670671484897259002e-02 9.164573257038778620e-02
4.715297958743073781e-01 1.889593075179344939e-01 -7.616209829831117606e-01
-3.439830585336414170e-01 -7.924088466094140193e-01 -1.892040768939918238e-01
-1.519995286812342861e-01 5.611673873315262684e-01 -2.179291304308951238e-01
-2.371749854465955709e-01 4.726175716146372441e-01 -1.568261168217373047e-01
-5.915344876755425085e-01 1.604063195597049685e-01 1.026907708953377074e-01
6.789565313025457127e-02 -8.136997187783445717e-01 -5.271331121035712775e-01
3.624331521091354036e-01 -6.951036511609102186e-01 -7.561485711067229554e-01
1.460253391992448191e-01 3.113655451138548913e-01 -4.845857934078781626e-01
-9.635811334531764194e-01 -1.920751332563513381e-01 3.728291335456866973e-01
-3.218475859115667026e-01 -8.841892896667365997e-01 -2.159263302982796229e-01
2.228160953540694045e-01 7.390954550132065037e-01 -5.068132276697641103e-01
2.890621892229818246e-01 7.098585215356253419e-01 -5.636034621253835919e-01
-8.689722975000304661e-01 5.153358214595394893e-01 3.624869666688030900e-01
3.600096885156383042e-01 6.284437195803375120e-01 -6.291565016966216284e-01
-5.463612289256227772e-01 -4.769768768542017590e-01 5.644612449982351100e-03
-1.837419419376626339e-01 4.271075888236931101e-03 -2.446424027652139011e-01
-6.880873380170733355e-01 -4.137260186885751145e-01 1.272072476779618766e-01
5.186966474435468211e-01 6.756286934850558312e-01 -7.541207761520060116e-01
-5.344920423319676761e-01 9.135144201397589203e-01 1.273031355206932780e-01
-1.361218215485834049e-01 -3.960541340136691096e-02 -2.876245356423743349e-01
-4.264079549410813574e-01 3.222474624377212882e-01 -1.669562082949757262e-02
-4.658333609574366596e-01 3.407113933832288666e-01 1.720276631701200820e-02
1.286558530289130253e-01 -1.954767881391792361e-01 -5.182934225085837898e-01
-2.688181139128039687e-01 8.693589712126421620e-01 -9.354459547993626556e-02
4.599611061128954792e-01 1.808752031643798275e-01 -7.529494314405935640e-01
-6.213357368052125906e-01 8.748386504460344826e-01 1.944775709319268575e-01
-5.133268037225426905e-01 3.462933442403943185e-01 5.646447675259184257e-02
4.859326791303119619e-01 8.143050650862903028e-01 -7.143006357738800327e-01
-4.674329346785204287e-01 -2.083291716348907308e-01 -3.335224052791584126e-02
-4.714662798371856423e-01 2.133841042216398920e-01 9.770146374547554816e-03
-2.909948637808106864e-01 2.631138465451922648e-01 -1.327206222732083274e-01
-9.844905204001527244e-01 -6.856827163885360621e-01 3.432586464397636150e-01
-6.287089936009238045e-02 1.532716530354736040e-01 -3.291479746865776379e-01
2.994525789340509933e-02 -6.071816874774557671e-02 -4.250589085129000133e-01
-9.576000331961408429e-01 -3.843717362424267647e-01 3.497877382292275406e-01
-4.555581343903148395e-01 -2.465285041905863617e-01 -4.664514623136673671e-02
-1.000000000000000000e+00 -7.959493826700622110e-01 3.454925628297431106e-01
1.526619054858620594e-01 7.769713730233336335e-01 -4.460196530189997066e-01
3.129005620946217481e-01 -8.030401158086744040e-01 -7.259461551783951139e-01
-1.716571382323039963e-02 -6.574159150707076238e-01 -4.429974088610234562e-01
-2.043529556378818335e-01 6.468551213904469854e-01 -1.671373532102875259e-01
-2.059722475513436624e-01 6.497259197015603505e-01 -1.655455380927963738e-01
3.230966176149546731e-01 7.974424822084070774e-01 -5.830883578659683542e-01
2.716330641340456570e-02 -2.327573266774488614e-01 -4.390399620966046745e-01
-4.820681741226195416e-01 9.595918505146686650e-01 8.889977543058527609e-02
-6.150171359879075261e-01 4.465570591100517239e-01 1.488709768203896888e-01
-8.085734276178242474e-01 2.131069239441442387e-02 2.665640533160139047e-01
2.202828049942927996e-02 -4.652776264638156523e-01 -4.568146478878554739e-01
4.531204981545831068e-01 5.486037197859697789e-01 -7.126366367779666255e-01
1.915564365856123330e-01 6.474101205208815379e-01 -4.899787597607271339e-01
4.219371041772903008e-01 1.827412177872198840e-01 -7.217617492775856292e-01
2.709031427952852678e-01 3.219486091023584518e-01 -5.854333939997055092e-01
2.331024986787014752e-01 1.488499981469949551e-01 -5.709541455470388271e-01
-3.634219271940478807e-02 8.939425801782396874e-01 -2.808241177312358339e-01
-8.256774636531278855e-01 7.406472404340251892e-01 3.484585503459361466e-01
-2.519415361719951618e-01 3.788475154225010577e-01 -1.536399288126273632e-01
-8.682698115293041585e-01 -8.610939827457577689e-01 2.319034779991104300e-01
-2.847220618536225878e-01 -1.080091386159839628e-01 -1.728909527277610048e-01
4.242156665997089959e-01 4.507902418172416437e-01 -6.983015404949189930e-01
-6.281043856961533445e-01 -8.626034253082643932e-01 3.588797055369933459e-02
-6.948240763233263229e-01 4.915523805252249301e-01 2.182095567122439295e-01
1.929956060683316391e-02 8.284176312852896684e-01 -3.323932978132834726e-01
4.990140384973388299e-01 7.075945877106722959e-01 -7.350487952626894028e-01
1.119747792226078176e-01 -1.639514730550375166e-01 -5.017110337058797720e-01
9.933748338075262807e-02 8.220493177792277395e-01 -3.982717505170541572e-01
-2.209700537815134092e-01 -2.192191246557423021e-02 -2.167541394267318566e-01
-5.841631165703303763e-01 -3.421271315236906196e-01 4.921211056771594011e-02
-3.549025830229442929e-02 8.068577286519420522e-01 -2.897445263519952130e-01
4.629222344653036170e-01 3.021849326933876978e-01 -7.439061538376523508e-01
2.905077641461844551e-01 5.107862852545056453e-01 -5.835857879248724789e-01
7.415249870498559492e-02 4.110828035392235513e-01 -4.165493116746828428e-01
-4.131838519516420338e-01 3.511964568598174852e-01 -2.474649473109909181e-02
2.073442316867231128e-01 2.849828871984578793e-01 -5.370879249160578350e-01
-1.038968388121859071e-01 4.826255386484696319e-01 -2.645791484801994220e-01
-6.995560196109094075e-01 9.382664834229047512e-01 2.642631537955213439e-01
-9.470991358021108031e-01 -4.676436977887142299e-01 3.333580221802948107e-01
-2.733406339475992763e-01 1.722660104444984908e-01 -1.556999964815668769e-01
2.388032031046959658e-01 -1.005199266066605646e-01 -5.991577127076965770e-01
-2.277214606142104747e-01 8.284529537912341812e-01 -1.309257755855460781e-01
1.888316434600665061e-01 1.855725022722979622e-01 -5.313793188870944428e-01
-9.989162493023108491e-02 8.986048999562539219e-01 -2.285544063079033295e-01
-6.670703190781464009e-01 -6.093806416334036635e-01 9.158575049451297967e-02
-1.464288568748491892e-01 -3.270273979862083902e-01 -3.063667934224160172e-01
1.340564832587513022e-01 1.952688770867209711e-01 -4.857901937076590237e-01
4.016093123443205126e-01 4.164845009733676440e-01 -6.831047074138532071e-01
1.535802217317786267e-01 6.997021738684511272e-01 -4.540670644047274940e-01
5.044663623330970514e-01 1.680751793898221935e-01 -7.904558338915246285e-01
-2.694677595674040971e-01 5.398637575529384725e-01 -1.241372027142030321e-01
-3.536072334547995383e-02 -7.230577184713341543e-01 -4.343582036449994965e-01
4.964115765278600545e-01 3.587841308807243057e-01 -7.658731538311622788e-01
3.028969670045061346e-01 -2.933825076757577976e-01 -6.696478069582503245e-01
2.417939660600495755e-01 7.188432672515427946e-01 -5.242040244864974996e-01
3.530850940134355742e-01 -4.673619144915408530e-01 -7.270132018768675763e-01
-5.940562880227132636e-01 9.188805852311207056e-01 1.763891098308056904e-01
-7.722622085723030994e-01 -4.196674009174746200e-01 1.952969805935376724e-01
-6.769685846275796948e-01 2.511376680308432530e-01 1.809387119168673619e-01
-8.406211453557316249e-01 -3.975240342505250157e-01 2.531403748077126203e-01
-1.826925686223358769e-01 7.357274850815693767e-01 -1.764085933345558577e-01
-5.293862014839605390e-01 -2.999988547535052397e-01 8.516647150417762033e-03
5.171302697242555757e-01 4.114088787176157225e-01 -7.778001373902333482e-01
-7.718174156480785975e-01 2.075948207650018737e-02 2.365347018813084845e-01
1.999791837246469306e-01 9.045128376323119390e-01 -4.725635273151271298e-01
3.508873754862973926e-01 -1.574971038396277834e-01 -6.959525434359975504e-01
-2.536115105940552339e-01 6.425843200512736386e-01 -1.273667021421056866e-01
3.989425129025061523e-01 -6.903098932759481610e-01 -7.854719014804902866e-01
-1.834993072695347283e-01 1.695430878606472569e-01 -2.292295358921047077e-01
4.436706516452942894e-01 5.967827454785638031e-01 -7.003788318584899253e-01
-9.305410204115698303e-01 -4.541378748920193442e-01 3.211293274559219313e-01
-7.398571644595044461e-01 -5.569556542004140409e-01 1.559006844403199032e-01
-5.561801777138886127e-01 -1.768070976304080277e-01 4.200521291026758364e-02
-7.925908292779002551e-01 3.490793681585323549e-01 2.844884066539318246e-01
-7.219962502444655650e-01 -4.215011037699137875e-01 1.541281160356391400e-01
3.575909602665232057e-01 4.446261393746188118e-01 -6.445463209528626836e-01
-7.032830891440995380e-01 -1.053205249974320801e-01 1.687309377647929487e-01
1.476442320542166176e-01 2.826204756674525198e-01 -4.886212351151797417e-01
-1.584973385685815861e-01 -4.296545930347400732e-01 -3.062176835315669199e-01
3.150798872755228991e-02 -6.949521921988963680e-01 -4.862399528861944265e-01
1.656566468053572161e-01 -3.895916245759738911e-02 -5.336864885029821703e-01
-3.347561981882727494e-02 3.998739440055308347e-01 -3.298292335994634228e-01
-9.054106947977912101e-02 -6.319029885699558591e-01 -3.807444770061785833e-01
-2.266061903453440649e-02 1.335882467737402046e-01 -3.638016711860991848e-01
7.288368109462138589e-02 7.984277538992055057e-01 -3.789278617368559421e-01
-2.999571033634640393e-01 6.834629579541058320e-01 -8.570720400787326665e-02
