-2.229715586730598720e-01 -4.850888512355816529e-01 1.790422082316037444e-01
2.799652147858145423e-01 -3.102161920179097865e-01 1.552997639930829288e-01
3.390872778913942009e-01 3.090469129365465695e-01 -6.627982970394854512e-01
1.761768319227509649e-01 -5.722863900032901796e-01 4.679383874805599919e-01
-1.236052113815623715e-01 3.420240265956221437e-01 -9.049461882609224350e-01
-4.415517850003374822e-01 -2.200143521687897841e-01 -2.751094934005756110e-01
4.462819462350329225e-01 -4.871384511923670946e-01 4.671280675027776330e-01
2.235482648500403124e-01 -5.354179736417910007e-01 4.379255316382849594e-01
-3.734581891531247311e-01 -1.642883793488685851e-01 -3.219686124233575031e-01
4.675394110400029057e-01 -4.386479317682938361e-02 -1.274520314165832613e-01
2.993612562665448618e-01 -3.785514069345634058e-01 2.566257009253037902e-01
6.709861172613216240e-01 -4.725700387360504684e-01 5.430777680593947832e-01
-7.230820907580938206e-01 -5.223977079374914068e-02 -6.235948243258754298e-01
4.830663897394597006e-01 -1.534292919282701992e-02 -1.596736153472225472e-01
-4.919907084801417724e-02 -7.915049619856409091e-01 6.703911529117495549e-01
-4.964196226198258066e-01 -3.398236332996573683e-01 -1.353449233664640594e-01
-4.086184489800395170e-01 -3.443229563609129240e-01 -9.178923960116854019e-02
5.338945764788833870e-01 -4.308410972548856049e-03 -1.530327718722120367e-01
8.620293392352744721e-01 -4.184702399941955808e-01 5.508450956793231601e-01
4.464463370684627064e-01 -6.470489415046516701e-02 -1.080640905756023173e-01
1.893569771950854574e-01 2.812938856544546229e-01 -6.888329692421237826e-01
2.889605659474503985e-01 1.542290416130046582e-01 -4.733385887291055028e-01
-4.613719576896472829e-01 -1.363430439945242101e-01 -3.975006416632922979e-01
3.851283167266773000e-01 -1.106309229113427023e-01 -7.166200816831790055e-02
-2.723185305079807265e-03 -3.432692938069736299e-01 7.980419061830203165e-02
5.594207494392752222e-01 2.207342963986047568e-01 -4.486102832984874000e-01
2.119220387338443395e-02 -7.407120556787174515e-01 6.312292659685440066e-01
-3.213901475893827797e-01 9.885995350547115146e-02 -6.581231820251396414e-01
5.484498338799301820e-01 4.235366693795488552e-02 -2.103715980982433509e-01
-2.137217729360473342e-02 2.168940299985537279e-01 -6.909657463068868966e-01
-4.826878285203127783e-01 -5.111123181485123235e-01 1.037665515100366642e-01
7.093482431588007397e-01 -4.163085441750158933e-01 4.828152159240478580e-01
5.291920709183355331e-01 -1.977044478234861458e-01 1.083257665886957904e-01
-5.914319181397519332e-01 -3.628665248236861429e-01 -1.444681415631071109e-01
-3.754826673330460829e-02 3.223194936930071780e-02 -4.463919998916635046e-01
-5.842024933790523900e-02 -8.017523796693705185e-01 6.804150196108678106e-01
-2.469746636922251770e-01 3.059551261383542178e-02 -5.334394946606869636e-01
-4.053842657756797641e-01 -4.436930812645664690e-01 4.490985945522875389e-02
-4.066498852654938934e-01 1.867842072425036359e-01 -8.142020158270021346e-01
-7.844217760298817232e-01 -1.634095218131604438e-02 -6.986295471968068105e-01
6.952632515304093541e-01 -2.247073239878657341e-02 -5.951012408423662914e-02
-5.741468301276111408e-01 6.559727206232877916e-02 -7.205738210627238294e-01
3.661837619080298145e-01 4.795930994791520185e-01 -8.834940455430089212e-01
-1.841808132228106853e-01 2.992257050398126061e-01 -8.724868757940085207e-01
4.318197428660253134e-01 3.563819604699907106e-01 -6.877275538372825681e-01
7.659801907213470429e-01 -2.132195355603344056e-01 2.303938661146579525e-01
-2.331370968951939661e-03 -2.744075624802432278e-01 -1.380342077594661106e-02
-5.801517629047117097e-01 2.100429852604717915e-02 -6.624077620981118075e-01
-4.181207890928038684e-01 1.022092060480315062e-01 -7.039192461241841059e-01
-1.454589423982758645e-01 -1.663302708822161956e-03 -4.462350983470529941e-01
-1.695301210197772412e-01 -1.437772400248500497e-02 -4.391820887392511308e-01
-5.013854418958836323e-01 -1.623201066243354362e-01 -3.791828252975349423e-01
5.999428516199072359e-01 1.103655768423717487e-01 -2.810381074917119859e-01
-1.145238556802193192e-01 1.679402830170971805e-01 -6.640108800759729757e-01
-2.760676678774092174e-01 -5.063220335892351098e-01 1.853229295157599044e-01
-6.142072716598101501e-02 -3.465119297459907655e-01 5.919789357728984236e-02
7.692746957492277993e-01 -4.578185042425138018e-01 5.648886436979893011e-01
-4.143623182981430730e-01 -4.378827111755308893e-02 -5.035003802061410738e-01
-1.242886123709910362e-01 2.800278179503819520e-01 -8.208122190751087066e-01
1.637843002292761752e-01 -5.029893576190187510e-01 3.682881775631429155e-01
-2.153692468789072945e-01 -3.579702422366931036e-01 9.175202717932231383e-03
2.633415261988285572e-01 -6.788196795311003395e-01 6.501707235853076972e-01
-2.786643615859282219e-01 1.903576755064933790e-01 -7.645096035389057354e-01
-2.741753094761888512e-02 -7.908816756418384220e-01 6.788275825781038275e-01
-6.125641169567808131e-01 1.365878187757613160e-01 -8.336242689460379163e-01
1.300012206411586824e-01 -4.220604638623900451e-01 2.436793787916252119e-01
4.140417752482505320e-01 1.738758291252516519e-01 -4.467726009184614933e-01
4.454588290974527687e-01 -1.932213341198217860e-01 6.652626703049445422e-02
7.858853395655975849e-01 -4.777732343026716011e-01 5.991435459598803970e-01
-1.430464900800749728e-01 1.230364688597455625e-01 -6.150205505304456866e-01
3.154655431742058869e-01 -3.757748369266008387e-02 -2.008412417470004652e-01
4.085112586086710462e-01 -5.453170226662547027e-01 5.302533827115463172e-01
2.560445199479248202e-01 5.250396840637746587e-01 -9.923334066472553339e-01
-2.366788555639388891e-01 -8.263820776563425285e-01 6.379657802200510153e-01
3.875008159938813646e-01 -1.962434257892758660e-01 4.593488911610268260e-02
-6.982329440497337947e-01 1.152189078581142001e-01 -8.410440744342635444e-01
3.147628372066199054e-01 1.899380892248704322e-01 -5.109673127969380779e-01
3.384988951195624374e-01 5.339034958996432545e-01 -9.692546699444950509e-01
9.984137096266025579e-02 -6.072108464292712560e-01 4.829569763189393572e-01
6.379621152027540321e-01 -5.156926763816442882e-01 5.877236451352980673e-01
-1.032514931377312983e-01 -6.664888360013846436e-01 4.771045954895885566e-01
4.350463175789084924e-02 2.887393187403374806e-01 -7.611471304779647840e-01
-3.271044919640610504e-01 -5.303697813195765720e-01 1.963143226564816324e-01
-2.477927740984560145e-01 -7.774827579789364007e-01 5.666378571732851865e-01
4.952082230230212684e-02 3.434087204625713152e-01 -8.330302846672068551e-01
1.866188597249819336e-01 -5.474727970387678333e-01 4.385990050583661870e-01
2.493789575487809496e-01 -1.895897649217371805e-01 -2.200563730158233006e-02
-1.153334124280263884e-01 1.369441061612259314e-01 -6.221459617877779236e-01
7.605437564070007816e-01 -9.763029446227147745e-02 7.066908014650596925e-02
5.344669874440076685e-01 -1.543660482416517321e-01 5.155696614078539991e-02
8.585591930668361182e-02 1.897074828777345346e-01 -6.082335542277562679e-01
-1.764718434691762428e-01 1.433182789888524378e-01 -6.568887736635060648e-01
-4.143591328219668468e-01 -2.601700460877461873e-01 -2.088343072999651884e-01
4.458870081963292042e-01 2.094357414010858953e-01 -4.816221930568412302e-01
8.784587629435001987e-02 -1.455474646037235031e-01 -1.508412479789748850e-01
-6.464884745009459588e-02 -7.624085339221727819e-01 6.241821185038587405e-01
-6.316722550835630889e-02 3.533092453776724984e-01 -8.945502019425682905e-01
-6.813085954453147741e-02 -6.499088957681218304e-01 4.694978436876002248e-01
5.584509282565868205e-01 -1.490261871272963168e-01 5.450930829836142522e-02
1.708934602785607826e-01 1.690112311983630877e-01 -5.437992949489850458e-01
-4.431761071632215887e-01 -1.446738428541944343e-01 -3.783992401440296471e-01
-1.893286239509016644e-01 -6.307592350340350817e-01 3.917550333988006894e-01
-5.476961124992533320e-02 -4.357668344323684662e-01 1.835788695658722436e-01
4.702589557948198551e-01 3.887362542128227627e-01 -7.154008590381532029e-01
2.457127964032942424e-01 -4.995618581561718785e-01 3.985458083909926841e-01
-6.277153143531992718e-01 1.685952750169237568e-01 -8.836702071609006115e-01
5.100093469708416594e-01 -4.613330675042045526e-01 4.591529988923523375e-01
-7.586992627508969134e-02 -2.960960621231652490e-01 -1.561702667764070830e-02
-2.993611925659743767e-01 8.638363170214584386e-02 -6.317424772015884926e-01
2.368853042822279265e-01 -6.466753880190964088e-01 5.951192490951829894e-01
-4.216597506895704110e-03 -3.108471308566822522e-01 3.501566266143307793e-02
2.042695834909314390e-01 3.351388463564911047e-01 -7.558009793778276419e-01
-4.773444234487346227e-01 -4.795012022125992313e-01 6.299694573813433007e-02
4.186317714912051735e-01 -2.881770010058460896e-01 1.843990916431207105e-01
7.253227192936685386e-01 -1.899232731282587405e-01 1.813376520850095985e-01
8.165512728099109940e-02 2.380707583161665586e-01 -6.758845190900913957e-01
5.997355365662044857e-01 -4.955505752647524353e-01 5.439989703547353228e-01
4.099474682263067743e-02 -7.597778259063128758e-02 -2.655520345736388510e-01
5.555269519020885616e-01 1.526143659804546880e-02 -1.704610072812281774e-01
2.585725145493331448e-02 -7.392528804830492684e-01 6.312308419669561133e-01
-3.546997045649032954e-01 1.713015564321185291e-01 -7.709722874798283776e-01
-2.387625039794129267e-01 1.991637481283804745e-01 -7.594918671175631131e-01
1.445206069166575236e-01 -7.013014601738678522e-01 6.301340638333307043e-01
5.246435970588898545e-01 -1.785501794251579677e-01 8.030287682545451944e-02
-1.455062064152585766e-01 -3.654313138080818590e-01 4.911732976029269809e-02
-3.863516204725482850e-01 -6.072562773616265730e-01 2.757605954347156496e-01
-4.140712210969861862e-01 -3.190974916391038918e-01 -1.284652641884447832e-01
-7.413992813959505157e-03 -1.603862556038944953e-01 -1.712421967882291618e-01
3.016833309328872947e-01 -3.291285490481272724e-01 1.903124361348860205e-01
2.633882310164100682e-01 -5.520664984482609450e-01 4.775804863342297812e-01
4.666473172556188098e-01 3.112149575526202971e-01 -6.113733835848622622e-01
-1.224353386367200008e-01 1.803414149758052198e-01 -6.842710835326618612e-01
1.527112961708711192e-01 1.470150602155975150e-01 -5.215961532629966868e-01
-3.507293994375467183e-01 -3.389999121670539406e-01 -7.436065478637053638e-02
5.229223256403114917e-01 -4.464393084832083969e-01 4.443756003454719106e-01
4.216021276494241188e-01 -3.500199137095489910e-01 2.698818581415536322e-01
-3.041876629484313033e-01 1.709686047030895273e-01 -7.489862017176895925e-01
3.146363381226876393e-02 -7.480617530345931576e-02 -2.712105070921696504e-01
3.088418362143637852e-01 -5.565249997812522498e-01 5.030283186987107857e-01
-8.957035073315466889e-02 1.208214049803057154e-02 -4.411287525795696829e-01
2.439965094854489314e-01 -2.053330442047211213e-01 -2.861202726496635176e-03
5.135571900575763848e-02 -3.108423850567472099e-02 -3.222704775587996173e-01
2.308599917177948935e-01 -6.654294792779334999e-01 6.180897065182853201e-01
1.323769596482664568e-01 1.320412810899045455e-02 -3.480431750452252504e-01
-1.460588139194112511e-01 -5.960794832937280630e-01 3.629741880131386877e-01
2.349336536895929584e-01 -4.740777324544239724e-01 3.592469760682382995e-01
3.617850491510239408e-01 -3.207356238249112756e-01 2.045037476668838394e-01
7.367812258520143320e-01 -1.594141158602569996e-01 1.446754678346581779e-01
3.076552733261305739e-01 1.427479886651607244e-01 -4.497345725264028649e-01
4.529041816946315357e-01 2.533547553441188316e-01 -5.384389601697385785e-01
-3.242994271752658308e-01 6.251611576955684417e-03 -5.332510390506775000e-01
6.552750112016111905e-02 -6.912909042369937973e-01 5.828280584709687462e-01
7.787586102451665715e-01 -3.447639473266813637e-01 4.149759099145555741e-01
5.920997207339665502e-01 1.891941470447500995e-01 -3.917288349555018145e-01
4.296415973157408641e-01 -1.009310213693516145e-01 -6.589567712944897904e-02
5.093873988844489081e-02 2.821332890020749606e-01 -7.489820896374599357e-01
2.072675777410840081e-01 4.177036296089630119e-01 -8.669581711707708971e-01
-1.827778151166537801e-01 -7.799411068215291731e-01 5.977006895055492208e-01
5.960331016413739080e-01 -2.814033944555968114e-01 2.507989808866990522e-01
5.265752177437440507e-01 1.201997658725852264e-01 -3.257058683604150962e-01
-7.443655701503475441e-01 -9.807848279953547410e-02 -5.702454030548594899e-01
5.393232541854234841e-01 1.258931718502208918e-01 -3.280247085172536270e-01
-1.659854140580944437e-01 -5.685609929498517401e-01 3.170055438796022806e-01
2.502499112219996324e-01 -3.164888314596787655e-01 1.511744508962777067e-01
1.697449450590771125e-02 -7.451160038862701951e-01 6.354285225309590501e-01
4.566841635796583532e-01 3.656737892249189992e-01 -6.897815903755151190e-01
-1.936627048200600110e-01 -5.625311239339377822e-01 2.969956818445828595e-01
-2.191941821385144928e-01 -4.263755623147031382e-01 1.006977833591237020e-01
-9.347081914262458935e-02 -5.391981122455694608e-01 3.079318169811642303e-01
2.069632051307396803e-01 -5.914518198390986692e-01 5.071613788586339933e-01
-1.941842497361606079e-01 2.448053681816042548e-01 -8.026426087396031361e-01
1.356934904078631321e-01 -7.059602654429392166e-02 -2.325118708699423775e-01
-4.537007787690405802e-01 4.856865606208098096e-02 -6.460398566857604719e-01
7.495841627934344276e-01 -4.977720636366582130e-01 6.109028265417084658e-01
7.966234336434694363e-01 -2.226170934423492009e-01 2.562541346832668543e-01
3.032955791456314332e-01 -4.100527860022100679e-01 3.012008533342264704e-01
5.059997427668870840e-01 -5.538825273864215193e-01 5.834759021775631771e-01
1.832109038330181627e-01 -5.150121479590619861e-02 -2.382587296374290564e-01
-5.832864430014566420e-02 -1.315122107975133514e-01 -2.322666450843323960e-01
-2.412999276781568336e-01 -2.435172823466951186e-01 -1.577386681989279560e-01
3.449751006189787916e-01 4.134779375083364600e-02 -2.957406597820346206e-01
3.132378228977759083e-01 -1.328006472459935562e-02 -2.348786697582085359e-01
7.870428759289914422e-02 -1.481861289021882688e-01 -1.511449132983192223e-01
-5.888059319299038252e-02 -7.188166111606661968e-01 5.672783788252281356e-01
1.972013683851842059e-01 -2.757567280578939739e-01 7.309226453397064949e-02
5.369421299454834040e-01 -4.096691610303836439e-01 4.002791655475604893e-01
3.806635620358998495e-01 2.503310969732822078e-01 -5.651167086547672636e-01
-2.234854840503375240e-01 2.220658357033104546e-01 -7.841670974911079117e-01
-1.589393829612799625e-01 -8.113559588027152714e-01 6.506428942649689073e-01
-3.045710299572694790e-01 -3.162447946623601625e-01 -8.567139465576162349e-02
3.389395821487024008e-01 -3.733199414726622034e-02 -1.911688432803690385e-01
-2.842040509158791917e-01 -7.634121690977956065e-02 -4.036854681639681086e-01
4.359491179766312730e-01 1.711177856975342748e-01 -4.336779104214942282e-01
4.024289202830519385e-01 1.323816962061024061e-01 -3.952170760680910333e-01
6.162791701073937478e-01 -2.223129132579912404e-01 1.789613086037876166e-01
-4.403748778938343378e-01 -7.404785233599606165e-02 -4.733822824816714681e-01
5.658971523858800090e-01 1.900196948587956625e-01 -4.040228917530935826e-01
6.097444853952196375e-01 -2.938866090560653399e-01 2.736433912027038118e-01
2.147749828191868882e-01 1.897314500514810792e-02 -3.207740257886219082e-01
-1.499565676857273488e-01 -6.580534431483738844e-01 4.457076191233985685e-01
6.404197249380915169e-01 -2.490252494873274047e-01 2.256285053191484369e-01
-3.290223114449665753e-01 -1.077881256734380651e-03 -5.252831797197502484e-01
-4.159895506311593327e-01 4.137440644028486832e-03 -5.694584012471438639e-01
-6.230247693266448561e-01 -2.249480061885823501e-01 -3.457506935034116435e-01
-6.363698909445535401e-01 -1.660543137487745513e-01 -4.316399044076922875e-01
1.760527822202195836e-01 -6.113099053068642430e-01 5.210270108288054258e-01
-4.687965518343599480e-02 3.008237648604302275e-02 -4.474426102493623270e-01
-1.706045016478754117e-01 2.516811986540853363e-01 -8.019542238746736329e-01
1.837153016868219857e-01 4.610457823364437768e-01 -9.360207694442262971e-01
-2.934078822483080495e-01 -2.293928818443099205e-01 -1.991860134088525303e-01
-3.155188905539579869e-01 1.903689998888556945e-01 -7.802356690737553002e-01
-1.614865006183683616e-01 -3.594927215356732986e-01 3.421805622173694494e-02
6.736001937017127572e-01 -1.351641384947687985e-01 8.471897826335082760e-02
-5.498401809658238770e-01 -3.146658007222608577e-01 -1.923769403838669900e-01
4.657256949290725090e-01 -5.751138374073843096e-01 5.952199649119878089e-01
-4.668196960955843799e-01 1.756361694635938941e-01 -8.246704929000162609e-01
1.261308678829382857e-02 -4.095700044895360381e-02 -3.253414522163988742e-01
1.994093229992771055e-01 2.403545133237262321e-01 -6.287972915919604056e-01
-5.484125857775129509e-01 -3.761442042116668327e-01 -1.080482163384243188e-01
-3.200049918015104855e-01 -2.331702381037925043e-01 -2.053801084230016671e-01
5.696621572682771806e-01 -5.787813710527861533e-01 6.445212134535490689e-01
-3.668415625669986246e-01 2.677154871532499980e-01 -9.074429308140088413e-01
3.625054659416086511e-01 -3.615238145559054872e-01 2.603554594531060640e-01
5.836779434170722425e-01 -1.573992339970293752e-01 7.666554363297015118e-02
-2.185497444653649590e-01 -2.163882272994066269e-01 -1.849843850243108601e-01
-3.634586974154145333e-01 -6.970722621095999383e-01 4.078293277301942021e-01
-4.987609144294512520e-01 -1.883631540672509042e-01 -3.425990784356461316e-01
9.165910994330392914e-01 -4.043857963865300498e-01 5.549241845863026601e-01
4.586283269046828592e-01 -3.190415634182777738e-02 -1.475384947363868049e-01
2.725597123214626993e-01 2.516343438768215979e-01 -6.129748223808474394e-01
6.077589422516598283e-01 -3.690972213613668562e-01 3.752174042561708944e-01
6.291722441312688208e-01 -4.254391477311998959e-01 4.610710357275672466e-01
-4.235824265079984330e-01 -2.444810854619084706e-01 -2.341310244664085161e-01
-4.268258295028201643e-01 -6.415880948288361640e-01 3.052593615537742555e-01
-4.553736176876334585e-01 5.840436279451299839e-02 -6.601470521120837986e-01
-3.369399074867831523e-01 -2.006090694320761258e-01 -2.569404597637716114e-01
2.731574419316711855e-01 -1.091630416118303387e-01 -1.213927844486929752e-01
6.922210815976388432e-01 -2.615427198143563392e-01 2.647568636026971234e-01
-6.587973087481372447e-01 -1.288531795571837280e-01 -4.918602631716277873e-01
-6.292051473074692369e-01 -2.694031548887601893e-02 -6.180285401018085212e-01
-1.990471278858885473e-01 -5.098740086293268581e-01 2.229928772203942089e-01
4.349656409188623618e-01 3.633225372802355024e-01 -6.958380448247950545e-01
3.813438783051075198e-01 5.305461185451364470e-01 -9.464183522428960549e-01
-5.092455017873546153e-01 -2.739263930276826797e-01 -2.305500898531190057e-01
-5.040574265641193374e-01 1.003057179371063673e-01 -7.379608701552253791e-01
3.897156346381616676e-01 -1.938388106956109025e-01 4.360447923489295385e-02
3.687491992502185401e-01 -2.968666989723494076e-01 1.749682192754054844e-01
-2.997975773527141730e-01 -3.522108023915211938e-01 -3.465868223324641839e-02
5.064458502308738508e-01 -2.751968454386661822e-01 2.041570447081267059e-01
-2.133278851257324749e-01 -4.739355322130611170e-01 1.679648063595053920e-01
1.234584084905632761e-01 1.077486753016341364e-01 -4.805940692339373821e-01
-2.382273452610715325e-01 1.904021792542534286e-01 -7.473323922794504748e-01
6.486738242411882460e-02 -5.881326056203347585e-01 4.420675871016658820e-01
-6.186846988551336635e-01 -2.528419856862368365e-01 -3.059150660355076656e-01
5.996363787664501510e-01 -4.770860112177314760e-01 5.188119974069745899e-01
3.609896904571904819e-01 -4.798577487017685050e-01 4.208542740980103503e-01
-7.073688817278063201e-01 -1.167199004880386665e-01 -5.290886187862706702e-01
1.082509246449598200e-01 3.915627599673523335e-02 -3.936689716526974858e-01
1.522513104453016020e-01 -2.279297973165197999e-01 -1.119923990307852141e-02
-5.656257662088824967e-01 1.110955775644821737e-02 -6.427410280217012994e-01
-7.139933400547409104e-01 1.343599179632844198e-01 -8.738284173953522194e-01
-3.608224397697453734e-01 -4.539931309394221737e-01 7.793244995235958095e-02
-8.845744327100724114e-02 -1.085726885124369545e-01 -2.763488100137370118e-01
2.845016214492931406e-01 -2.711445103527708733e-01 1.040264834955183099e-01
4.767906515088770059e-01 -3.156051375947470095e-01 2.465426566057412339e-01
-7.714157186771251062e-01 7.315378299840890816e-03 -7.252999758066581704e-01
3.531320693508866460e-01 -2.434071095408662233e-01 9.551053982817302168e-02
-1.758913962780357387e-01 4.280105277124040403e-02 -5.197588290415822154e-01
3.114396656161354526e-01 -3.229182315813383664e-01 1.860143488141734469e-01
-6.131033930183874547e-01 -2.867397938094556342e-01 -2.573744115808632715e-01
6.251766882559195437e-01 -2.244669420176766822e-02 -8.941992117875173507e-02
4.276699948289319764e-01 -1.931848221113365016e-01 5.889337870295807686e-02
-1.681881195408240770e-01 -6.336935305370897664e-01 4.047628467363128535e-01
1.708727206249655017e-01 4.684342594529990467e-01 -9.515568999299818254e-01
4.557010059553421311e-01 -7.773043593731163159e-02 -8.638099324641365651e-02
-4.446690106923792407e-01 1.837330039710867446e-01 -8.262540411398330287e-01
1.579214594036950081e-01 4.625815652835451042e-01 -9.491077763369322184e-01
-1.233769320431562511e-01 -7.414507811858974673e-01 5.706071579828345675e-01
-1.423881194984826237e-01 2.862489143094754107e-01 -8.369995965571439545e-01
3.782397710662385726e-01 -4.738739167726098156e-01 4.200591047268347755e-01
2.011833266060853997e-01 3.436109696183812789e-01 -7.686537951008080016e-01
9.745189893141971427e-02 9.138523894188165311e-03 -3.573948451201332532e-01
-3.735196609198364048e-01 -2.132437965057328300e-01 -2.553282318721128985e-01
2.946424264713028429e-01 -6.586721653308875712e-01 6.360774087208075356e-01
2.951487013777325807e-01 6.176739262455505086e-02 4.166451024022865268e-01
-5.611654027305980064e-01 2.067685747749099245e-01 -1.458512805935169576e-01
2.994139112556929994e-01 2.863557184659876187e-01 1.126230655066387948e-01
-3.974298074867906871e-01 -4.541010203316621363e-02 2.673595186345739672e-01
-7.073966214915400341e-01 8.925712013377093412e-02 -4.816296323393014223e-02
3.297611307757327137e-01 5.069577436568180051e-01 -1.748520523380239777e-01
-2.548475217762328771e-01 -2.029318850036101740e-01 5.426509011534705884e-01
2.639674680618743219e-01 6.689350302538460413e-01 -4.234767875236722379e-01
9.967484723742946195e-02 -3.502045400345925041e-01 8.943327286255371433e-01
-1.382518704192177705e-01 -2.056579788535346509e-01 5.960665749520319689e-01
-3.558784339935847640e-01 -1.510979225630305345e-01 4.289960984089976614e-01
-5.937401576967547001e-01 -3.278406620160929930e-02 1.664808650445435412e-01
-3.631804369694088264e-01 3.174110548665266540e-01 -2.121235525903626684e-01
1.096991069785135803e-01 -7.159062641329311250e-02 5.191946555150301901e-01
-8.878042725081658482e-02 6.128481982427825825e-01 -4.974709749428660177e-01
-6.210254341779910536e-01 2.175388427802050773e-01 -1.860356474652536674e-01
-1.640535008464848177e-01 5.287793982127452219e-01 -4.150756413135417988e-01
-2.264447088458144131e-01 6.885969501539057624e-01 -6.593088639463616785e-01
3.734060262010401865e-01 -2.168326042686617439e-01 8.293976058978040911e-01
4.197211444756331900e-01 4.911967047819740806e-01 -1.150400837850120428e-01
1.104019431383696931e-01 6.139756052823611698e-01 -4.140971986922518666e-01
-3.971479788826630386e-02 6.040183269179278946e-01 -4.645305288216544093e-01
-4.608228433416917125e-01 -3.848617186375526966e-01 7.025947849920211041e-01
5.373922983868046899e-01 -1.777923904700328891e-02 6.282357834503098371e-01
-6.859967471662805627e-01 4.499812422818431218e-02 2.123063211707452644e-02
1.850760572418574113e-01 7.311225355278256899e-01 -5.417930499408928346e-01
1.696286952315989860e-01 -2.288044365810141811e-01 7.588327915580280747e-01
7.517173981029744156e-02 -4.169805858061729348e-02 4.637689043178973569e-01
-4.981039178922158639e-01 3.220399311697882960e-01 -2.759433346662041320e-01
-7.114813389431512425e-01 1.341094802267309427e-01 -1.109833470563653807e-01
1.839515244488455492e-01 5.041920865985339839e-01 -2.332427199532048911e-01
-1.594354934606067586e-01 -4.493081305001316861e-01 9.188345382156404284e-01
-5.937987623231264500e-01 -1.721965698818251622e-01 3.563052618531342142e-01
1.184119081875194823e-01 -2.115511984162376513e-01 7.135045468994192230e-01
4.623750366300772852e-01 -2.352037059125066665e-01 8.923414570245162825e-01
-5.550895124759404053e-01 5.264635430290854901e-01 -5.786159197216176331e-01
-7.902961835748845143e-01 1.820815355796989443e-01 -2.099086323989049485e-01
-7.119925718305687434e-01 3.879067173729280893e-02 1.860211792873894820e-02
-8.279675887551238844e-01 2.787415851851074433e-01 -3.575973760260636181e-01
9.371943884234386346e-02 3.724208154907741597e-01 -9.226388760218898200e-02
-2.955788927723522197e-01 5.820266838737431225e-01 -5.436545129739439597e-01
-9.150904832591802984e-01 3.748452452850992711e-01 -5.256090161682572814e-01
-3.047188708799205004e-01 -5.168081469515403703e-03 2.520802380114343100e-01
6.863293107619899969e-01 -8.391693831812785387e-02 7.817909481128879623e-01
-3.243407213696000713e-01 1.949871045943211631e-02 2.101248953700615985e-01
6.317149556404941801e-01 -1.483539198720090213e-01 8.462585972021967606e-01
-1.200525613527516217e-01 3.578457342379204875e-01 -1.635442532513373404e-01
2.437927068023525434e-01 -6.514685051772790836e-02 5.675821354356617165e-01
-1.439489604623728864e-03 5.720728177003530091e-01 -4.047114174668137165e-01
-2.585611093247425912e-02 1.101786756023401953e-01 2.138790030695322808e-01
-2.385031362173189451e-01 -4.769630264533404329e-01 9.227888771521456368e-01
-6.625889216973136486e-01 1.906140044858125049e-01 -1.670879155034399322e-01
-3.898331414816560980e-01 -2.017506968033906944e-01 4.834996282045086469e-01
-6.130120344893823514e-01 1.528925150026603508e-01 -9.458545291991854453e-02
1.743700895883105451e-01 2.996704760056910222e-01 4.118659076108288630e-02
-1.076234442160277360e-02 -1.055352374905917656e-01 5.140685278917839218e-01
4.230917033789025755e-02 -2.848676955041590242e-01 7.809039165282867234e-01
-1.059977967893337286e-01 -4.109081803342913286e-01 8.893220434156260401e-01
-1.911322453184393089e-01 -3.930026834678501113e-01 8.286468720991611026e-01
8.912032217540516443e-02 1.313617578457908774e-01 2.340453479761080702e-01
-3.060410489949528245e-01 4.259743759334753133e-01 -3.356052466779247956e-01
7.337440963393924154e-01 -6.943951425362782613e-03 6.971829076417295212e-01
5.113867537947778263e-01 3.668193328561595856e-01 9.341068117025261297e-02
1.341771128765978649e-01 -3.090321932175779107e-01 8.529728877273183851e-01
5.064479595297791681e-01 4.864598730095732737e-01 -7.161895122701740501e-02
1.316111198257611248e-01 -2.733933291970356838e-01 8.033466871440169133e-01
-2.729381619849313712e-01 -2.462048595484263858e-01 5.938674175113504150e-01
-3.212696463344902886e-01 -8.194756579247441941e-02 3.495817280271180660e-01
-7.770255993651832283e-01 2.361687917920653745e-01 -2.779065704417055249e-01
5.245313996584226590e-01 4.226787808955626558e-01 2.294571893641520269e-02
2.134321527291447584e-01 1.511996461202881892e-01 2.600231213460869606e-01
-6.817745889244564150e-01 6.619113538273671549e-02 -5.829764577111769264e-03
-4.372886366710543316e-01 -7.992992152491017188e-02 2.973766315036750485e-01
2.979360771988035506e-01 5.490075476434967960e-01 -2.456813398578880370e-01
4.379379560352446576e-01 5.533411543234725283e-01 -1.919016418082052367e-01
-2.632544227966068795e-01 -3.583148043717685610e-02 3.115128873391806996e-01
1.479818551512331604e-01 7.432482529736422761e-02 3.368091583626777186e-01
-4.939901808448483034e-01 3.295799608574787598e-01 -2.844575713699959429e-01
3.489530382108707030e-01 3.879014385655887853e-01 -4.542089086676082132e-03
-3.805618074258164119e-01 -1.380204926698232193e-01 4.006652688932131334e-01
7.532840410512281482e-01 6.636932346294226182e-02 6.056758848253159799e-01
-5.041389922235346432e-01 5.251814247215113030e-01 -5.551503582085985933e-01
4.755627475388473635e-01 3.362145800430012543e-01 1.198163250388099149e-01
5.325722106802615458e-02 -3.633906839384840048e-01 8.925020985038960575e-01
-2.070883434377860377e-01 1.894898883762517749e-01 2.861732494063807739e-02
-2.404284428440573718e-01 -1.923608621541019470e-01 5.344021575912422106e-01
4.851964028823304020e-01 -8.626822886971619031e-02 6.992523431168942150e-01
2.803104052695151727e-01 2.611073302613205471e-01 1.388622596875968562e-01
-4.552545872531548743e-01 5.682330563311925598e-02 1.034899365140031363e-01
4.663152714045218361e-01 1.706801853678278913e-02 5.504821448938439499e-01
-1.337276839141826879e-01 -1.476348220788434029e-01 5.189803154666319251e-01
4.513124818486078937e-01 3.706222411171248288e-01 6.262300828772159045e-02
4.227800444955430170e-01 5.393642031946475068e-01 -1.793297233488413411e-01
-1.210089260177796555e-01 -3.427468906154772232e-03 3.280232526262415460e-01
-1.876901343656501020e-01 2.030013609961889842e-01 1.848687458100129258e-02
-7.628611047450880589e-01 3.684208142647952267e-01 -4.519667839295551381e-01
4.407290594089575131e-01 -2.443565015292156195e-01 8.955781447018418273e-01
-7.004946026731806441e-01 4.364147872718095872e-02 1.689782484299241078e-02
4.103725713480150805e-01 -2.042468616032916684e-01 8.280169687450272820e-01
2.866418136071127165e-01 3.347767811110106684e-01 4.123956218399781049e-02
4.783379035135261192e-01 5.282731949423408874e-02 5.069108916494829975e-01
2.659180618512508865e-01 -1.022404551366401654e-01 6.275272966746739955e-01
4.460547062340471380e-01 -3.176814013109553053e-02 6.083494898891493863e-01
-1.511908071767832096e-01 3.505719074385476586e-01 -1.669127510877686793e-01
6.624593348310788832e-01 8.595947082734392564e-02 5.402808988081636565e-01
1.296748784773367746e-01 6.875792123288615443e-01 -5.061134133902157606e-01
2.820355849027690320e-01 5.966203134095204863e-01 -3.172977165426772439e-01
-5.584113634676489690e-01 4.392892281912463281e-01 -4.613196089816514189e-01
3.183137388695956860e-01 2.323244659358786324e-01 1.942585999410035569e-01
7.088975940390596087e-02 3.735000455284413490e-01 -1.034655820419835698e-01
2.315470477054089593e-01 6.880599148373397478e-01 -4.633411398483653909e-01
-4.920730620966739521e-01 -1.496465472116844005e-02 1.855541836906222652e-01
-1.348171158145599347e-01 -2.628813277533167958e-01 6.754564720581984760e-01
-4.000287096078934679e-02 6.937368887970045694e-01 -5.868304156957658835e-01
-5.151145928089521098e-01 -1.404289822386018960e-01 3.465868650875809642e-01
-5.069187583677574604e-01 2.317901803335167266e-01 -1.568005474527521537e-01
4.994073187893734861e-02 4.809393145665382119e-01 -2.587047188497080819e-01
-4.404016158074184895e-01 1.947672996856327499e-01 -7.802800959071611031e-02
3.031496713027860279e-01 2.322175421768947132e-03 5.010072217223172641e-01
-6.532099282260875883e-01 5.250135435581695376e-01 -6.184688949529401070e-01
-3.542375660974426133e-01 -3.754598250965949791e-01 7.352274864182870573e-01
-2.154913022955562418e-01 3.913978012416518548e-01 -2.499192319556184094e-01
-2.005863716150705911e-01 -1.756929657792970223e-01 5.286883210396143840e-01
4.171297404791931562e-01 -1.349332900613587904e-01 7.365075241647480730e-01
7.119972680725177305e-01 1.210201054461534087e-01 5.136533999704743225e-01
2.357497710567819094e-01 6.783306076955812891e-01 -4.483003779976342251e-01
-5.700798819631558434e-01 4.446287419523831108e-01 -4.735650101086085750e-01
9.736562196824734283e-02 2.530586970987346307e-01 7.183557052578172508e-02
-1.352751524708799453e-02 1.675211374689296040e-01 1.410466275107651046e-01
-4.493386357871658604e-02 3.725871515657659394e-01 -1.515966428271952049e-01
8.830834792081568296e-02 -2.811025134662084035e-01 7.953854593466863632e-01
-2.399584167325478634e-01 7.105441621583714618e-01 -6.949569047275651057e-01
-2.526183078063585774e-01 5.151414234371369805e-01 -4.342578147457467064e-01
-1.669450853535001111e-01 3.025288320227710326e-01 -1.082044360927282289e-01
4.072495699846749306e-01 2.525064475449216861e-01 2.046874285736079158e-01
6.510435180103040231e-01 -5.005788398111308407e-02 7.206404009239815167e-01
-8.681650715688290498e-01 4.484287781390780547e-01 -6.058099747954036607e-01
-6.716891662543233998e-01 2.657321157221582617e-02 5.242048909362383158e-02
4.039650124582968016e-01 1.193202059667871490e-01 3.846578312756870899e-01
4.619936174068399737e-01 2.258060761889827961e-01 2.643842340214350162e-01
1.680260389497381934e-01 3.532378084573751242e-01 -3.446480854438174757e-02
-7.706157678059316618e-01 2.265345212373934547e-01 -2.620543638755820082e-01
1.130689193319422553e-01 6.113926740767003931e-01 -4.094429105568343497e-01
-2.629567603807440035e-01 -3.234660112130069431e-01 7.033351824770397442e-01
2.447587428051728187e-01 1.925685074940214070e-01 2.170419180952111171e-01
5.627187380538599681e-01 7.639669284101491264e-02 5.107850921429160085e-01
5.296203041177738324e-02 2.226354087187661646e-01 9.433672503783264995e-02
-7.406566209000857715e-01 6.425070180211527038e-02 -2.828802272646029070e-02
-5.359671517592914380e-01 -2.744232034850090929e-01 5.201685310664970752e-01
-7.455461868793925029e-02 -4.383969719658762504e-02 4.028587953537807187e-01
-2.413963149225121230e-01 -1.438904844020432727e-01 4.679834978159294612e-01
1.891070356773938699e-01 7.363961842228902155e-01 -5.472562497649444690e-01
-3.589009085654941145e-01 5.917828805290636929e-01 -5.839337386161651544e-01
-6.533824087475136218e-03 -1.705883058978037159e-01 6.044591656058523332e-01
-2.355659148505854228e-01 3.042943658496813919e-01 -1.398609451037264861e-01
-7.410562830485252217e-01 2.066876773591882488e-01 -2.224264432565116467e-01
-6.318712262322581097e-01 -2.653003035595857817e-02 1.417094165167462894e-01
3.084516677545234287e-01 -1.228526254934660944e-01 6.737281372142693847e-01
-1.892869164959648520e-01 1.652040031498899220e-01 6.927793110082669514e-02
-6.353127314561936023e-01 4.869726335665028327e-01 -5.590361239315818631e-01
5.775655847938955256e-01 9.349968400541673608e-02 4.938235867532282386e-01
2.909676553829160794e-01 7.879596170904145103e-01 -5.740524208046223764e-01
-3.300749158875634359e-01 4.391950573739466512e-01 -3.638542766547326890e-01
-4.100342433248604923e-01 5.933033257117559245e-01 -6.078017809115568992e-01
-4.046699771531104828e-01 5.422908341483521077e-01 -5.360471872434104945e-01
3.737968076788698024e-01 3.773554106301646449e-01 2.040989878499076607e-02
-5.793981810139766653e-01 4.518954244815644450e-01 -4.874329237668706960e-01
3.373949229315380549e-01 4.697422137271037301e-01 -1.209184351162481130e-01
-1.166071652753035565e-01 -4.205754029039583397e-01 8.979640423312696962e-01
2.721203846198537724e-01 4.136087275839280819e-01 -7.230264150061208039e-02
-3.755569738859273476e-01 6.446466213695489778e-01 -6.630228881529511842e-01
2.695737057394755401e-02 5.557018610992942032e-01 -3.703125090393453167e-01
-3.999410796897679421e-01 2.413354011429179879e-01 -1.241957504298588366e-01
-1.734178950049793666e-01 6.451673141859431970e-02 2.131567766449793400e-01
1.968187528488569149e-01 3.242794659825916637e-01 1.724411778041260584e-02
-1.774965200316023783e-01 2.919221090277893671e-01 -9.825834631706489852e-02
1.137604593835441491e-01 6.360877919843925810e-01 -4.427774719511272661e-01
4.953868001357435435e-01 2.295068048730926902e-01 2.735797636372140906e-01
-2.253380507417383216e-01 3.357330495851288954e-01 -1.783135495074543719e-01
1.989131342799811408e-01 8.737794621779724213e-01 -7.301620444516057074e-01
-6.511212432201808620e-02 6.136353969550805143e-01 -4.884534536438442376e-01
-1.408807180250817026e-01 6.650192818654074856e-01 -5.907263253467004427e-01
5.685774057026341533e-01 3.874439904809418023e-01 8.970409215550462223e-02
4.660876830478367233e-02 4.066671053166127647e-01 -1.589825686899130897e-01
-3.210998663512588114e-01 -2.814526001439064395e-01 6.213363837041101512e-01
-9.088218550388217631e-02 7.167986620744135617e-01 -6.399247559816853004e-01
-3.805305067469723634e-01 9.215050370835577154e-02 8.723598933302277592e-02
-6.783669003248939955e-01 2.254893298775901278e-01 -2.213064544261179878e-01
-4.366218393848560475e-01 -4.429783790618513351e-01 7.920535806048849548e-01
6.638324836939264451e-01 -1.572428268865057321e-01 8.720546644800222236e-01
-4.513377290461861868e-01 5.097587266778804693e-01 -5.116394661704590785e-01
6.741666566152655360e-01 2.031262141193830029e-01 3.857160772638174584e-01
-2.394245651855266277e-01 -4.220374647898127440e-01 8.475994649849311058e-01
-2.240677809587489355e-01 5.517518184071371623e-01 -4.719424286067188112e-01
-5.284451857514445017e-01 8.385123576513350829e-02 3.548352381623934293e-02
-6.710384456011448950e-01 3.373494809329447008e-01 -3.705115149915766959e-01
-1.356501832431097065e-01 3.710762120153619503e-01 -1.882103535170548958e-01
-7.739468245554312897e-01 3.851004869300142519e-01 -4.794065644461866227e-01
5.980278925016860314e-02 6.313542384216692949e-02 3.144569996826597214e-01
3.313898291353183367e-01 7.107082791586463166e-01 -4.516214834984922932e-01
1.936209649102119679e-01 4.721946509448833595e-02 3.931761443085226015e-01
-3.197550293155974194e-02 -3.306759069267727058e-02 4.063405061298254739e-01
-5.924912701219177125e-01 5.475826856193189984e-01 -6.233195002742256685e-01
-6.588084569632929322e-01 5.323774804180915199e-01 -6.308835542435509147e-01
2.925186685902554373e-01 2.300550446515005620e-01 1.863529265912932109e-01
2.662600713153354670e-01 4.704220683715650830e-01 -1.521681837295421891e-01
5.862563602898273052e-01 8.763385799691321421e-02 5.055163340341489731e-01
-5.874237427212025686e-01 1.068837995385509415e-01 -2.102364952670546586e-02
-7.265437805102936686e-01 4.903697413842943997e-01 -6.025529460841708707e-01
-6.468610094720784742e-01 -1.979603406850810252e-02 1.261492194012214518e-01
-5.793253146416939003e-01 1.569249889257752217e-01 -8.571655650191098430e-02
5.318408263944635062e-01 -5.332824106120091778e-02 6.742792335042212537e-01
1.112167533117416895e-01 6.551689605180479603e-01 -4.698462071735807766e-01
4.392000026231579479e-01 6.475626711925487611e-02 4.739822522320821241e-01
-5.970360588707577243e-01 5.340189715426181261e-01 -6.067860733141584584e-01
-4.321909482893495080e-01 -2.817808317818714658e-01 5.744265660894614101e-01
2.060225944639474116e-01 -1.662166968943051548e-01 6.891162439034977938e-01
1.433859541936999271e-01 3.837352886440810740e-01 -8.649948819412515977e-02
1.533408594879627496e-01 2.838836939543573079e-01 5.372023086323290259e-02
-2.306176982160423050e-01 -1.928519558747306128e-01 5.392531228800082621e-01
-3.883909383346333954e-01 -1.992078273982005598e-01 4.806515894178613468e-01
-1.584401728609138027e-01 3.325115127436506501e-01 -1.454087560475429142e-01
-3.466798442326475826e-01 -2.591506358034743052e-01 5.800615413764054207e-01
4.390298475112274224e-01 3.748197025364225499e-01 5.167104277444820731e-02
-4.558530242842525615e-01 -2.467109221356951487e-01 5.165821496537678081e-01
9.831908293632400653e-02 -2.498578028802682649e-01 7.571044444732016876e-01
-2.613326980384606535e-01 -4.472473211052414022e-01 8.725906083137383584e-01
3.108921019881235037e-01 -1.596541162904019928e-01 7.248840573041346325e-01
-2.401520078622078336e-01 -3.308226406829122834e-01 7.230746977742507076e-01
2.410413213271622723e-01 4.141675171772278286e-01 -8.631222324422867243e-02
-1.341157336733183880e-01 6.302168498948677033e-01 -5.404491828306742240e-01
5.753236997195945168e-01 4.336149516632493159e-04 6.196035563798266699e-01
-7.443955225797127540e-01 3.647037736568797817e-01 -4.390333300365868441e-01
3.498332172704714527e-01 -5.551032745020796806e-03 5.316294479634765535e-01
-3.984846029069026296e-01 -5.152553333678439040e-01 9.067364525397301200e-01
-7.904993035929431811e-01 4.943731750991000040e-01 -6.352682216996298203e-01
-8.777578511561762165e-02 6.215819665861248566e-01 -5.089361928725045781e-01
7.319398746001667400e-01 -1.221216589436932287e-01 8.532606698261949729e-01
-3.704071578640324991e-01 6.329129065416136957e-01 -6.448488265805931707e-01
-6.660191318042338882e-01 2.414830359487248057e-01 -2.378226829181776802e-01
-4.023339238950182084e-01 -4.854075223872792999e-01 8.644493339776531116e-01
-5.341560774473138595e-01 4.413083917971878933e-01 -4.537295309194257498e-01
2.159036103230324855e-01 1.720647227878676355e-01 2.326629970813965109e-01
3.948039693260446681e-02 5.896290862070151934e-02 3.114758616527947277e-01
3.616981386376573182e-01 6.009247769478995860e-01 -2.892002633543832024e-01
-8.955851420750957637e-01 3.762250723875201208e-01 -5.191731460150174060e-01
1.161086289583180761e-02 6.767521210150285738e-01 -5.416985553877464721e-01
2.824650804943619753e-01 1.220075481944885160e-01 3.292042926505776013e-01
2.470522618636075141e-01 5.283126433531358801e-01 -2.391905613499761829e-01
3.912105626162867278e-01 9.308642811832686104e-02 4.149454374963686965e-01
-3.752844527289843080e-01 -1.243549328268720305e-01 3.843054343327078626e-01
1.418209609014714212e-01 3.012004967593535643e-01 2.522773304842576905e-02
-4.762750156828586268e-01 3.815106723543948419e-01 -3.476240949310766548e-01
6.267744885961647194e-02 6.967766132642916332e-01 -5.471984661989386378e-01
-7.024344012175784968e-01 1.606234972937909955e-01 -1.432330458834053799e-01
-4.243547771800897372e-01 6.264528120301533498e-01 -6.590488127304945376e-01
2.179935172868851245e-01 8.132953738154888867e-01 -6.396621884535915736e-01
2.230184180019847140e-01 8.539543820838225718e-01 -6.928888219154210049e-01
2.399093727012080735e-01 8.457600803171517745e-01 -6.745295610819728171e-01
1.570683911316619885e-01 5.902436956426161396e-01 -3.618861735954030934e-01
-6.781312461227041732e-02 2.299332941453206824e-01 3.291359734680859156e-02
2.219762861622923134e-01 2.706508095578942855e-02 4.327095471118139747e-01
-2.106616561991715986e-01 6.278613407739476182e-01 -5.698721036924131456e-01
-4.944191082179354990e-01 -3.856946292726787240e-01 6.894073421014091929e-01
-8.833718289830467807e-01 3.739409975000706488e-01 -5.108563458489153719e-01
2.183534154281984718e-01 2.744541345967725365e-01 9.427530486354936123e-02
2.615892790992054295e-01 3.117243729747457351e-03 4.822078150243302996e-01
9.857633488942776911e-02 6.284087135450021622e-01 -4.387930547694621208e-01
-4.093856482841469191e-01 -5.074789115581206378e-01 8.914996795212118963e-01
-4.852492365439776967e-02 3.860269630030722654e-01 -1.714295563458087812e-01
-7.153025853801363576e-01 2.753206401108292956e-01 -3.049110547781747615e-01
4.220060600294622266e-01 -2.414383386548996369e-01 8.836228539149426631e-01
-2.646973902385137967e-01 -3.714313387323243121e-01 7.679114722205616639e-01
-7.841038413140956065e-01 2.562011695163349256e-01 -3.082036631396465332e-01
-5.258821314213153464e-01 3.725321354247738276e-02 1.000324514084628413e-01
4.321409884253633038e-01 -1.903794811593672795e-02 5.850824976959170254e-01
-3.571993624890871244e-01 1.918848991059910469e-01 -3.863468571417087716e-02
1.493883685941058614e-03 6.175257137297572863e-01 -4.653578720544008784e-01
6.369911416016167394e-01 1.651378033375977272e-01 4.216005185395339527e-01
3.590128739169279326e-01 4.073721916396255138e-01 -2.676861448376423661e-02
1.097403858805614529e-01 -3.552718778162465840e-01 9.055241544095115058e-01
-1.134536430307352545e-01 2.482671591573380743e-01 -1.150912853101021018e-02
6.028662686887332756e-01 2.495886638539776201e-02 5.979465879856473709e-01
6.046281149339723937e-01 2.013105631206004165e-01 3.585451500655907342e-01
-7.160483594825277631e-01 3.132809972734755810e-01 -3.569226844235407481e-01
6.800888885587448307e-01 -1.437545975719752567e-01 8.606165529292223448e-01
2.130876509829051635e-01 5.507713437369621268e-01 -2.842531125379310075e-01
-2.036334932481439208e-01 -2.252119365315102539e-01 5.948233917238552326e-01
2.692219033222181257e-01 8.320003219680921491e-01 -6.432961949903399645e-01
-2.054270118073568685e-01 1.211203117919937705e-01 1.224299606028912135e-01
-2.051314153253441519e-01 3.003728134461502441e-01 -1.215467847263529133e-01
1.942011249535167267e-02 3.051966374834068074e-01 -3.239215314512759042e-02
6.317231133694630428e-03 -3.417008489405288230e-01 8.429553253826342907e-01
3.786490988449235373e-01 3.554365591641696631e-01 5.232706051893640242e-02
1.411258556534223385e-01 3.444503717067354254e-01 -3.396546494723750448e-02
-7.324660829305181808e-01 3.333787227400596964e-01 -3.912900755536986575e-01
-2.286287488654392130e-01 -3.853448948049981726e-01 8.022343262976077138e-01
1.450859040976193171e-01 1.969973308869400475e-01 1.685214908779540666e-01
-1.161883167888362739e-01 7.434440623617179222e-02 2.241699137342936521e-01
-2.793366271888458319e-01 1.137653396205967199e-01 1.009390425772863642e-01
-7.001235372648317856e-02 1.119741891933315053e-01 1.926106284056516016e-01
1.876634245741596874e-01 -2.988433444879066703e-01 8.618984751623371965e-01
-3.852102355947778500e-01 5.219981322596478623e-02 1.396451913145994039e-01
-5.680213981086503772e-01 3.337625403851290362e-01 -3.217119521806303672e-01
7.311964172592011479e-02 5.344269473214686636e-03 3.988327437563214950e-01
4.007525637860985257e-01 -1.830580060251521535e-01 7.950614815785903566e-01
-5.883701584589804412e-01 3.429285136191173589e-01 -3.428684384443899114e-01
3.130763229870970887e-01 2.392293915137519711e-01 1.826229518423979903e-01
3.632555328868916078e-01 6.167734561565367812e-01 -3.101188042251969978e-01
2.642380012995294014e-01 -2.408374875081818189e-01 8.155499924409845836e-01
2.768785523674685001e-01 4.482572657980782305e-01 -1.174580326360599031e-01
-2.068417555924270332e-02 5.961340617075924220e-01 -4.456813553807431605e-01
1.012058839246052406e-04 5.917965719794772150e-01 -4.309140826637370969e-01
2.020037843940926114e-01 5.893501292066880559e-01 -3.415139114408031751e-01
3.760619845519292404e-01 4.663879070960069706e-01 -9.986729698295730706e-02
-1.656696110651243725e-01 -2.905541576502784773e-01 6.999887728965555889e-01
2.808473756508539365e-01 1.351234077486479501e-01 3.106537485342318883e-01
-6.255812571513533760e-01 5.526051866887226049e-01 -6.442649147747173677e-01
1.263760365390838580e-01 7.808674373210493513e-01 -6.345578564314346970e-01
3.749197306109283145e-01 6.291830263228366249e-01 -3.220456205106483893e-01
-9.020622559666129359e-01 3.991282591294139648e-01 -5.531233998575586508e-01
-3.266413930074841820e-01 -1.225075519715751876e-01 4.025256587552093479e-01
-4.128010617221171130e-01 2.624835466467279610e-01 -1.584769616704451989e-01
-2.114523134414213745e-01 9.167230626676474425e-02 1.599631981304835138e-01
3.025484984958276002e-01 -2.858163444096823574e-02 5.428351879184888373e-01
1.612158125578460055e-01 7.557678738483094572e-01 -5.855259541245999566e-01
7.051832732837863826e-01 5.311606774640342116e-02 6.032191432337877801e-01
-1.513860135390608930e-01 3.785730618294465000e-01 -2.051274214346294478e-01
3.914024660464430760e-01 4.910775806142977373e-01 -1.269497760582087575e-01
-4.431965612442482216e-01 4.812022645340197080e-01 -4.692813197825411731e-01
5.137055457753166021e-02 -1.381114107687214099e-01 5.849166710657828228e-01
-6.741964085762523762e-02 7.754670910198466771e-01 -7.098165400188227725e-01
4.388337034323057662e-01 3.397653002853157078e-01 9.932386811772610236e-02
-5.275804986171940270e-01 3.851048370800141951e-01 -3.743894750027644269e-01
-4.295687787015302628e-01 -1.268804370733930542e-01 3.646038616288382328e-01
-2.381421905574399589e-01 1.891150169706924955e-01 1.588993489788115623e-02
4.500231639573263887e-01 -1.633425167985008419e-01 7.892167581628244388e-01
-1.358123397771834363e-02 3.886437097032117149e-01 -1.600969174958318531e-01
4.593211059782068562e-01 5.080652453155556220e-02 5.015561400254024971e-01
-7.528881104417086689e-01 1.411259033134765750e-01 -1.381893934162169713e-01
-5.182663371924793871e-01 -2.955568809882503922e-01 5.564936289690376459e-01
-3.421664556518625444e-01 -5.163379677810522317e-01 9.322185156499249725e-01
2.739900818871304211e-01 -7.464768451062146759e-02 5.933929753917378536e-01
