-6.162515522027626202e-01 -9.361476192926653228e-01 5.221951998231584291e-01
-5.317628634740828586e-01 -7.787215397400860661e-01 3.980173989294664150e-01
-7.032275376654645305e-01 -8.704090231141886624e-01 1.736777723181988364e-01
4.690148035156625483e-01 5.532083381819439261e-01 4.125412916952648362e-02
4.989679403846917771e-01 6.127081270437112481e-01 -1.048314997531441320e-02
-5.867298623715614392e-01 -7.744234061430911309e-01 2.556494866333638427e-01
-3.479068627562936777e-01 -2.463597162803076723e-01 -2.690689904301977742e-01
-8.477121526722792844e-01 -8.867795157562353703e-01 -1.426888032958160968e-01
-8.922699895793798075e-02 1.089022695110288680e-02 -1.793051642148310587e-01
2.291557310044043186e-02 5.274752376744007432e-02 5.286418516810054147e-03
2.531672948042629559e-02 6.573243762301828053e-02 -1.603981430355957971e-02
-3.434967264152360422e-01 -5.298750421865138227e-01 3.344913538128840846e-01
-3.027063354372452886e-01 -2.655591281367864487e-01 -1.192398294501781503e-01
-3.052009543422696813e-01 -2.569776904574020970e-01 -1.432377884705805238e-01
-3.857117167058145557e-01 -4.844328937246687450e-01 1.370305530790718318e-01
-7.472614764479792449e-01 -9.250414575558086883e-01 1.810691783039195812e-01
-7.570348619458332901e-03 9.409883298188228412e-03 2.193419881689114698e-02
-7.645163164632354791e-01 -7.582349482930667017e-01 -2.096096397500076813e-01
-8.278379310759357290e-01 -8.699773776756636323e-01 -1.295979953177290034e-01
2.347543064288834247e-01 2.916759348658711781e-01 1.970013161445952066e-02
1.347876845243708710e-01 3.793770715903915791e-02 3.077183236699466140e-01
-2.275229935356728739e-01 -3.157896354294306152e-01 1.682332107162733403e-01
6.433019721574664285e-01 8.335222184327485406e-01 -1.219940077834315850e-01
8.059138524596435316e-01 8.915342264286283402e-01 1.512826767042320109e-01
-1.418364217058047383e-01 -1.449212101903256944e-01 1.885284036218276213e-02
3.091381127954334063e-01 5.225030004723171251e-01 -4.027080823754762839e-01
2.903429522539762719e-01 3.037470484131786219e-01 9.125150209037268673e-03
-7.480006277485505561e-02 -3.572763437492818689e-02 -1.670365043148868689e-01
-5.425025427252980759e-01 -8.262304720297033445e-01 3.510813664057332861e-01
-5.799403559341100856e-01 -9.452901423228916578e-01 5.092023917732386717e-01
6.598349129069661645e-01 9.728989985409902674e-01 -4.935484446991669771e-01
-2.802603749663488686e-01 -4.351421455468420518e-01 1.696198350711420333e-01
-4.838830108159045684e-01 -6.807121714792957468e-01 1.890311620088978295e-01
1.890196662644521852e-01 8.697623123217776420e-02 2.165487742110157598e-01
4.162344320927997554e-01 4.615263569852465220e-01 -1.532541039605410729e-02
3.094607130289573904e-01 4.919318115973226879e-01 -3.379978602570277157e-01
-2.903773133942316731e-01 -3.777346456167667843e-01 2.502576350301621150e-02
-7.366512137557560402e-01 -8.358030813967121109e-01 -1.000125007054671888e-01
-1.077510132924694164e-01 4.501640124464881439e-03 -3.311170225129063671e-01
3.457753425348581988e-01 4.720171812744236028e-01 -2.082351671874490828e-01
4.926191868091557291e-01 4.845266329954163731e-01 1.219300156604139207e-01
5.562822648066672038e-01 5.253699682965600193e-01 1.910040535155510533e-01
-6.429570026413055084e-01 -7.488087199124141558e-01 -5.457288095040912362e-02
1.910400708454144114e-01 1.570195210174007983e-01 7.498385138984629827e-02
-2.536873564933161962e-01 -5.034186407746602532e-01 3.768735392256827854e-01
-6.565729811055150966e-01 -8.847016086285942604e-01 1.965529252169541108e-01
7.436173470033661248e-01 8.505526969883383526e-01 -3.440794416494104280e-02
7.218155202748745003e-01 9.110486420998926693e-01 -2.138142111494874542e-01
-9.843995534575110395e-02 -2.686722129014895710e-01 2.627105900468152955e-01
6.278250709920037975e-01 8.126986358771955965e-01 -2.362268769769547971e-01
2.604477090631150960e-01 3.936711162020475885e-01 -2.514573348964028177e-01
-2.203733197970195457e-01 -2.122739212987208024e-01 -1.511010982543199987e-01
-1.645917198007018634e-02 1.760481746826961930e-02 -1.369930046556727676e-01
-6.342816653321745601e-01 -7.611728176792250666e-01 -7.667188423924683680e-03
-7.574529702496436423e-01 -8.029628064878413518e-01 -2.191612732824362586e-01
4.068624824147157315e-01 5.308186153095756366e-01 -1.829639505100752184e-01
4.185550630178686005e-01 3.252497526208899536e-01 2.752737380181037308e-01
7.505386520309623166e-02 1.656958606186336169e-01 -2.246053880401576719e-01
7.402330067434942373e-01 8.800974533144535483e-01 -1.044012534841002871e-01
4.572336814985160647e-01 5.623261072995472398e-01 -1.266211173298713577e-01
4.233321747282400849e-02 -1.294688251571016191e-01 3.132152885524589481e-01
7.213831812448011638e-01 6.889145909566741777e-01 2.496412404761756965e-01
-2.043175671709471231e-01 -4.463894064714771237e-01 3.774178844586336679e-01
-4.438442698243661999e-01 -6.793535888255720634e-01 2.833461735160709427e-01
-7.456020840700913754e-02 -1.817586012810628870e-01 1.389108878016145632e-01
-6.025813055947151220e-01 -7.936664247620907053e-01 1.372026555466875630e-01
-4.707617648619837891e-01 -4.696956019273162974e-01 -2.203862753119419093e-01
7.190948060715823820e-01 7.031349239928785799e-01 2.143522470446703743e-01
7.001468096403844488e-01 7.924200773394673991e-01 -1.833017961047914146e-02
-6.273917301845939321e-01 -8.872181716367297799e-01 2.726250288967177471e-01
4.322714463408202645e-01 6.571543178886354308e-01 -3.854884732114789436e-01
-6.485942412553887815e-01 -7.539757324807440098e-01 -5.744717277457107862e-02
-5.646312741253862733e-01 -9.052524127087127059e-01 4.626277185161500327e-01
-7.008069000791082859e-01 -7.281761690785820695e-01 -2.380931881645050874e-01
-4.553492542852606850e-01 -5.887898724477363954e-01 6.605097250998169522e-02
-7.073632396407697476e-01 -9.270334302097653634e-01 1.618279810001350405e-01
1.552604036217791195e-01 5.543454970507692703e-02 2.005871029750344314e-01
-2.642666334992063160e-01 -3.060205001171787398e-01 -6.157686631113871295e-02
4.216934905964220270e-01 3.820669757002873590e-01 1.640787819479035403e-01
4.039804057967362194e-01 6.646905658952277918e-01 -4.698971022565949229e-01
5.945642393071837173e-02 1.888299713028046833e-01 -3.108290764440544418e-01
5.045535795955300440e-01 4.382660255706438690e-01 2.476249598720118017e-01
-8.392650297655901426e-02 2.857588310177358940e-02 -3.236473471609087604e-01
1.337611598703799531e-01 3.794557080977033203e-02 1.849893529638264311e-01
7.508729537208266303e-01 7.589767214007813179e-01 1.746926713378403051e-01
1.906089570156674351e-01 1.957749759150433921e-01 -7.103803968277872492e-03
3.054643985938478301e-01 3.874579221225806225e-01 -1.292297468933998050e-01
-7.957896119015743118e-04 1.561522593150620024e-02 -9.482461372712448766e-02
-5.043526407579894677e-01 -6.734079009985520781e-01 1.240866527716848466e-01
-7.913733131147785427e-01 -9.068825004336197315e-01 -8.416414230226494653e-02
-1.530939658527309399e-01 -2.514196484608444693e-01 9.401314721562011034e-02
-8.725182556436925085e-02 -1.969562166888564128e-02 -2.307758535471127470e-01
-4.093918820793788216e-01 -4.080588013651278434e-01 -2.003580046025934813e-01
4.756491670679391381e-02 1.512656249737555532e-02 2.354682616760488817e-02
7.315504611798911982e-01 7.771849313337666487e-01 8.973051734819716130e-02
1.102121589420923670e-01 2.287117496511983927e-01 -2.710646195072050624e-01
3.203733508441861666e-01 3.047684443213323213e-01 7.985952547815354519e-02
-4.054989143632346527e-01 -6.298958679564561347e-01 2.729719888584136167e-01
-3.507189747467275298e-01 -3.370258496602200338e-01 -2.065223682980021902e-01
1.495279563583214177e-01 2.401521833176503418e-01 -1.995860255568086827e-01
-2.932690467223777464e-01 -4.844564913778327542e-01 2.411748980939653064e-01
6.243413267641549913e-01 8.448511665797480141e-01 -3.119145121755133587e-01
7.734022364138162242e-01 8.070305587426763738e-01 1.288756812495189530e-01
-7.191233605293672060e-01 -8.516842669195617832e-01 -2.427116696353189690e-02
7.482913960824874033e-01 8.037498060140799705e-01 7.480339366349329777e-02
-6.671822697842678951e-02 -7.625637832795242876e-02 -6.267587664822435456e-02
-1.382526732563831295e-01 -3.962312909191053473e-02 -3.128614667986250875e-01
1.027502966644494725e-01 1.770787663994629890e-01 -1.812014516718550017e-01
-6.691923483171609011e-01 -7.030996371875511963e-01 -2.138164864927944997e-01
7.512006728836354563e-01 8.324764818164341884e-01 2.179253919756643162e-02
-4.360610175696477686e-01 -4.836084789380801219e-01 -1.070900127160727966e-01
-5.742029106723783166e-02 3.657631331615545517e-02 -2.760584410747253803e-01
-3.154129655945187016e-01 -2.595804482213783793e-01 -2.827967164301194991e-01
-6.384918428034340732e-01 -8.205810232753478761e-01 1.063451185101923907e-01
8.526273773486238439e-02 1.507452313035820557e-01 -1.685698015785957182e-01
6.402464939163805824e-02 1.638017868680709810e-01 -2.474076164246528375e-01
8.004050277137760849e-01 8.873861823520807768e-01 2.636760696083223846e-02
5.931191285350316533e-02 -7.314258971257069086e-02 2.366311168188980629e-01
-5.458774244397076592e-01 -7.856542515636515400e-01 2.580431126083039262e-01
3.673498641900026507e-01 3.263440795973618358e-01 1.487334961947050782e-01
2.244340801662430551e-01 8.728867702618194058e-02 3.018302090276406835e-01
5.399258305646235101e-01 7.057918238748162043e-01 -2.259657918749039263e-01
-6.591949792865652302e-01 -7.681995870263685910e-01 -5.342687285325817964e-02
6.512050266562651180e-01 9.269272430167284638e-01 -4.183577376321397923e-01
-1.713430527012618498e-01 -1.156266066390916336e-01 -2.342259931282354435e-01
-6.040492169555626845e-01 -7.542630465793939143e-01 5.124428830737991214e-02
-4.334507799038841980e-01 -3.973983109425160976e-01 -2.810302381215827872e-01
7.190635219239756015e-01 7.970176496178076331e-01 1.795815478868945797e-02
-5.491688579275335602e-01 -7.030461643657620607e-01 7.731450798749010811e-02
1.338926231359362784e-01 2.436715087362005261e-01 -2.448851805938829784e-01
3.953547406215775911e-02 -1.224550799155219999e-01 2.917599851009294309e-01
3.919864045961861665e-01 5.676278840657158486e-01 -2.960333403833151911e-01
1.617182133950624823e-01 2.165318178640071034e-01 -1.206132272801453964e-01
7.151576989858277056e-01 8.951348001601167059e-01 -1.966922999601558308e-01
6.056710494937321831e-01 7.513019401241486372e-01 -1.615980444699975094e-01
-4.534010348444283967e-01 -7.049037343484638729e-01 3.135841330374192770e-01
-5.933380634317650948e-01 -9.631636343908440701e-01 5.140674673396740113e-01
-2.529930316645340183e-01 -2.438313303590345094e-01 -1.642647065054858857e-01
-7.401430217692717139e-01 -7.764281724331344448e-01 -2.326444217903476386e-01
6.255333736231580843e-01 7.581673259348974403e-01 -1.277573623085378196e-01
-5.442004384350468404e-01 -6.833318767137163130e-01 4.814606900751287194e-02
-2.342774848364540807e-01 -3.824962113732606750e-01 1.711116248754789571e-01
6.692214318417422092e-01 8.396121918505584647e-01 -1.920555431720900597e-01
8.189464134892986413e-01 9.293087351861631928e-01 -1.630507827832164761e-02
-2.192885301687539923e-01 -2.704269414767294100e-01 -2.686501563817062649e-02
6.058820646744433880e-01 5.912898422811748711e-01 1.735153126816497970e-01
-4.276276982065125298e-01 -4.009635901197811658e-01 -2.594448926522558985e-01
-4.995216644257133853e-01 -5.974736934562033808e-01 -2.297678048207130175e-02
8.863994561037182862e-01 9.090634904936968352e-01 1.897078298115432993e-01
4.011254705831352463e-01 5.400449691624663595e-01 -2.161783172721828961e-01
8.632777000917080112e-01 8.886157554369992218e-01 1.763600306243141014e-01
2.435169112447332918e-01 4.138171118428222162e-01 -3.346680297706352558e-01
-4.228773132602325346e-01 -5.346619320313741319e-01 3.165876660384373681e-02
3.537023366592358942e-01 3.676214218153891489e-01 2.930205408972403128e-02
1.270199006344218673e-01 3.125899303540013441e-01 -4.056774949545838282e-01
5.030806238275500331e-01 6.159987630407397496e-01 -1.276061890510060692e-01
3.581202184621679607e-01 2.946623677820909837e-01 1.925869455901803862e-01
-4.082584927744013770e-02 -2.468335264657539607e-01 3.568471283100848601e-01
-1.342594869924011447e-01 -1.906238970192674631e-01 1.258591847841336077e-02
7.657306601278748848e-02 2.469469928560455441e-01 -3.908232268913806595e-01
-7.022032491535167009e-02 -8.969347319282361397e-02 -4.307557606097785208e-02
5.297738687883767339e-01 7.262876659624665221e-01 -2.934588767818561705e-01
-6.658564622509853814e-01 -8.039505970117408751e-01 5.167657781989155701e-03
6.080878291275262221e-02 -1.286817821709010899e-02 1.142235147903195441e-01
1.549663816973080588e-01 2.063364381737147479e-01 -1.156773140531119626e-01
-3.189787757733463791e-01 -5.422609523886202654e-01 2.996639115045862112e-01
-3.533538482424214977e-01 -5.156032244390048591e-01 1.605071551832204513e-01
8.265908949175125864e-01 9.097409195619917677e-01 4.316288788230818879e-02
4.824512047138798665e-01 6.885523845390123521e-01 -3.293813608444542407e-01
-7.275373220152998588e-01 -8.994316501375569928e-01 5.515650730240580918e-02
-4.912972199239746263e-01 -5.685595477068340342e-01 -6.348214156888301596e-02
8.728781188902802191e-01 8.894706001329018008e-01 1.978683458795728878e-01
-1.647255813991605200e-01 -3.154719796899541628e-01 1.997283069958667445e-01
-6.012777578482736418e-01 -9.268859852761061058e-01 4.189412175833934215e-01
-1.138609333415932651e-01 -9.938559405547156556e-02 -1.287044304851452103e-01
-9.130203404601038367e-03 6.218525261124317055e-02 -2.124310612277533206e-01
1.629809427869288903e-03 -1.817707206851049140e-01 3.238149984268891002e-01
-6.196675168128386035e-01 -7.275670114743398864e-01 -4.247835508231483093e-02
5.814836163659988788e-01 5.805695489196359693e-01 1.367285032208785944e-01
-3.383019657588510198e-01 -2.836766597484134955e-01 -2.879503926605371800e-01
6.508067434055689882e-01 6.615443657160891000e-01 1.356179779904558014e-01
8.182503320234657540e-01 8.165501441807360150e-01 2.177953506449403220e-01
-3.050411418111051987e-01 -3.535206014345494419e-01 -6.119071717541869210e-02
2.639987691252687618e-01 2.395865453131986456e-01 7.936575051576987005e-02
-3.539333657381935616e-01 -6.608912669626401115e-01 4.629127725221931500e-01
6.381811943221865624e-01 6.233332378148462860e-01 1.848847662749102672e-01
6.687230278885913926e-01 6.712259287814267283e-01 1.588475920908617445e-01
-1.512409062734773324e-01 -1.231583379919623522e-01 -1.696975569743988943e-01
5.629483761942994935e-01 8.017401041499055969e-01 -3.707379314041412965e-01
3.662888016561031967e-02 1.436803072637094780e-01 -2.718087484613248561e-01
1.100976037039560346e-01 1.025433988311890143e-01 -7.511938541100555110e-03
3.569318405343542833e-01 2.905338822171755209e-01 1.983363657031672056e-01
6.453959648368383373e-02 -5.088383074287761848e-02 2.027710505207096503e-01
4.075035299501237468e-02 7.519145979629526799e-02 -1.185907572195324527e-01
-8.844227858430325773e-02 3.024027604226551917e-03 -2.811736069950839245e-01
-1.398943015436466923e-02 4.833688026511797492e-02 -1.952638770286026781e-01
-6.075514607193059913e-01 -8.565568072688595214e-01 2.566524204939324427e-01
-4.093979938061810264e-01 -6.722443757037221967e-01 3.520656538338758912e-01
-6.516758674530951367e-01 -8.914719672646113091e-01 2.225935064584733947e-01
-2.695689668400320649e-01 -2.155051267974831819e-01 -2.637199438391001349e-01
-4.881909472503222908e-02 8.554297449082755300e-02 -3.575814131888527259e-01
-7.083053420685510304e-02 -1.694447183974460980e-01 1.222115607573474039e-01
-3.855310411094890477e-01 -6.894019216283039375e-01 4.458581168100220204e-01
8.011056698066683079e-01 8.478170558903779241e-01 1.108107544146086781e-01
-1.591745162894563637e-01 -2.471043247838297652e-01 7.023462323154758269e-02
3.665399362458346966e-01 3.111857721416395606e-01 1.784657055087403854e-01
-4.453691377801288764e-01 -5.951262447260493582e-01 1.035181973863449623e-01
1.134197704825326697e-01 1.325318570590491019e-01 -6.215940887679533705e-02
1.801791146241423780e-01 9.037262944375881735e-02 1.879945388150455754e-01
-3.128063740827197736e-01 -2.957863195904434361e-01 -2.007615935781286998e-01
-5.107108109240078297e-01 -7.957507517130145702e-01 3.644893960035755498e-01
1.238437284986753234e-01 2.151254928993213272e-02 1.952873189300332046e-01
-7.273696278354011557e-01 -7.968114982785609035e-01 -1.590255875401847541e-01
2.681435818952481176e-01 2.094711103973368460e-01 1.523977292793806948e-01
-2.802149464984299843e-01 -3.675071730756647725e-01 2.829856972291973014e-02
-9.940184425486298103e-02 1.427346967008563845e-02 -3.312912335719931378e-01
6.056151539132467176e-01 9.135704047985574450e-01 -5.010532853746023640e-01
5.879495850070213248e-01 5.349303258597603028e-01 2.478546745120135675e-01
-4.638807278994587224e-01 -5.225804759448028358e-01 -9.310153897998688088e-02
-2.667815289128254094e-02 8.099325459953872486e-02 -2.943414258097526992e-01
2.934173787675355971e-01 4.899567790883909701e-01 -3.727977969962620319e-01
7.008629481026558139e-01 8.337339977006146263e-01 -1.029839791902084911e-01
7.130744437256603119e-01 9.406794355394457741e-01 -2.969858126909682983e-01
-6.301239679720709308e-01 -7.182183858831383549e-01 -8.740035235721307916e-02
-3.003803070557783395e-01 -2.794630856847584166e-01 -2.047426567533145725e-01
4.384018847924657791e-01 6.074744571915776659e-01 -2.667271042844385764e-01
3.682628894278983656e-01 4.711491003504658659e-01 -1.518528015709275092e-01
3.704541166543357522e-01 3.136194168070707278e-01 1.828746591358963447e-01
6.963554155143750757e-01 6.835533019901715024e-01 2.001211470295930217e-01
2.060412730166184536e-01 1.648449592617611259e-01 9.502121995369487706e-02
6.649384197295342691e-01 8.907203186186313237e-01 -3.093206899925767805e-01
-6.777458766371793342e-01 -7.857001329753728891e-01 -6.184612968334584487e-02
2.741950442083323503e-01 3.877176356908119126e-01 -2.056494365881920139e-01
-9.594912483223780320e-02 -6.261620012361618359e-02 -1.621290441973624874e-01
-3.387076979441798197e-01 -6.199156622665623617e-01 4.141745004134700925e-01
2.350294676478537348e-01 3.448614369545471292e-01 -2.110700019369280422e-01
3.797237186828708588e-01 5.784048103225928328e-01 -3.483249734626052141e-01
1.631002410056054674e-01 7.593382859013619868e-02 1.767448032859098850e-01
-5.774438795599020624e-01 -6.797857347616111934e-01 -3.993608857507903453e-02
-4.812580431050548779e-01 -6.992038816600563145e-01 2.340687908344440404e-01
1.959771683428379319e-01 1.698256507428200224e-01 6.018505801036834468e-02
3.993746688433212344e-01 5.496593604992798809e-01 -2.405313774495573820e-01
4.504807358850397847e-01 4.574478212867658100e-01 7.630353064428994914e-02
5.982598481419539732e-02 -7.326553070181295035e-02 2.381356192437663333e-01
5.542038132274765966e-02 7.244797294366434048e-02 -7.725631737974333890e-02
2.297499200305817002e-01 2.686492537773489953e-01 -6.451377374187901304e-02
8.150004104762200718e-01 8.705774056958035523e-01 9.693284505834084963e-02
-6.084705182791714240e-01 -7.228311575477708306e-01 -2.521144069300267770e-02
5.023267728619067451e-01 5.039353784561833027e-01 1.049003131464647243e-01
3.133446017124760785e-01 5.535564158190381390e-01 -4.574366341890184762e-01
7.233262022182397333e-01 7.825860093075385215e-01 5.847975986936091580e-02
2.888831643600633381e-01 3.012589788096063370e-01 1.078570686641795381e-02
2.656036717484130949e-01 2.595177656725646265e-01 4.158194696332296464e-02
-6.411564028716570940e-01 -8.711873524182096595e-01 2.057023359230310267e-01
4.017044188144593131e-02 1.942236576514662708e-02 -3.379179841251697160e-03
3.172125851041242561e-01 4.319840602210944791e-01 -1.938308165916374226e-01
-6.001074215763129160e-01 -6.541315681526884696e-01 -1.485757018783844530e-01
3.716033234289409237e-02 -1.504389721049831374e-01 3.445137092987941574e-01
4.321054635933913035e-01 4.704203277643742576e-01 4.588232634244686532e-03
-7.075022309395437858e-01 -7.418892280427019648e-01 -2.256643533329754647e-01
1.565661394457116273e-01 1.121187751114891690e-01 8.522314306637721049e-02
2.379032486113677458e-01 4.106929789599250702e-01 -3.417569793116678745e-01
3.166064602446566623e-01 3.727760605010321804e-01 -7.149175200410633202e-02
-1.766015335791091267e-01 -3.979508215373004365e-01 3.433822508518257766e-01
6.411125551385011834e-01 7.199962299606686988e-01 -1.013414019480101368e-02
3.870323743101436453e-01 2.847206391058232922e-01 2.835328419383872922e-01
5.206482277951542947e-01 6.354688782379569467e-01 -1.256915077411943360e-01
1.161121921123136891e-01 1.029258306534342610e-01 6.283048251857773631e-03
3.500288184808160730e-01 3.736107449588672025e-01 7.863809937799514510e-03
9.756070645396741625e-02 -4.153298602105546383e-02 2.633448202803018723e-01
-3.100650382639806302e-01 -5.828911090233295234e-01 4.062552530339476053e-01
-3.546596286642754725e-01 -4.921219531176057038e-01 1.082369262456554238e-01
-4.126545101788229863e-01 -6.182659597660669082e-01 2.312892865773769902e-01
-2.591151152905751820e-01 -2.778640968544457412e-01 -1.079543164407222172e-01
-7.615460338668397222e-01 -8.749940959076004665e-01 -7.846865168593984696e-02
6.103219417438204841e-01 8.937363361173819021e-01 -4.481570131828069292e-01
-5.426907351767938925e-01 -5.617094806346535352e-01 -2.025151711788048814e-01
2.281170849692924774e-01 8.407709278903165162e-02 3.174829427455496123e-01
-2.242310325281130778e-01 -3.998149084510668749e-01 2.317049576062766847e-01
-3.517808361913727366e-01 -3.525150369307842313e-01 -1.767095849987994349e-01
-2.870798104337312848e-02 -2.318941408597639808e-01 3.550119711989856430e-01
2.258971002611174228e-01 7.126869396643460697e-02 3.388796867923013489e-01
-6.571332176419975024e-03 -9.005497774907139652e-02 1.121277292136217546e-01
-6.052672265059333423e-01 -7.626871808677455622e-01 6.590443745725012292e-02
6.314864745264928692e-01 7.297428435855336515e-01 -5.387343595552610692e-02
7.095871676909314418e-01 8.144088883284101854e-01 -4.140349917346998476e-02
2.684490309798586716e-01 2.188611408802644542e-01 1.335034223110607987e-01
-4.646870251359583315e-01 -7.235828392089801442e-01 3.252580096785549491e-01
1.050893417749819564e-01 -5.773400060195108680e-02 3.154913621528245282e-01
1.612652284096891542e-01 2.643290576583500751e-01 -2.216612316292114193e-01
4.011386089623469320e-01 6.058493813485044122e-01 -3.537500512340984171e-01
-3.010005712964990421e-01 -5.919388783356126504e-01 4.471704126575093419e-01
-4.292411465594811459e-01 -4.698664771683382368e-01 -1.192771671480867823e-01
-8.416920211168867072e-02 -7.302380887604745241e-02 -1.117811392644229018e-01
1.134086722174225403e-01 6.019817436986056591e-02 8.907063391857257539e-02
-5.634362461328114302e-02 -2.187614773547554847e-01 2.604910294728181586e-01
-6.476595951377555060e-01 -6.582814447828176929e-01 -2.552855461535880055e-01
-3.937982035708306183e-01 -3.513398860816920322e-01 -2.811241197072677500e-01
5.876350629755592303e-01 8.984815757305233408e-01 -5.131305942859873959e-01
-6.503599576474939914e-01 -8.192834498358786410e-01 7.483320714592718581e-02
1.611393418326529658e-01 3.325296885008648395e-01 -3.645810495236849191e-01
-1.368620302287158752e-01 -2.837285487595271327e-01 2.009618706442379277e-01
-5.773077312184724530e-01 -8.753708020764111586e-01 3.693822416518720564e-01
8.051096530310940524e-01 8.206580693692610007e-01 1.773187738438146699e-01
6.480919061432944828e-01 9.591298240163448341e-01 -4.932506966219842304e-01
-2.482278389029082474e-02 1.181343151217326276e-01 -3.675049595690249582e-01
-3.361249133062994138e-02 -2.280580131319476789e-01 3.350892122983784027e-01
-7.054536270100284501e-01 -8.881768418725587422e-01 8.520873159821720777e-02
3.839116886873842338e-01 6.123151336677861156e-01 -4.090725430011064589e-01
4.047631555387317115e-01 5.182064350078605663e-01 -1.616847369652401611e-01
3.159757582266650017e-02 -9.303993007233307688e-02 2.109882669738644689e-01
7.070012789949302601e-01 8.444171248969460919e-01 -1.104285107034670838e-01
2.481345256899530061e-01 2.733984743485332602e-01 -2.983373359824034038e-02
2.864336129372612172e-01 5.068594314022092373e-01 -4.250893814189962150e-01
1.163641920384325124e-01 2.613880182058765378e-01 -3.244657627118204823e-01
-2.705309994361579373e-01 -4.883604686171905684e-01 3.045134782246169403e-01
-6.771859809366558292e-01 -9.130849441409941702e-01 2.058868795321700251e-01
5.899606726493630271e-01 8.868125686389203288e-01 -4.830863275501211529e-01
-5.452803458486759070e-01 -5.357878480848338176e-01 -2.630037160688096232e-01
4.857254551876977744e-01 6.697548494462213231e-01 -2.821287054400918315e-01
5.438837239985570143e-02 2.024990696699315029e-01 -3.517104022735936253e-01
9.148739474400033322e-02 -3.194914238066485015e-03 1.684388884306586842e-01
2.538603672701023051e-01 4.314809908567573404e-01 -3.465060725505946237e-01
1.667118940436256858e-01 1.201205269160615652e-02 3.191754881648503628e-01
-6.255736455173011024e-01 -8.433134369347184967e-01 1.852275029397119355e-01
-6.699731178909426044e-01 -6.927792520714292079e-01 -2.372920203296687014e-01
-3.139268433894835120e-01 -5.904476352374694592e-01 4.126858488395945268e-01
1.565563510761600607e-01 2.313204263668842409e-01 -1.640631973199792593e-01
-1.263744383441500752e-01 -1.137755587917677752e-01 -1.289781992033179892e-01
7.137023685579118037e-01 7.086791280530957415e-01 1.896737504608562164e-01
-5.797673217752845609e-01 -5.868838951668686743e-01 -2.398410824738518021e-01
-4.021116280031513113e-01 -3.861652750887040741e-01 -2.284736711864367442e-01
1.295004119445811452e-01 2.190106056146411961e-01 -2.039746760173791473e-01
6.603885186508305916e-01 6.927320960629890223e-01 9.365195263342067367e-02
-7.337280368066425584e-01 -8.890814434696988622e-01 1.849111957065449965e-02
4.379726470088423085e-01 3.370806191509608807e-01 2.976519193197288415e-01
-3.440159462353551412e-01 -4.184985047092437682e-01 -1.988966546192975915e-02
-4.488632235802952897e-01 -5.958586861494841180e-01 9.657123734871728149e-02
-4.201980063941776478e-01 -6.537542855434875788e-01 2.871942703668130537e-01
-5.182878987935416459e-01 -6.510515294786632934e-01 4.352266294981466804e-02
-4.893236038409680688e-01 -4.606030303932386327e-01 -2.844409539584811242e-01
-2.140585413386864033e-01 -3.184710597458542680e-01 8.629086747465179730e-02
6.128537901862819437e-01 8.586832793780058148e-01 -3.687139088299394851e-01
-6.176325719496353894e-01 -6.592250765058607076e-01 -1.804502919260905780e-01
-7.515772445987941586e-01 -8.908699899150508417e-01 -2.108081777116287484e-02
2.780069383762918123e-01 4.393478228514868245e-01 -3.043635818830965900e-01
-1.975540389400514546e-02 1.253711860679385948e-01 -3.703417383990633138e-01
-5.304953314374455386e-01 -5.745079003355969549e-01 -1.461596563491148193e-01
-6.337349843345234657e-01 -7.883483819229213374e-01 5.048618541181038033e-02
4.722788536923313019e-01 3.855291401452888289e-01 2.795868825488070919e-01
2.198584377942440493e-01 1.539435851790873500e-01 1.513451041367548933e-01
-5.820845159226649690e-01 -7.128471157897467991e-01 1.793784073545709803e-02
-1.739506643473986147e-01 -6.319614548303041646e-02 -3.501908331980094213e-01
-1.828196605093570792e-01 -1.730167762886777594e-01 -1.420659465096224261e-01
6.860606444268935178e-01 7.745863562354875498e-01 -1.521884509765520678e-02
6.266172533541449763e-01 6.159444901670579897e-01 1.722749147048509566e-01
1.457036265549453424e-01 2.110699168259676239e-01 -1.480520157750749577e-01
2.484425104516105598e-01 1.601799252829245457e-01 2.076649290068363074e-01
-3.740406855530368779e-01 -6.195654443336624517e-01 3.277049542342145849e-01
7.059766435788233929e-01 9.361248380542247505e-01 -3.046848490611706595e-01
-4.040876227582283486e-01 -7.269287795053426260e-01 4.793020902309498843e-01
-6.428839002664711311e-01 -8.828886400008706392e-01 2.259790438263630241e-01
4.936552450413862481e-01 4.484577546071553122e-01 1.998676974173178300e-01
-3.954336714366673000e-01 -6.766219465862718385e-01 3.951046973199571211e-01
-6.620238191958119911e-01 -7.812276986822545011e-01 -3.304810390115240498e-02
-6.454587695382464352e-01 -7.745785989177956798e-01 -6.756142134935497374e-03
4.453113185379071193e-01 6.922303757329274498e-01 -4.271941409935731127e-01
-5.714003869785738710e-01 -7.815908353805280928e-01 1.876133979630162651e-01
8.634802719003431548e-01 8.872924981112837450e-01 1.796186444931974213e-01
2.248812727310747217e-01 8.674929515449149309e-02 3.040432449432687867e-01
-3.313613703921217124e-01 -3.439190116931786223e-01 -1.451359119266601161e-01
5.734118678210260445e-01 7.559052690392038532e-01 -2.495025326253381137e-01
3.705484718584001746e-01 3.607374547926466279e-01 8.457508125175555724e-02
-3.857646165756991041e-01 -5.966194795777246540e-01 2.512739579989342609e-01
-1.912836663914675370e-02 -1.214635713330182096e-02 -8.125724967395295262e-02
-9.328036174535098146e-02 1.026499857759463792e-02 -3.080550454105712710e-01
-6.746242929377265218e-01 -8.543604325465707916e-01 8.930410568202636068e-02
7.543908483756094352e-01 8.823339900350306575e-01 -7.472338740482972752e-02
-1.231290168086734138e-01 -7.309749014670348377e-02 -2.061649413205633719e-01
1.961439826204992021e-01 5.204151410505448300e-02 3.068882643654805564e-01
-4.163976771690447443e-01 -6.126859150157960565e-01 2.105378783121399922e-01
-8.984986679633998052e-02 -2.964579627506446213e-01 3.416576410035646605e-01
3.126007511437938757e-01 5.175471262158264363e-01 -3.839425934448394973e-01
5.130100685563848684e-02 2.146145273872047676e-01 -3.845366794780130659e-01
5.010458137225056729e-01 4.117550465441067176e-01 2.945503078076114334e-01
-2.329576616606936768e-01 -4.977015414121527814e-01 4.152201203415884501e-01
-4.143327805915070772e-01 -6.276814650102701121e-01 2.469056463915898503e-01
6.876128395340753707e-01 8.387326606296499065e-01 -1.455887139620302972e-01
-5.483432926699126631e-01 -6.935778594613269954e-01 5.951860844634381670e-02
7.876309676212127353e-02 2.480556749713779541e-01 -3.878273765425089836e-01
-4.228080317154756518e-01 -4.807478844857610567e-01 -8.091279020310503112e-02
-2.274714982045824840e-01 -5.011060562875395696e-01 4.356517431308550292e-01
8.610422391272618547e-01 9.163394020475623680e-01 1.129626553122749788e-01
-8.392840877456180237e-01 -9.083326068846350188e-01 -1.973896392098815344e-01
-4.794881122289909037e-01 -4.838846644534161578e-01 -2.118904292741892181e-01
5.759563221736435645e-01 7.954595281645514548e-01 -3.260402073230097009e-01
-2.031565920686549676e-01 -4.618765280824240205e-01 4.126201687775768456e-01
5.579540931791857616e-01 4.911980850821919264e-01 2.665176554500052197e-01
4.178792029728620738e-01 5.897030233764553042e-01 -2.793645379591068179e-01
-1.746984347934200932e-01 -1.150293661368774201e-01 -2.436168799492797188e-01
-4.065011657179725887e-03 -5.580625838248749748e-02 4.659193580179901706e-02
-2.556885805363968145e-01 -3.690124310441837974e-01 9.096062953979508481e-02
-8.512589570609090453e-03 -2.765081040529075024e-02 -2.307618830144043606e-02
4.188369480905129727e-01 5.461384466258315529e-01 -1.859426309471958472e-01
6.727290762049256134e-01 9.365348511404417708e-01 -3.862190597077929666e-01
8.379960024450083811e-01 9.177216530562993801e-01 5.414942073685586471e-02
4.846351960723655483e-01 6.854499748374390800e-01 -3.175943507242526831e-01
-7.259336693175325594e-01 -7.558322901187036758e-01 -2.412327921704769951e-01
-3.419158302038571851e-01 -6.276573064085840814e-01 4.225783652048623606e-01
-2.628812322158184389e-01 -3.973026936929088260e-01 1.326650838411362332e-01
-5.284493890179986497e-01 -8.059743185511979435e-01 3.428243792213395147e-01
-6.952945387185954784e-01 -9.130455324368287329e-01 1.618631733571964937e-01
-1.665483150813888980e-01 -1.791086272185350436e-01 -8.984406862608036726e-02
-4.367429674421798302e-01 -7.519375168068686000e-01 4.523580888592207971e-01
-1.456930172000673041e-01 -3.797675210024876735e-01 3.803601604624734511e-01
-3.297624664910472903e-01 -2.915096538736987042e-01 -2.508493091329532243e-01
-4.383433010940488428e-01 -6.004122861501887121e-01 1.316203722366494078e-01
2.211447179029545629e-01 1.063449470938471614e-01 2.539998433947585066e-01
-1.926484098911658838e-01 -3.462145537060751233e-01 1.962580120326611610e-01
1.831768103987778673e-01 2.317978453747791268e-01 -1.004656946413566010e-01
8.089356970369426802e-01 8.584548732588902498e-01 1.075659533718539562e-01
1.063548896594990328e-01 2.111599158454533220e-01 -2.437218282551254500e-01
-2.382360004068399262e-01 -3.605676500953535202e-01 1.156512778164586613e-01
-6.553412277653788420e-01 -8.765369767548142343e-01 1.824687715713263214e-01
5.502226457343906141e-01 6.521865186712721973e-01 -8.888601056900671815e-02
6.607998795599595576e-01 7.192648347184368296e-01 3.916752654830235603e-02
4.060150148099907486e-01 4.995016053186165372e-01 -1.195333680285246558e-01
-4.818057018520268131e-01 -7.014378966001231230e-01 2.374114192963740488e-01
1.767867343024869808e-01 7.827844617974877295e-02 2.050529118856529165e-01
2.329866395713125760e-01 3.981600571152826284e-01 -3.274797747332459652e-01
3.816193173903736358e-01 4.753431329087631774e-01 -1.282129243697602006e-01
2.836091413061662125e-01 2.077016956729778319e-01 1.936256814616511557e-01
-3.768814004551835906e-01 -3.599678406429973609e-01 -2.220327608552672416e-01
4.518210972475502629e-01 5.839535679894868325e-01 -1.849802009761956079e-01
-4.283110380815792761e-01 -5.480815814547586040e-01 4.653540085306348550e-02
1.869255570709330572e-01 3.071188827455976003e-02 3.291216917185561530e-01
7.704486011176948645e-01 7.516738451668464327e-01 2.374649731287669652e-01
1.251422357156999413e-02 -1.874059095379415618e-01 3.620103005612260172e-01
-3.272173977867806616e-01 -6.196006221814188697e-01 4.413974897941542741e-01
5.833730062609738809e-01 5.777278732702516573e-01 1.472554276135286944e-01
-1.296804255191191281e-02 -5.462687082989496623e-02 2.252208274661934850e-02
-6.331761506030464393e-01 -9.442981664861713753e-01 3.779488372925838835e-01
-5.257999218142456188e-01 -6.700186227491283786e-01 6.495646652746675520e-02
-3.501508298101730920e-01 -3.273332257398435252e-01 -2.254119842370514992e-01
-5.928479384898932558e-01 -6.711171761216635501e-01 -9.544160760086979611e-02
7.612724843417203457e-01 8.844758683294093871e-01 -6.250364647322667611e-02
1.154452652484127817e-01 1.094571393788504321e-02 1.970043519402141508e-01
6.757944230641378391e-01 8.540487223501951330e-01 -2.062940924815098442e-01
1.592083272363874202e-01 1.896170786674324926e-01 -7.042217295183146597e-02
-3.379566317185591640e-01 -3.643253815611462443e-01 -1.184678702240560821e-01
3.802604947875059538e-01 2.903329196566173942e-01 2.553647077627662076e-01
7.284597815736479909e-01 9.033137336537947482e-01 -1.815171213061555489e-01
-5.362839565563574107e-01 -6.933957692086926139e-01 8.840040254194839187e-02
-2.863872501467193410e-01 -3.843264739283354658e-01 4.849201822892874880e-02
-1.650787389269038619e-01 -3.605152094401253282e-01 2.930612567385016964e-01
5.812480850561679846e-01 6.335141307475481431e-01 2.544455315016310240e-02
-8.821821983467961759e-02 -3.128489608434023572e-01 3.798921296099006528e-01
-6.714187595233662709e-01 -7.976892255689752576e-01 -2.142268053856747831e-02
5.178357354722516737e-02 1.166349942480315698e-02 4.102521291832689904e-02
5.989823108716538780e-01 7.288682554123298019e-01 -1.309175116183738108e-01
-7.264957483904851965e-02 -1.583944930164933040e-01 9.469044284685662616e-02
-1.443551213524544297e-01 -7.451990498609116498e-02 -2.546967000034809359e-01
2.868400706162405611e-01 4.660644151292309134e-01 -3.387966283476100404e-01
5.138965902650983741e-01 5.740751396453788180e-01 -1.369422840165337302e-02
6.548821230943044913e-01 8.235098360728397848e-01 -1.931789319615129785e-01
-9.591209195411883048e-02 -1.405968522098124673e-01 1.026169587835764176e-03
-9.999875975006169981e-02 -1.064387795019635374e-01 -8.031827799291051118e-02
7.504401245412480048e-02 -6.989988413573137993e-02 2.680249962652559437e-01
-2.686010410012689698e-01 -3.526018260717466157e-01 2.531170075180403170e-02
4.589260020559332021e-01 6.327538026733532384e-01 -2.697859824977191234e-01
3.602823781241005219e-01 3.254675392877101614e-01 1.334168325719376214e-01
1.735882853240436896e-01 2.229009198001518921e-01 -1.051283528289871094e-01
6.400763322860427706e-01 8.716079905960472107e-01 -3.296839574955374719e-01
5.972751396875676244e-01 7.581131389281107191e-01 -1.962140248864409353e-01
6.828774765777279043e-01 6.692698876516770534e-01 1.972843251174507262e-01
3.753707849755420489e-01 3.432178606438939794e-01 1.329118831500818998e-01
7.327862835457714663e-01 7.961703325946627441e-01 5.302892511872681763e-02
-6.856190586338337667e-01 -9.420247872578122461e-01 2.459397178357072833e-01
2.018582486163095491e-01 3.134941184454189678e-01 -2.259693674043482259e-01
5.826517158770667670e-01 8.042089871770696785e-01 -3.280895051590377309e-01
8.045913203928477253e-02 1.126998472153827383e-02 1.114307228453051413e-01
-5.419992058918634559e-01 -5.252620186028350568e-01 -2.770524344740503131e-01
3.017544316811127669e-01 5.359623573397055418e-01 -4.487698050450569243e-01
5.888600982141705131e-01 6.410538655219483184e-01 2.814913131905193502e-02
1.379188119437546878e-01 1.984470261745632513e-01 -1.405465171228470478e-01
1.906356321426802003e-01 1.710472329879673681e-01 4.466911096799687508e-02
-5.519249138516945097e-01 -8.973686186604222792e-01 4.769745142599894350e-01
4.103777215043435955e-01 3.148877352993528778e-01 2.770990386199612132e-01
-6.832061982496027142e-01 -9.485792036167686181e-01 2.655005812996782399e-01
-1.361568889666484039e-01 -2.507913758348102040e-01 1.337980034787856209e-01
7.868847240155171230e-01 8.121738750430506082e-01 1.508364009131968608e-01
-1.518385215761706986e-01 -3.961353266823607888e-01 3.996745170856614848e-01
-3.304468659655981910e-02 -8.386540476787631836e-05 -1.402497519624815725e-01
-4.169050234474011019e-01 -4.124041096790779792e-01 -2.095025311719304617e-01
-2.106907259532810328e-01 -3.881000811159828201e-01 2.400642902292832448e-01
-1.023425864914395689e-01 -3.154589070696535713e-01 3.510763288451870245e-01
-1.603623699645302381e-01 -2.699381102073287186e-01 1.150999704347389491e-01
7.076828941998171141e-01 7.665011603631771697e-01 5.415554516190504430e-02
-3.361837566188503601e-01 -4.423083869732021278e-01 4.890436980908793169e-02
6.096569125492889984e-01 6.089857194877822399e-01 1.456713127181918643e-01
-1.380174315049780831e-01 -1.976147253808694937e-01 1.808560623775100351e-02
1.893941406727787935e-01 1.970472188139696101e-01 -1.271200194244731345e-02
6.880862548052578687e-01 8.316008299594818132e-01 -1.295265768402564799e-01
-4.096608228131343871e-02 8.658627928413098473e-02 -3.407073530050509502e-01
-1.377380335606330497e-01 -3.076051166159969874e-01 2.487645002874113720e-01
5.622184516458649250e-01 6.067079583506480578e-01 3.532261676341186957e-02
-6.680593153786529292e-01 -9.208743501133093146e-01 2.443216033038002055e-01
-3.068778734586010692e-01 -5.657863212080463944e-01 3.782212387472124182e-01
-3.006510844727509069e-01 -4.694069614393953094e-01 1.917919520110252518e-01
-1.520252264298865841e-01 -8.215921145532176229e-02 -2.573340266439345103e-01
6.188275462216719092e-01 8.051469581483489124e-01 -2.422684922522367057e-01
5.028777510092619085e-01 7.293815068069925411e-01 -3.651931399953644020e-01
4.181259439045320048e-01 4.264686721110069745e-01 6.257356400779842676e-02
1.716150055316924827e-01 1.634276407777385254e-01 1.444796969376935768e-02
-1.515984223302120348e-01 -1.011948900313713040e-01 -2.164928558837302675e-01
5.253830572674829114e-01 6.046713411666534421e-01 -4.980148097218239228e-02
6.913789351311475651e-01 9.151862359365603439e-01 -2.963221818860296009e-01
-3.302382133171642420e-01 -4.724172158407439759e-01 1.262920944988148997e-01
-4.987263551636010595e-02 5.025756631251678680e-02 -2.863525593082078546e-01
3.955649947839838532e-02 1.970859155504552096e-03 3.162390692763417110e-02
5.020831563991936530e-01 7.542617063114331888e-01 -4.191482507121139234e-01
4.454435647971431989e-01 3.954887942393099931e-01 1.936431205893361929e-01
-3.214842639259208323e-01 -2.799754974288168330e-01 -2.548809257821338936e-01
-1.361766680450791911e-01 -1.170519781239107993e-01 -1.459124633491406531e-01
2.458467027010136086e-01 2.338129121682549494e-01 4.739212735286928851e-02
-3.633975958940989237e-01 -6.343015955914783621e-01 3.843456944882323034e-01
-1.479204799069733511e-01 -2.060451581818142641e-01 1.168425886621370785e-02
5.002260990996888063e-02 -1.560247011435535527e-02 9.376802182607213432e-02
-4.600458499762216102e-01 -6.272999996154887681e-01 1.351829875616089305e-01
-9.164938414761412966e-02 -4.281077801989732062e-02 -1.931106359487781143e-01
-7.051223911835440283e-01 -9.374913658470809263e-01 1.891340988639850784e-01
-7.723063980558281250e-01 -8.643934474482891650e-01 -1.267462138266089444e-01
-1.473982589866017039e-02 1.265873208537421635e-01 -3.607142551252935370e-01
-3.430739470799570867e-01 -3.457903718296923556e-01 -1.696438450103656959e-01
7.646955700757502861e-01 7.872203267858813858e-01 1.491737123841909152e-01
-6.485440385140217590e-01 -7.630472198949309615e-01 -3.835596488071101040e-02
-1.652386363414824755e-01 -2.451740698019372056e-01 5.148338582995504176e-02
-4.215618789222591034e-01 -4.163276513964767056e-01 -2.125980978922292486e-01
4.248123881090111187e-01 4.624001052824754932e-01 3.662320082392366959e-03
-8.039591179519522957e-01 -8.882926933087105237e-01 -1.535773552957985233e-01
5.259112027586225757e-01 6.470869824878957566e-01 -1.372152634426763995e-01
-4.585357855783438880e-02 -1.968394789997880145e-01 2.401045405918967035e-01
7.460576120117025090e-01 7.674062171010508360e-01 1.453810919457838580e-01
6.681859610538977423e-02 -6.919095350751414131e-02 2.465831802547764628e-01
4.308824203753109927e-01 4.312879418576913149e-01 8.345019629612669687e-02
3.378307241480935641e-01 5.007811004817926959e-01 -2.876614036100844651e-01
-2.028467607551853735e-01 -4.211184159492826762e-01 3.281426958838959962e-01
-7.399631954966187086e-01 -8.293959457146778957e-01 -1.214471470381285750e-01
6.143639214972300699e-01 8.636299606109156812e-01 -3.753935078457016350e-01
6.603944665079971577e-01 7.156358330405043766e-01 4.577237802621336032e-02
7.440814450746470188e-01 8.259100949569710970e-01 1.824836058949358408e-02
4.875286888386663464e-01 4.846515787808491904e-01 1.093164016821735196e-01
5.088559876901762591e-01 5.459348629132440012e-01 3.291864169392626910e-02
5.597455376143638528e-01 5.003794395798712991e-01 2.516655505382573987e-01
3.410857260423592052e-01 4.266397131266569942e-01 -1.247259191568850650e-01
6.102993674846959316e-01 6.732861337852183992e-01 1.277165603454834958e-02
4.180336281050590630e-01 3.579163013817024397e-01 2.056994265923211829e-01
3.339978813189536377e-01 3.410454817356990964e-01 3.706119078353822122e-02
5.414407421676642462e-01 7.426630899673325459e-01 -2.993912948298086407e-01
-3.019917898889580843e-01 -3.201809376077181524e-01 -1.235078924347444013e-01
2.928294250505055762e-01 4.219429889332356187e-01 -2.320008497283039539e-01
-6.078769112867431490e-01 -9.120158611612674271e-01 3.718331337350951338e-01
-4.121197041126941074e-01 -4.438049758488751828e-01 -1.322283667506331251e-01
7.140485513055798705e-01 9.556112365207680703e-01 -3.258459844504814629e-01
1.296816745745722477e-01 1.336100085423146989e-02 2.264990817760761943e-01
-2.185556383519606238e-01 -3.472002716638051267e-01 1.354541025781492436e-01
5.971260505231091864e-01 6.891475317337034667e-01 -5.236180679538840477e-02
-1.121868304336358230e-01 -2.785644476885850707e-01 2.500387854099205831e-01
3.065766071038760754e-01 5.343422624691271938e-01 -4.336807822759699560e-01
7.452849449157454842e-01 7.559634327082562777e-01 1.674341857525195321e-01
2.792133410162746521e-01 4.343546343884648886e-01 -2.909949304137388060e-01
-9.182321265392923149e-02 -1.496839891031136738e-01 2.995014635027918107e-02
7.208217589219901855e-01 7.464242146645463372e-01 1.280205404128275104e-01
6.644346198815788418e-02 4.096953294788898553e-03 9.242054771359450860e-02
5.873874296643045723e-01 5.780460812495687994e-01 1.563312156511443840e-01
8.502889675797117852e-02 -1.897473239308191534e-02 1.857642101131559975e-01
-1.889969162559992921e-01 -2.287139374854423868e-01 -4.058701569130242215e-02
-4.441116036152572000e-01 -5.593601713767497596e-01 3.177922430334555182e-02
-2.511514933484568779e-01 -4.151583735292232458e-01 1.984658776357764443e-01
7.998084492888705155e-01 8.377539617620206602e-01 1.287059234507296757e-01
-4.332766848051489705e-01 -3.895535562813389752e-01 -2.970119554256642203e-01
4.476461246303698460e-01 4.033015634672202365e-01 1.826504559344985790e-01
-1.956686935842539277e-01 -4.337622811754185959e-01 3.720002116860776642e-01
5.188300435089300278e-01 5.578501831353975815e-01 3.220504346127958661e-02
2.214531567804532697e-01 3.259646853323259763e-01 -2.044985779090226496e-01
7.936556078830807326e-02 9.456759384171785354e-02 -6.540652200879316924e-02
2.995954761358136653e-01 3.653314375884540444e-01 -9.720227675205718454e-02
6.127195681302314290e-01 6.521674279326006296e-01 6.280571865124243147e-02
4.314526176136368463e-01 6.865426719097469377e-01 -4.489293916827000186e-01
3.565617129488014014e-01 2.775769286120994828e-01 2.245325205612712094e-01
-2.649632170838851497e-01 -4.422482785569223362e-01 2.215987650907850492e-01
7.203287137156538789e-01 8.727417777722373815e-01 -1.373185302886867631e-01
4.911178246910803402e-01 5.832911456461576938e-01 -8.823959746285908734e-02
3.677456850681143363e-01 6.052930224109203117e-01 -4.336161958515488690e-01
-5.112959942837141947e-02 -8.775637556876156320e-02 -8.016713019255557399e-04
-9.171299801023707898e-02 -2.319272022977876546e-01 2.021963813214024130e-01
4.861089041020513202e-01 6.744536189895820044e-01 -2.910238456839548959e-01
-3.431710081146841507e-01 -3.593772413985993897e-01 -1.414678635897369252e-01
-3.129845886990398340e-01 -5.393204416240544585e-01 3.080601942637676283e-01
9.358569882425500641e-02 7.915290491185514310e-02 1.332989562936227066e-03
-4.743725323072359168e-01 -7.405489044920229302e-01 3.372333988304261343e-01
7.089438892286406002e-01 7.313199969125986355e-01 1.307827461266178048e-01
-7.492538551592436979e-01 -8.747260920776441795e-01 -4.920150765331961912e-02
3.004655701539212798e-01 2.768479725631592947e-01 8.993683373194555353e-02
4.830965443222632327e-01 6.394184597565968353e-01 -2.250714565356855823e-01
-3.758098186152242226e-01 -5.887547957432880397e-01 2.589839159174670558e-01
-1.410236515879894348e-01 -3.574200890299446959e-02 -3.277011908349364289e-01
6.378612061622790375e-01 8.730346056401870891e-01 -3.380422632053965426e-01
6.458298526180601407e-01 8.727334270155774343e-01 -3.180761620418596225e-01
7.695646626720161754e-01 8.647285433285464284e-01 -1.088640334381063080e-03
7.909204308726135169e-02 1.065942781694524943e-01 -9.121922711625352065e-02
-6.643515818668407347e-01 -6.970061700918019909e-01 -2.148121821254537767e-01
-3.799855992345753664e-01 -3.603722100423801256e-01 -2.287196726090480470e-01
3.738260710150070887e-01 3.626078942565850727e-01 8.861705811512292363e-02
4.563043606480814418e-01 4.711568115801886281e-01 6.176796675334767645e-02
-2.879555453899933226e-02 -1.478035672144972605e-02 -9.920719236030324517e-02
-4.886084555807282959e-01 -7.154266837084088948e-01 2.501561624942640893e-01
-1.337449391545721677e-01 -9.083694766290625888e-02 -1.948300090454923861e-01
-1.787435905322835861e-01 -2.806079051050750506e-01 9.280865812364559597e-02
-2.501133205478394128e-01 -2.598370177728511199e-01 -1.238074530009240365e-01
1.681467706582386867e-01 2.874425137942931974e-01 -2.532953872581300003e-01
-3.836100500403144542e-01 -4.846391012038543944e-01 2.233993425831101373e-02
7.769185370688690417e-01 8.748315570408675690e-01 -4.370521289909675734e-03
-5.343679234495827268e-01 -8.629026158348021003e-01 4.475055386703012950e-01
5.920206161500974895e-01 7.499888034139562398e-01 -1.919755816480271660e-01
6.652343475303331699e-01 7.700973172848740722e-01 -5.636783308654104430e-02
-6.003173230731042587e-01 -8.985358093803256230e-01 3.619887025733508623e-01
