4.365478314727112563e-01 -4.673057577845596972e-02 -4.597603407964896693e-02
-5.281044351903345646e-01 1.126609170760972112e-01 -5.570142764568670746e-01
-2.144509713235696335e-01 -2.706621274870022464e-01 3.027374773477337078e-01
-3.805712631752264374e-01 1.033057294164128198e-01 -5.102869411130829258e-01
-4.860896759788494448e-01 -3.050346539226109210e-01 3.246595976255232663e-01
-2.410162893535966466e-02 -9.168817882983934520e-02 -3.669436638535841094e-02
-3.750042364036730302e-01 -2.669501037574429914e-01 2.654209333789186998e-01
2.942419834334705220e-01 -2.059566009155583133e-01 2.609798189476333907e-01
3.104482767927997933e-01 -3.739403223813910632e-02 -8.871949272750041804e-02
-1.981987388156824723e-02 2.394511766939654562e-01 -7.287464805527577028e-01
6.156144805734100611e-01 1.951537417300995211e-02 -1.516245905832100671e-01
-3.976121243698483299e-01 -7.733930485159254756e-03 -2.810959450163366680e-01
-3.449966207648640926e-01 2.488443641411471896e-01 -8.082487094092731805e-01
1.600773751911671039e-01 -2.591523461506019532e-01 3.475877811296470554e-01
6.308005775575292740e-02 -3.937042551372927357e-01 6.112572393659888581e-01
-2.558175466134071652e-01 -2.797578315353443368e-01 3.141548063361441212e-01
-5.815694263644628206e-04 -2.431125246538885787e-01 2.844584360493228603e-01
-2.820990697928895674e-01 -3.194833145173295308e-02 -2.091721171207461261e-01
-6.301650112239259860e-01 -2.951464353295654153e-01 2.774534225557619416e-01
2.434699657336851786e-01 -1.206643758237336689e-01 7.317897720714604259e-02
4.367880401544551039e-01 1.590605436350205348e-01 -4.765069045752401422e-01
-6.265628727870153902e-02 -3.408644700084658696e-01 4.775591520035056825e-01
2.548940333660349444e-01 6.265225341973285067e-02 -3.082703060628154135e-01
2.967553090459660314e-01 -4.340249805621095858e-01 7.386280087025501873e-01
1.192595791341370809e-01 -3.369905150739829214e-01 5.029354119005772228e-01
4.042730187526214491e-01 -7.598367776331797774e-02 9.289797586572817040e-03
-4.613763678587926576e-01 -2.640799239287669464e-01 2.435188464761415261e-01
5.635065358331639018e-01 -2.383454025934055587e-01 3.783049171908301478e-01
8.128985184480010950e-01 1.859827989067153534e-02 -1.133955380020240794e-01
-6.202934224321755563e-01 -3.821832870915348179e-01 4.613767885004003699e-01
3.594554665970803309e-01 -4.156169015403218259e-01 7.116529297478654259e-01
-3.603145348504445122e-01 8.599322267813376552e-02 -4.703358636809161220e-01
1.928015627279243416e-01 -8.118116967238986348e-02 -1.875695741961173196e-02
5.648408521120928949e-01 1.780852509307150056e-01 -4.927439618215804784e-01
5.685474138931320143e-01 8.677934985188130723e-03 -1.376122215948761551e-01
-1.417155904198061367e-01 -2.294984994029663217e-01 2.299981364185127997e-01
-2.127231920259698428e-01 -2.139695553879663592e-01 1.844380696706871547e-01
5.243080103275892245e-01 -8.529329207368524512e-02 5.086072661962241781e-02
-7.148573015736472414e-01 -1.414058413059935959e-01 -5.980442611384790413e-02
1.594715109362853656e-01 1.941605145172806135e-01 -6.009865303094439337e-01
-3.283676065499183117e-01 -1.284593556017935186e-02 -2.576556511009436279e-01
-8.602491951825415317e-02 -1.194555968910030463e-01 1.000616406607984787e-02
-7.240366101261758169e-01 -2.214649339974098519e-01 1.060131044508173942e-01
4.495799800943634655e-02 5.565726585719044800e-02 -3.322735806457847163e-01
-3.443699896962810758e-01 -4.020570572058595332e-02 -2.033562735474308547e-01
1.408403365337072832e-01 -9.122986995832405022e-02 -7.295632856934876169e-03
-9.228422370120098472e-02 4.809432376799738923e-02 -3.417091966368017708e-01
-2.406847330696018361e-01 -1.257320582916498786e-01 -5.326861278849342497e-03
1.426818550320415324e-01 -7.824444694750069818e-02 -3.412599515199939842e-02
4.576189214209110123e-02 -3.343377432131212634e-01 4.838577537182955912e-01
7.243298390708933221e-01 7.369180918569527561e-02 -2.449683888565959977e-01
6.010313520294804368e-01 1.861092958103553463e-01 -5.028717262748948480e-01
-4.697108984252451602e-01 -2.184772771558586846e-01 1.465708260724338519e-01
1.665046738261983239e-01 2.368957056864211819e-01 -6.891065652367720507e-01
-1.625898644935548087e-01 7.980369406117190922e-02 -4.209942411116216476e-01
-3.593298589554649869e-01 -3.896443532393703002e-01 5.250179878953123991e-01
7.342382388224630296e-02 1.424056960942525762e-01 -5.085374646600744342e-01
5.517552108376349018e-01 1.881893710690685506e-01 -5.162931486715656160e-01
-3.374691605735291589e-01 3.555158031041658756e-02 -3.605925243694859117e-01
-4.669841607184277432e-01 6.749025038674226658e-03 -3.241664719877645484e-01
-4.919204136770922720e-01 -3.993296430396012786e-01 5.208790842985443481e-01
-1.045871989435963045e-01 2.490007298119758516e-01 -7.643284003199196652e-01
1.704718803229912649e-01 8.356273247218029554e-02 -3.675590694407298020e-01
4.958835798916763071e-01 -1.169001254440209525e-01 1.117599160133364161e-01
-4.604133701104828891e-01 -6.367771392485802040e-02 -1.756038231244531345e-01
-6.686187929753598658e-01 -1.941825296584870908e-01 5.913002868737046724e-02
3.289278201806836721e-01 1.847638446225180822e-02 -2.022155409915699087e-01
6.550197032468786651e-02 -3.876061307862826433e-01 5.989439377068899173e-01
1.836017881072150859e-01 -3.019512752262314415e-01 4.414653111364559845e-01
4.137763369494316112e-01 -4.774988871800443790e-02 -4.803443863628128335e-02
-2.724123885892235086e-01 -1.416076520093210445e-01 2.205002347753437855e-02
3.379056350188212599e-01 -4.308748397879817449e-01 7.396107324769717328e-01
-5.784298897320510058e-01 -3.042984223616390094e-01 3.061239248150727787e-01
3.065750976194984712e-01 1.142440664416137924e-01 -4.067035105810300477e-01
-6.870027574627969313e-01 -5.344317573795557413e-02 -2.387213515169923639e-01
-7.332714023853578178e-01 -9.968085283928659890e-02 -1.504944034990376989e-01
1.668426472065383526e-01 -2.618230809296757666e-01 3.544208893537040828e-01
4.630444823183384462e-01 -6.845854787180040424e-02 4.361946301784852542e-03
-6.018281358916313106e-01 2.469718640043970168e-03 -3.400310137091077101e-01
2.734303777336142827e-01 1.027834837007718799e-01 -3.888249286790845805e-01
-5.502729507001632436e-01 -2.555840442829405978e-02 -2.718992433110766216e-01
4.018950595451123431e-01 -3.865851513039152143e-02 -6.924300037707553646e-02
9.340703174704695355e-01 1.638680496920191521e-01 -3.950405638583150969e-01
-1.535874479870612264e-01 2.474635675991795070e-01 -7.701307281668962057e-01
2.707681441912011822e-02 2.805100446735357411e-01 -8.060222567849389952e-01
-4.025012065554594010e-01 1.197195419377973385e-01 -5.486656440132430257e-01
-7.868764069455217447e-01 -3.814311243228694082e-01 4.291433646720682615e-01
-3.778388167735065029e-01 -3.997077529843217070e-01 5.426669743774965582e-01
-4.570833525130194031e-02 2.986350612360314308e-02 -2.949926904863877097e-01
-1.434368766930689265e-01 4.916259983825915086e-02 -3.533590127570965800e-01
7.728630144586005057e-01 -4.978154309925492821e-02 2.230645393839793267e-02
3.399326134031919744e-01 2.304314786885470756e-01 -6.436620186724273385e-01
3.877579024768064708e-01 1.064433153817190419e-01 -3.754403277968396679e-01
-7.618461654568348118e-02 -4.609587598624847460e-01 7.263415597333943152e-01
-2.635143735861756112e-02 -1.266540761214048627e-01 3.605041704664330160e-02
6.231144009505236170e-01 -4.006779209868853442e-02 -2.557885365029504907e-02
2.797752338306980224e-01 -2.755983680472217090e-01 4.040281080797226698e-01
-2.018616349269648225e-01 -2.440070227880560272e-01 2.492842926688879635e-01
-3.784182225429046087e-02 -1.172501425604303010e-01 1.425983257982290156e-02
3.376895761166485294e-02 -2.863018507001622304e-01 3.811453420551748628e-01
-5.356359203588643147e-01 -3.029459104216305002e-02 -2.592958060846740631e-01
-8.958130703687268159e-01 -2.639412393914611910e-01 1.632703903030371939e-01
-4.393515467957327392e-01 2.134731407770243949e-01 -7.516078574993260153e-01
6.062439455900939800e-01 -2.161690468289052119e-02 -6.728851049525168271e-02
-4.036393572173352373e-01 -1.817690400134840123e-01 8.192698032254715212e-02
8.169693988117111560e-01 1.236283855013065591e-01 -3.323999239784111714e-01
-3.284930826414365068e-01 -2.806794109292385930e-01 3.027070514242363730e-01
1.771766192543079987e-01 -3.548393840295164248e-01 5.509401144375072334e-01
4.091465024496127589e-01 1.857932092638217014e-01 -5.375268814166143105e-01
8.797085366025770847e-01 6.034398189776590815e-02 -1.884433133669189409e-01
4.177475751530136394e-01 -1.222356853447292557e-01 1.085424945841975547e-01
-7.232534854635044863e-02 -1.558431872596654499e-01 8.866103541103471930e-02
-5.371544110474542055e-01 -2.582174825440533006e-01 2.173059222487598585e-01
-5.572215632320226542e-02 2.647599863281469013e-01 -7.883077292178557460e-01
-4.811503959242102169e-01 1.444118194370117847e-01 -6.148045166538803619e-01
-3.182060451555113190e-02 -3.079286734219697785e-01 4.143231758802183307e-01
-1.412318562396730759e-01 -4.222349037557692752e-01 6.333479750855133261e-01
2.335969088880531785e-01 -1.613159504901182928e-01 1.564167944446726299e-01
-2.127861180438070932e-01 -1.072417786395564454e-01 -3.887916887057566578e-02
-6.697698938262931501e-01 -1.149959469247574390e-01 -1.067632733126226696e-01
-2.656884434466056932e-01 -3.759083894208540833e-01 5.135130911468149817e-01
-1.149139108251437252e-01 -3.864648477948923189e-01 5.633504094159018649e-01
1.685549481981083175e-01 9.054045895642674757e-02 -3.825113219591578240e-01
-8.818390343991354685e-01 -2.604197567658819712e-01 1.584743490785874565e-01
-1.977548554007335091e-01 -1.598202433612855300e-01 7.389683535810327719e-02
-2.846580949189184313e-03 1.553689034257597634e-01 -5.496978829758354390e-01
3.864366930520048427e-01 -1.433778030079267685e-02 -1.229741954532387188e-01
-5.936542183068708178e-01 -1.871340626886270619e-01 5.817984536760971437e-02
-2.791424634501761259e-01 -4.254393171590157841e-01 6.146700283883401728e-01
-1.183114095136901661e-01 9.299512434070681538e-03 -2.653294455185761791e-01
-2.634276763925145343e-02 2.242108384313744041e-01 -6.980597868710335385e-01
2.308962845766505123e-01 -4.642951929751801821e-01 7.898407416200293740e-01
2.164718655225451316e-01 1.716503574191896309e-01 -5.433977690234168545e-01
-1.872023566100663727e-01 -3.844639500947374944e-01 5.458592236601425007e-01
-3.602164667112494056e-01 1.639121841460371432e-01 -6.333470218794710060e-01
6.996073605396705419e-01 5.205810795980638644e-02 -2.042545564633502786e-01
1.931851438249970465e-01 -3.696443000234234666e-01 5.848626962240343063e-01
-4.682061361645148412e-01 -2.648652845180257676e-01 2.439050278346531764e-01
3.086013130096365020e-01 -9.154940504447400818e-02 2.424941759619129653e-02
6.096205744103788682e-01 1.938210404101443352e-01 -5.174260960339455151e-01
-3.032955124542054959e-01 -3.804221964737593553e-01 5.160356933854414185e-01
1.774211504331783540e-01 -1.298124776976090078e-01 8.016315938880591574e-02
3.163443170254009312e-02 -1.016721862789086821e-02 -1.970017574221184786e-01
-1.809375842511205812e-01 -3.519818466787215661e-01 4.790502179765044333e-01
3.501935582983970452e-01 -2.624287428019900226e-01 3.894339356417864106e-01
-3.609508398215465208e-01 -4.124315104610841720e-01 5.723970288104991422e-01
5.008417166897707329e-01 -2.419477751010200572e-01 3.743086411905727773e-01
-2.447749523154060525e-01 -2.513437541278342180e-01 2.567366587627515351e-01
-4.687301864670604945e-01 -1.576912029908573154e-01 1.956911929398811451e-02
-3.666942652925748725e-01 -2.886656430636814208e-01 3.123856334382382194e-01
2.974344381468883580e-01 2.419558485878622045e-01 -6.755961737853590776e-01
-6.372742188678873765e-01 5.288984555458954052e-03 -3.524536097080678276e-01
7.367971823603389758e-01 -3.066092404173447958e-02 -2.433739543919640966e-02
-5.378236070392022894e-01 -2.044102002194638501e-01 1.046022183639012393e-01
-3.540565214491739887e-01 2.883609185524506624e-01 -8.925963531190395095e-01
-5.999107725911513311e-01 -2.557287845922242009e-01 2.005485007724022717e-01
-7.343700613422807777e-01 -1.649588425229434885e-01 -1.411600671314832377e-02
-9.065417505863064551e-02 -3.943382423631735523e-01 5.842888649043479488e-01
-4.162184082899565013e-03 4.797390768566386909e-02 -3.252383465439112609e-01
-8.676902797615347607e-02 -6.479538051350992867e-02 -1.044959144584477057e-01
-1.336819461787438212e-01 -2.953078785585019350e-01 3.691691599347877717e-01
-1.842388390646211294e-01 -1.959297409230794096e-01 1.519360720704384937e-01
4.298390350313023855e-01 -3.175769163394967509e-01 5.194787983869346704e-01
5.552582317960657043e-01 2.061921828703529580e-01 -5.533155522778373525e-01
-5.138160807044975797e-01 -1.645203562122044272e-01 2.555961999771593982e-02
6.378722333304976955e-01 -1.967657421839070220e-01 3.049951757862723323e-01
1.998385992773910047e-01 -2.665636536569122028e-01 3.704124721358288408e-01
-6.113443927203040390e-02 9.638508774549969793e-02 -4.370144352545943800e-01
-1.628003354161461635e-01 3.049966698815686494e-01 -8.922024053562577217e-01
5.443361013519826958e-02 5.942532651433610202e-02 -3.384134721842817495e-01
2.362070531173857679e-01 -4.105752262700182453e-01 6.784203428916033563e-01
-7.342973040926067396e-01 -1.049983612322082788e-01 -1.395574417614020568e-01
-5.028744192854093242e-01 4.997815901099678798e-02 -4.212200561338969029e-01
5.731445735088621651e-01 1.122718182993966696e-01 -3.535147494183353833e-01
-8.163233549536046130e-02 1.778918408533174955e-01 -6.113229979621920274e-01
3.115640322277660745e-01 8.353597610535744289e-02 -3.415350077247168992e-01
2.415265692513011708e-01 2.227311290610516081e-01 -6.456623205111259312e-01
1.067248769766583061e-01 2.699605271635155956e-01 -7.692903224431731912e-01
6.695136610873253513e-01 -9.054675653941963998e-02 8.857767854649051253e-02
-6.564288779610160107e-01 -8.107673367506049167e-03 -3.279493159567382077e-01
-1.633172001882223223e-01 2.410660688621526493e-01 -7.585360593808856411e-01
3.384105711089417934e-01 -3.705730500443948916e-01 6.135347232630522507e-01
-5.995138315574383148e-01 -2.375976574307985811e-01 1.626859484546526458e-01
-4.080111740205008553e-02 6.186401787237649080e-02 -3.610439244235006395e-01
-2.093917914393812196e-01 2.431705150919452330e-01 -7.714192261286596519e-01
-3.419190823087432385e-01 -3.621976885142432767e-01 4.707960170654210685e-01
7.693375338526485807e-01 1.828669727359726327e-01 -4.651110050370196869e-01
4.773081537385730488e-01 1.799084789859358990e-01 -5.126691229752896595e-01
-2.509098487369630370e-01 6.535861136614144751e-02 -4.070262486923826861e-01
5.962591033911204264e-01 -2.423487736419387834e-02 -6.364866269431104784e-02
-2.130249490278948721e-01 -2.759084561191866847e-01 3.139767880647660325e-01
5.094617776066003856e-01 -1.938428411145618480e-01 2.752456065124962992e-01
-1.086203057078076045e-01 -4.452166196450925706e-01 6.874346036665827109e-01
-2.945802924182472360e-01 -3.257572520012356754e-01 4.032647163435403304e-01
6.591375864432091891e-01 1.861025234956326449e-02 -1.417203626436807640e-01
3.572632222228354082e-01 1.236289757888311969e-01 -4.170103057461971297e-01
4.028664086536647981e-01 -1.607030678036176774e-01 1.862885992450177275e-01
-1.330839684856543748e-01 -6.784007167991877585e-02 -1.066498194194836352e-01
3.851348241250877047e-01 5.699499738106390823e-02 -2.724627941253578989e-01
-4.057551928366485150e-01 1.936159236544828660e-02 -3.392864222610148528e-01
-4.991996499926908137e-02 -4.079977475943638576e-02 -1.479196366356189674e-01
-5.153689278334150359e-01 -3.373036842667426205e-01 3.867869660472846305e-01
4.124463310804780680e-01 -1.052346778973366204e-01 7.199572877187351838e-02
2.926402045490716268e-04 1.960815487302320637e-01 -6.343028435650763797e-01
1.157339245815585949e-01 2.140074948936136479e-01 -6.505621296755964567e-01
-2.319053142456165562e-01 -3.889754922032969131e-01 5.470710852005213898e-01
-2.739274052462606010e-02 1.159281552222542061e-01 -4.716940598091684533e-01
-6.938875369041100916e-01 -3.338379242834615956e-01 3.466791473555699832e-01
4.961950178825175750e-01 -9.177545231477210463e-02 5.924908761924845696e-02
3.090673909524283003e-01 -2.734382331632626006e-01 4.048997113264215519e-01
-6.474032242024106987e-01 -1.973798398408258548e-01 6.972447052179887861e-02
3.058818749737807208e-01 1.594510688147918742e-01 -5.014173409721253138e-01
4.848927615880297554e-02 -1.147957372934287068e-01 2.501378135488954366e-02
-3.112123201164857522e-01 1.253479928677545263e-01 -5.436402417841809109e-01
-8.238258463883108007e-01 -2.372107393355447347e-01 1.205916668040370593e-01
6.092693733111810284e-01 1.555188567407801981e-01 -4.373513882125968366e-01
6.222567389773772106e-01 1.977384837080830848e-01 -5.232968384305096698e-01
4.578287013576408659e-01 9.532641059604453349e-02 -3.392839537503997693e-01
-4.304422638445896676e-01 2.681243397960255195e-02 -3.594194249095178928e-01
-3.949249088383892103e-01 4.902583688240332027e-02 -3.993593600975272051e-01
2.818679415392698062e-01 -1.899424090443808111e-01 2.251960074189485461e-01
3.023436810059435542e-01 -4.716914549708862148e-01 8.184658085493735635e-01
6.853494689833439235e-01 2.057844344307313833e-01 -5.285190676907058904e-01
3.197780764958469552e-02 2.513286940287903226e-01 -7.440643245889548840e-01
4.413754554908951855e-01 -3.056374420231249278e-01 4.966212174652951949e-01
-5.493600630572024329e-02 -4.395376261672999663e-01 6.854331134926461289e-01
5.613418692909198926e-01 -2.611264009651000344e-03 -1.153181066053494130e-01
-9.236557684571973514e-02 1.216429509057418423e-01 -4.956093625293942484e-01
5.155183074836184876e-01 1.953580084825509711e-01 -5.379614500663332244e-01
-7.673824459936271492e-01 -2.078521871747319727e-01 6.955344298064281006e-02
-3.607721187437899490e-01 2.036936211735275726e-01 -7.166836662020035220e-01
4.043024986861579739e-01 -3.847060580634908272e-02 -6.919307117170191146e-02
-7.504632238313908854e-02 -3.020221660462548210e-02 -1.747173395145864838e-01
6.320315192516055003e-01 -2.243117204833134162e-02 -6.083860997743903432e-02
2.102972206620749573e-01 1.892321482921438813e-01 -5.813204531033668854e-01
3.848460988283262663e-01 -1.406838316495382935e-01 1.410858678472496630e-01
4.460460982069149871e-01 -1.496571959033085875e-01 1.711246545298732991e-01
5.887616500927744800e-01 2.086240671880531528e-01 -5.522374434757397754e-01
6.387237564433387860e-01 9.039194639342996995e-02 -2.956657911454060872e-01
-4.541031326129087997e-01 1.267419216393063652e-01 -5.728558715358671449e-01
-5.713877053754341517e-01 -2.439520132702708566e-01 1.811577426454597517e-01
3.706504475847699487e-01 4.229919908374694254e-02 -2.443807517738414148e-01
-3.108059454325852178e-01 1.432770131766764043e-01 -5.810781913145890432e-01
5.515862030976883545e-01 1.236094174967805603e-01 -3.812041443880241909e-01
2.068923010778102312e-01 -4.212935947858201247e-01 6.954509034788366462e-01
3.482784847690670316e-01 -2.299557012375050974e-02 -1.118826093102949504e-01
-5.710068383529851577e-01 -3.424925627564296554e-02 -2.575315270272227064e-01
-3.342830081292252203e-02 -3.304968769735603940e-01 4.612465468482386810e-01
2.011124850364089389e-01 -4.199821463960624890e-02 -9.920950539948499014e-02
-2.173961370426289730e-01 -5.962712878006533324e-02 -1.393513887491684977e-01
7.423373541288922350e-01 1.360801081452858163e-01 -3.721886260664434842e-01
-4.041994708649259138e-01 -2.268040942980246444e-01 1.760503679719577497e-01
4.623356630714949012e-02 1.590141475978916865e-03 -2.189146082251602621e-01
-3.367639874075659123e-02 2.729977274078346783e-01 -8.014859552350492855e-01
-6.134383901067316236e-01 -1.391488206997334165e-01 -4.586057164836879196e-02
-1.190426010025569109e-01 -2.591539215010983388e-01 2.962189090437804539e-01
1.152218467316059453e-01 1.054147978181809581e-01 -4.234487632848235594e-01
-5.100061829170497718e-02 -4.272178767205881411e-01 6.603809122763177886e-01
-2.413229137156967241e-01 -3.659176818878597248e-01 4.970941029128497779e-01
-6.618495286768235619e-01 -1.365260085722827012e-02 -3.173453828025317169e-01
4.902330990499972896e-01 -2.608628590200330888e-01 4.119319957639879237e-01
-1.564169131857641726e-01 -1.602945984237219845e-01 8.249759307649676132e-02
-4.639544275884958657e-01 -7.655403344661411424e-02 -1.493145381505925628e-01
-3.213781398729565475e-01 1.073628349563982287e-01 -5.078810666464234069e-01
1.341772330119242462e-01 -5.043613481449803204e-02 -9.387437970815776245e-02
-4.072532166564138412e-01 5.702033803634071890e-02 -4.183552207561642144e-01
6.910204673266635567e-01 5.998630553100061519e-02 -2.224230814879341878e-01
2.553357025672554070e-01 -1.493768086188977107e-01 1.354376608779274682e-01
6.978699261344374349e-01 7.927937653723060585e-02 -2.615291703838410475e-01
-5.510502333446347656e-01 -2.342727146143463168e-01 1.646489466751514807e-01
-2.363901526964053840e-02 -1.453884474815022587e-01 7.574741208610462351e-02
8.319571081496880405e-01 5.063923948616121801e-02 -1.769268337259407575e-01
1.742365292698227208e-01 -3.342663963586026687e-01 5.073542950964029519e-01
3.453818773125477137e-01 -1.950884386221166666e-01 2.476527740945269340e-01
5.592171872002189570e-01 -3.939646367738109528e-02 -3.874378208451074307e-02
3.065406046920484198e-02 4.520396430784438119e-02 -3.130348697582762685e-01
5.527140742989408162e-01 -1.788152650625791582e-02 -8.495621079481398275e-02
-8.003957290274086311e-01 -3.339007852500331386e-01 3.272077859735340044e-01
-7.765336831441655985e-01 -3.144131787846824455e-01 2.908258470975590981e-01
7.884125734610660796e-01 1.658879007437383257e-02 -1.136977490004879021e-01
-1.160217026472664670e-01 -3.969100425126204090e-01 5.850009155214007661e-01
-1.020306026036160024e-01 9.131639091622070770e-02 -4.339362010812512493e-01
-6.604513658224586692e-02 -1.709817451133845978e-01 1.214911926453052238e-01
3.902690230507132041e-01 6.459038842779796230e-02 -2.874096170514843784e-01
4.938993551167609741e-01 -2.015316628346154604e-02 -9.102815525388710527e-02
-1.091443447137526029e-01 -3.613470978105335907e-01 5.118586374124077798e-01
-4.999409092962595058e-01 -2.208825343994073875e-01 1.460394778984451247e-01
-3.521332455463482836e-01 2.367841585490759182e-01 -7.843287388768221957e-01
1.035703253539090180e-01 7.175463088650185783e-02 -3.551663387062925503e-01
6.967772866883518157e-01 2.090098098202018695e-02 -1.395856302361062617e-01
4.194396430838892020e-01 -1.982963078844026394e-01 2.679949408166055203e-01
6.490170439165594482e-03 3.327287387467343233e-02 -2.925189223195650001e-01
1.648018311836219052e-01 -1.248387710745840484e-01 6.743412169771539899e-02
7.810593010120734370e-01 1.325436861174101866e-01 -3.576626058266487718e-01
7.513258723688902574e-01 -3.230452737060039020e-02 -1.822448509272122166e-02
7.201778238154848966e-01 -9.608935812962351997e-02 1.094991825941515895e-01
7.141719596139030068e-01 5.645142825609569814e-02 -2.107660431084648345e-01
-6.046435849243898542e-01 -3.005561368047195980e-01 2.934693278355826052e-01
2.145917659931992627e-01 1.716618333258145834e-01 -5.437678132074889037e-01
-1.735366646358186826e-01 -2.299711043560454249e-01 2.251302796299463338e-01
8.024128026044757833e-01 -1.688975276607884018e-02 -4.107411779335579799e-02
2.392241266762666352e-01 1.008038633409990004e-01 -3.909786623858167998e-01
-4.556541977905530505e-01 -2.130911941332823412e-01 1.378887111143240751e-01
6.111243253397570241e-01 -1.983138837220184969e-01 3.033113741499097737e-01
-6.723368762320824921e-02 -3.190505795621212393e-01 4.310756541315124979e-01
5.600349911092751265e-01 2.078429985967349125e-02 -1.645089856782666060e-01
5.183469775260967083e-01 1.768539608539786145e-01 -4.987249639994454919e-01
2.200250317395088528e-01 -4.822281906052506284e-01 8.253609469229614692e-01
-1.531407207581896024e-01 1.339000587834179301e-01 -5.324405043625614065e-01
-5.647950498397329849e-02 -1.614613566260324762e-01 1.033323206230982727e-01
3.040706976497909997e-01 -4.697530768367530474e-01 8.147280140441193197e-01
3.287122497147184630e-01 -1.666765050874140230e-01 1.851386641304997027e-01
3.472662800955902962e-01 3.277460233271389800e-02 -2.287563831273389248e-01
-2.517435514427824872e-01 -2.033752137128105320e-01 1.550898987340216251e-01
3.733400587594461473e-01 -4.117131880753394091e-01 7.060406878785606688e-01
4.829162421495898361e-01 -2.395784742033184311e-01 3.660521798836032237e-01
-1.024391843266744123e-01 -7.457645393444407855e-02 -8.691515424277870827e-02
9.349614482653116898e-01 1.480134230247431015e-01 -3.617040447104664658e-01
-2.488037011417575778e-04 -5.443003210255108887e-02 -1.102591588061211381e-01
1.785333249021778257e-01 2.515725797847356837e-01 -7.176009901142171854e-01
5.841514073722631206e-01 -2.040904845199373874e-01 3.104333301454776373e-01
2.583143012869078547e-01 1.378483391907513178e-01 -4.649729611493070291e-01
-4.524536119819516644e-01 8.694068710652767817e-02 -4.892764780037415218e-01
2.805838970391241749e-01 -3.080107600132798717e-01 4.719931263419551160e-01
6.226498968127137656e-01 -1.916682456458524142e-01 2.915280468636601285e-01
-4.852435128433296718e-01 -1.336889619809655261e-01 -3.368985964300489494e-02
-2.223772437802257473e-01 7.886940922479226956e-02 -4.300433409760019421e-01
4.657604389124015976e-01 1.031044723076199876e-01 -3.540980886655846205e-01
2.281780027607216432e-01 2.253352122424596149e-01 -6.535676327099603222e-01
5.848662075328080467e-01 1.648899007402012673e-01 -4.614497617570609278e-01
4.881811482238271882e-01 -8.732317551409654599e-02 4.845866854388056200e-02
-7.259270716093245701e-01 -9.010014537337465712e-02 -1.691883119313252193e-01
-3.300056324140965835e-01 2.277601403466028851e-01 -7.613752611553241678e-01
4.330996607341339177e-01 -3.494376345903004721e-01 5.867408391301011106e-01
-3.507715094659359933e-01 -2.483973053344283310e-01 2.310631097764489772e-01
-5.014553491989203193e-01 -1.335928067741516678e-01 -3.687484081106519318e-02
1.955902642801639058e-01 -1.526157891469864802e-01 1.312183762771151063e-01
-6.900220506460968961e-01 -3.464935632678210475e-01 3.738698822388721865e-01
8.616204901348765155e-01 1.837630191213767972e-01 -4.500010723288744852e-01
-1.504627031853131569e-01 -3.651643587619936016e-01 5.122407972813765031e-01
2.114763888207371878e-01 -2.434374665562150652e-01 3.241676803072801039e-01
-2.848843975961358743e-01 2.185028524852954679e-01 -7.337017279078860144e-01
1.531243179179850589e-01 2.484571930948134832e-01 -7.157592321142610681e-01
2.820028133574684071e-01 -2.817475299112293108e-01 4.173039364060743828e-01
1.312892830247326115e-01 -1.319411560278601625e-01 7.612638293414079882e-02
3.322975324599785618e-01 2.900940465454096909e-02 -2.236334960545236783e-01
1.273836970027467652e-01 1.020368722520118010e-01 -4.141427626754592972e-01
1.801745711524191385e-01 -4.639963268675075803e-01 7.798800703285529989e-01
-1.166710797500779828e-01 2.042849229731374949e-01 -6.729939264814787103e-01
-8.702928596856355226e-01 -3.141641126102001635e-01 2.730483056572475253e-01
-9.351918761379558742e-02 -1.797682586321039111e-01 1.348185306965894725e-01
-2.886709878985448396e-01 -3.918438392027984163e-01 5.426247542289623915e-01
5.929364709742533934e-01 -1.320897516971796803e-01 1.614036792459164760e-01
4.172789808187547522e-01 -2.316329845661793674e-02 -9.883209763050530838e-02
1.395231231423942897e-01 -3.229021242458086083e-01 4.771879018435832842e-01
-5.815498322609600201e-01 -3.176677234132897765e-02 -2.646660511064814481e-01
3.349045924683581865e-01 -2.222789458988159439e-01 3.026149013424048739e-01
4.358113162800172913e-01 -2.124538263104876756e-01 3.006298156333790383e-01
-4.124483010275468708e-01 -3.513356066575122894e-01 4.350884345597891834e-01
2.923076747789574159e-01 -3.261939087415698380e-01 5.121953471802186408e-01
2.207203468492485998e-01 6.335943062482178589e-02 -3.160396108853405495e-01
-3.751676866982091574e-01 -3.939715688758070322e-01 5.311568259402982273e-01
1.943721616534852537e-01 1.372562758882783784e-01 -4.755027740129782465e-01
-7.504841491576016987e-02 1.551586844395516918e-01 -5.625468263717703366e-01
6.490446114779220288e-01 8.876892139432891390e-03 -1.232129494272907050e-01
2.239225202007627535e-01 7.821577244251469441e-02 -3.465340521521402817e-01
3.884789828112246712e-01 -2.754677743284141347e-02 -9.496123403750456049e-02
-4.384300876477145725e-01 -2.071668940617370502e-01 1.286634522831986427e-01
2.482687620731388878e-01 -3.727902802302768270e-01 6.015831718452949728e-01
-9.636851816411667881e-01 -3.262414993213885728e-01 2.811288208393434296e-01
-7.240315196624812488e-01 -2.336811967529716094e-01 1.315740282988521470e-01
2.864063820244004965e-01 -2.106048789423155543e-01 2.692632268856064992e-01
4.615855967198806420e-02 -1.961489480352112194e-02 -1.745612887423564630e-01
2.173407853696361081e-01 -1.048818330881541444e-01 3.534820331076093253e-02
-3.447919490084244698e-02 -2.175246212606731788e-01 2.246821998836640855e-01
4.731737165038411019e-01 -1.182222401044949189e-01 1.103464042688255403e-01
-3.496731064266658251e-01 -3.259029172125361140e-01 3.934296311047160710e-01
3.178418000327622867e-02 -4.220733618723528924e-01 6.648536684393437923e-01
8.101886744586518363e-01 3.818773706565127546e-02 -1.548811476186513769e-01
-5.012459123870700584e-01 -3.786213293172083771e-01 4.758348857634391860e-01
-2.328443510479726863e-01 -4.967349637133930407e-02 -1.630205440166254405e-01
7.378227760845103012e-01 1.038243820613325846e-01 -3.055311437087975257e-01
3.489067304014069060e-01 2.193287710055048540e-03 -1.644694222369143533e-01
-2.884831635814715245e-01 3.149970489003595109e-01 -9.362581028435660313e-01
-5.690745477347586290e-01 -3.115592597592981572e-01 3.230375709652851257e-01
6.234884383858955159e-01 -1.479596836654722136e-01 2.002313130412630982e-01
-2.872276964099572047e-02 -4.467997018416176025e-01 7.054520542403377448e-01
7.341440193947949000e-01 -6.871029287716773348e-02 5.478467275895863159e-02
-2.456922971091464458e-01 -4.067275309609831857e-01 5.816760301925094634e-01
-3.912516230670443074e-02 -2.834652317079659478e-01 3.617941088343943346e-01
-4.169311760744465190e-01 -4.704092860111973307e-02 -2.024099143061642292e-01
-6.883916028193114434e-01 -2.163749581857089266e-01 1.019238706005767270e-01
-7.021736399344432611e-01 -1.464285874756002248e-01 -4.696094113104413298e-02
-7.638508876606608933e-01 -3.005522105411627676e-01 2.641589309850279066e-01
-2.364573649569163549e-01 -3.020001817107624276e-01 3.642555451383915899e-01
9.333227287066599986e-01 1.462539739943499728e-01 -3.583243709881565042e-01
5.650279434434074544e-01 -1.156237681145826229e-01 1.218154579218480998e-01
4.856443261844072823e-01 -3.499076884916739738e-01 5.973952004586620124e-01
-4.343541441513399937e-01 -1.855002145634348509e-01 8.408061484495248095e-02
1.214112042848660561e-01 -4.839607473395891035e-01 8.108360380598677031e-01
-1.850911504035573640e-01 -4.023271749743701498e-01 5.836228719449938485e-01
-5.142923208634506693e-01 3.288197004433378312e-02 -3.875513097418512576e-01
-4.903717713111582083e-02 -2.269558566508337039e-01 2.417356930312733743e-01
-6.652528622349902498e-01 -3.860170909881402435e-01 4.611234182381679370e-01
-7.834226934267929376e-01 -3.730875833878694037e-01 4.123218996742036291e-01
5.910894793446390683e-01 1.246645399023800921e-01 -3.761411710728780333e-01
-5.078452808311510400e-03 -4.024758463906311645e-01 6.170653610011295198e-01
-3.812571884438928360e-01 -1.997807948867424688e-01 1.237322772799531040e-01
-6.905143110458822342e-02 -1.137401261250221667e-02 -2.130080745194988801e-01
6.573019794660498460e-01 1.033651443254667152e-01 -3.193901763516132086e-01
2.258911037057942939e-01 -4.422962080469254875e-01 7.428912388577246784e-01
1.196194506864061285e-01 2.125667774344784655e-01 -6.468325953036031528e-01
7.539224806259705591e-01 2.211173884956348437e-02 -1.316012881465161155e-01
2.029670102890750172e-01 1.553603088187430481e-01 -5.117998083872488113e-01
1.155371574197023854e-01 -6.283261013558467944e-02 -7.136805051362539454e-02
-8.686540334590120427e-01 -3.060039536971661533e-01 2.562764984744981267e-01
4.616483780577553264e-01 7.032806932833675362e-02 -2.862771148000061161e-01
-1.759141145516502636e-01 -1.257498761976955370e-01 6.631483008150571012e-03
-3.198852194727152543e-01 2.744349332354368287e-01 -8.571698827527847175e-01
-7.153879864111112319e-01 -1.542681153119454529e-01 -3.299046790084186193e-02
-5.073751195187916618e-01 -1.031695369996392803e-01 -1.016187366967516437e-01
-5.272636317253907162e-02 -3.921299991651723271e-01 5.866492080022812639e-01
-4.575423579503911653e-01 8.313104319830991185e-02 -4.822421773055732275e-01
-1.334367253958515798e-01 -1.079524768263729478e-01 -2.278788631088247973e-02
-1.344650632499997112e-01 -4.043493079606024776e-01 5.971715204121632592e-01
-1.319909448508592154e-01 -2.302232654158665459e-01 2.333043842119658096e-01
-3.826258294258723658e-01 2.594648619170416073e-02 -3.488069712651667431e-01
-3.216382582113768707e-01 -1.756972891243488710e-01 8.431544784079117449e-02
7.525759735879739010e-01 -1.878051119355236137e-03 -8.165547149889944289e-02
-3.537836354400488714e-01 1.993734526257026074e-01 -7.063583790070976365e-01
-1.712343206981498667e-01 -9.144367520000593053e-02 -6.428578324036646197e-02
3.399483309508734979e-02 8.551438960521451360e-02 -3.967611730595106412e-01
-6.602493503494798466e-01 -1.401743913870776292e-01 -5.233035859737650980e-02
8.991774736577650140e-01 1.299171433960588651e-01 -3.304274044437987556e-01
4.087833668340049575e-01 -2.224825816343962703e-01 3.166383912988497973e-01
3.257962281814155148e-01 -2.158617993621818054e-01 2.875119590692455374e-01
-7.027041545419223656e-01 -3.061003002687043284e-01 2.870212400267071473e-01
-6.023801656197015353e-01 -9.635594632200773779e-02 -1.333604821264160190e-01
3.306531100239495369e-01 -2.945641969588539411e-01 4.530742552598410189e-01
4.364811428626127476e-01 -2.836145287518555547e-01 4.496420549803133992e-01
-2.883371275089421371e-01 -2.148722304775037562e-01 1.724099475796247727e-01
-6.205910936089440583e-02 -1.374505639650840279e-02 -2.067602187070027020e-01
5.029878276396914094e-01 -7.212659699175189010e-02 1.938816781309323986e-02
3.548176452282075233e-01 1.164784914446321262e-01 -4.024995153039662710e-01
-4.012357143598627718e-01 -1.113559466575763171e-02 -2.746455943007257705e-01
5.961359608298556489e-01 -2.254060390476899517e-02 -6.721624168612742867e-02
5.660493344879989897e-01 1.539858133427795817e-01 -4.420984833031527672e-01
5.512682445216752214e-01 -2.800704867242266860e-01 4.633535069662026440e-01
3.604624221750883373e-01 2.286081500568338809e-01 -6.360685616959166344e-01
-1.951892832329775104e-02 2.393220061499591045e-01 -7.284208288996187886e-01
4.434430082192353240e-01 1.230461747117047797e-02 -1.682258268584833905e-01
3.743016279341011554e-01 7.173646091608285036e-02 -3.053000931292463305e-01
-1.425697598109938180e-01 -2.491274786058581825e-01 2.709104792454637423e-01
3.911639029881729401e-01 -1.710099199951280735e-01 2.056996901446562220e-01
-1.068803659099493153e-01 1.631521050787865523e-01 -5.851300813471040918e-01
-6.197119634245906034e-02 2.291779212054307902e-01 -7.150098033891720828e-01
2.609717188745440120e-01 -4.303290307859850561e-01 7.243090158463669770e-01
-4.913114894523090692e-01 -3.671746754018726522e-01 4.537135805199454808e-01
-9.033005957868406322e-02 2.484412026944039509e-01 -7.605336728190322804e-01
4.983694050071647841e-02 1.921504929348084312e-01 -6.169592748709562535e-01
7.415594788591791664e-01 1.986551760340779238e-01 -5.032570986644807620e-01
-2.861907157192090101e-01 4.287303038727660054e-01 -8.915738410435928296e-01
2.410924143296942768e-01 2.765125131572631623e-01 -7.130922130631615063e-01
7.961386897422619846e-01 3.434413662635248388e-01 -4.068732674913199676e-01
7.612176147616485089e-01 2.784263283870138106e-01 -4.578151394603297009e-01
9.812396245504640957e-01 2.234508770532351862e-01 -3.788896958702520634e-01
9.581060153497567011e-01 2.246785477191648450e-01 -3.895597561452439628e-01
1.501340453996568847e-01 3.151100733753635086e-01 -7.374527696319045367e-01
4.735010015001736572e-01 2.478918599423521607e-01 -6.143816622108134728e-01
-6.368976430179192072e-02 3.404130198712256306e-01 -8.288059080159101422e-01
2.950367754846855428e-01 2.743931889805530933e-01 -6.878238242331330410e-01
3.748232216407604289e-01 3.389012787722724407e-01 -6.152121550903359992e-01
3.973309822081281251e-01 2.719763616927866057e-01 -6.390730296002782307e-01
3.078068204406638753e-01 3.594272974236085161e-01 -6.372822705365368545e-01
-2.470875273488933599e-01 4.232844629391124824e-01 -8.752939891192753619e-01
-6.102295333902639507e-02 3.626992561041371688e-01 -8.158921403429216790e-01
8.980982243346172789e-01 2.858996239076644352e-01 -3.870034025058001759e-01
-2.936497127995062462e-01 4.199027657544652792e-01 -8.998191180140701073e-01
6.656795616233580626e-01 2.466161271563726276e-01 -5.210935334953533671e-01
9.286911138053458581e-01 2.580835611993755885e-01 -3.865378490893839891e-01
9.360037663950430131e-01 1.859091356677030904e-01 -4.205620753707072779e-01
9.040947356045321293e-01 2.652157779357607326e-01 -3.948470592429581538e-01
9.240459638203744053e-01 3.241430479568506162e-01 -3.543951038774536544e-01
8.743488178677546463e-01 2.213633975277190802e-01 -4.322342052635075316e-01
1.767138163337031442e-01 2.950385648714972664e-01 -7.349146352754412082e-01
5.163189200676041590e-01 3.061175966805552151e-01 -5.631160473333844951e-01
-1.238198094927724646e-01 3.166607053061942789e-01 -8.705761945126846424e-01
7.950192858578865041e-01 2.740508499463518155e-01 -4.435695010408464700e-01
8.011235871476400927e-01 2.320987777912237870e-01 -4.624401396328767788e-01
-1.439671008434766130e-03 4.175942986439203919e-01 -7.581653582159038063e-01
9.729479483058149636e-02 3.518629936051868023e-01 -7.441385238465154650e-01
-5.342196062638798759e-02 3.870954739636675024e-01 -7.994669433671415248e-01
-2.923333534466211053e-02 3.095229416299969394e-01 -8.280529458509101604e-01
9.516132421270218078e-01 2.609059518192554106e-01 -3.738612994216827246e-01
2.047247889077149496e-01 3.720917471913349206e-01 -6.810797218386083207e-01
1.041568151799401737e-01 4.459410689305572384e-01 -6.917738466995070334e-01
4.608396091089585478e-01 2.718727608014974706e-01 -6.080787486176559842e-01
3.649003306049427575e-01 3.046173605076837876e-01 -6.379234830603204287e-01
4.272625275237782461e-01 3.352107991789392005e-01 -5.914980544630974446e-01
7.280470605271374129e-01 3.400197916798283204e-01 -4.419445372947949369e-01
4.054677219834715296e-01 2.449273114833668274e-01 -6.491863181966804897e-01
1.275947150519067264e-01 3.040875045263879417e-01 -7.542140574296941624e-01
5.198447497338314072e-02 4.286706639028569632e-01 -7.262770014697508270e-01
-3.080974933244406411e-01 4.013065163912378219e-01 -9.165700967366570140e-01
-1.617642964690269025e-01 4.425924349857401352e-01 -8.235224761965105333e-01
-1.471769638539352221e-01 4.113188527114787774e-01 -8.326829524890831946e-01
-3.031336770103753575e-01 3.982811465063209599e-01 -9.157194400374955023e-01
1.479861778122121829e-01 4.140749315057455360e-01 -6.869470997941966584e-01
-2.815011838966363644e-01 4.410330822602078760e-01 -8.828720812019256181e-01
1.622264388797426404e-01 3.243601928905377463e-01 -7.267221628695121893e-01
8.043727882147043706e-01 2.439751146214461930e-01 -4.546646868414898068e-01
-2.383502920128155178e-01 3.237071089706089477e-01 -9.228973124333376132e-01
8.912623930541176964e-01 3.443348438743095152e-01 -3.599035032654790967e-01
7.118088316541052452e-01 3.735208285626765434e-01 -4.324307631096375171e-01
2.009233179844547856e-01 3.959138545245599605e-01 -6.705280717662278622e-01
-2.081033922692779869e-01 3.951587947368964127e-01 -8.708873920833956062e-01
4.289905824745885998e-01 2.585919427289461447e-01 -6.305678178748872487e-01
9.757860579538614187e-01 3.112862008717391382e-01 -3.357980530411642239e-01
-3.405425114843924073e-01 3.340782735092341360e-01 -9.674544367690750546e-01
2.678957298009819743e-01 4.188601457211905688e-01 -6.258325701712171840e-01
-2.093754549732829151e-02 3.586220106339400027e-01 -7.984191290227070636e-01
9.866052418048976147e-01 1.815344401268924324e-01 -3.981028999426480808e-01
2.212973049590767072e-01 3.552908464078020079e-01 -6.817301360794297826e-01
8.474112822954450452e-01 1.906403749749448762e-01 -4.614086460374267618e-01
2.393000396006012345e-02 3.916584575300136595e-01 -7.592738415056632384e-01
6.339495640046053371e-01 2.259477764517675569e-01 -5.473729453183044935e-01
-3.045306017649999641e-01 4.034096436663722751e-01 -9.137306823578738024e-01
8.736746628888137911e-01 1.984266272126642972e-01 -4.445126940468219212e-01
-2.159211793234862287e-02 2.997874547030927039e-01 -8.293889890302446055e-01
5.577793111294501172e-01 2.595393517768031511e-01 -5.671117186798068088e-01
-8.688268751477577767e-02 3.598904901147218505e-01 -8.299977361503392270e-01
5.557489498074574819e-01 2.845379935076666755e-01 -5.550812888645584309e-01
3.748729452585879418e-01 2.626860124544403985e-01 -6.548921749978049434e-01
-2.810671887229786448e-01 4.167497945584680563e-01 -8.953102828296668481e-01
-4.267443938296173502e-03 2.991260055007756713e-01 -8.212638421481465167e-01
-2.092577954636354876e-01 4.028617588928721238e-01 -8.674389017680553815e-01
6.607555539760748275e-02 3.594948166920272636e-01 -7.554252646571005814e-01
7.113062614412896112e-01 3.504987869317309768e-01 -4.446697891917936185e-01
5.247163517484612072e-01 3.060008552255903957e-01 -5.590715069665500581e-01
3.977156510925785593e-01 4.055903832224697636e-01 -5.692787719051918272e-01
9.225298452044407016e-01 3.010018432499619312e-01 -3.671917139482915871e-01
5.194684293024122157e-01 2.749932272839045178e-01 -5.777905420934522640e-01
8.107160417294366761e-01 2.633427637246145703e-01 -4.414740084259407560e-01
1.639717192578948601e-01 3.891918017310280198e-01 -6.920949113067067504e-01
1.293581276015432491e-01 4.018405957652487759e-01 -7.024275011923144518e-01
6.658711932893817131e-01 3.706356043613650564e-01 -4.563919243984425611e-01
2.309740590815572703e-01 4.084317476203947472e-01 -6.493155983380631824e-01
9.756050182093740641e-01 2.207367071496462996e-01 -3.830583022205462651e-01
9.636654790262492165e-01 2.868766805680996734e-01 -3.544397262142992000e-01
9.221565076774922431e-01 3.165535037565149756e-01 -3.592725974373436326e-01
-2.161060902057335975e-01 4.603170529028325353e-01 -8.408555879412603629e-01
4.855498028816139788e-01 3.675487932616193776e-01 -5.461559576014940465e-01
2.798538803513881401e-01 2.967445858735069941e-01 -6.836025188180805401e-01
4.306833131699888684e-01 3.573483066245247142e-01 -5.782931620489633051e-01
-5.743244259767952414e-02 3.675859028547467378e-01 -8.115911050044866126e-01
7.254088611683393584e-01 2.163528780594955458e-01 -5.076585624163009181e-01
-3.350392778354676637e-01 3.686153266752772995e-01 -9.467719310621840467e-01
6.251778505638468098e-02 3.423361608611726337e-01 -7.661033946527582295e-01
-2.757880045242128153e-01 3.858925203204572885e-01 -9.088044737446004939e-01
-7.771132252959815911e-01 -3.285618745117537820e-01 4.646511713533131860e-01
-1.420180069729106223e-02 -3.996527767873543358e-01 8.005903701073574519e-01
-9.730581829697144691e-01 -3.563481777687490526e-01 3.543818547422923904e-01
-5.368286571608436031e-01 -3.650597347408262583e-01 5.631085213795832267e-01
-8.872295376743147832e-01 -3.506271069313700028e-01 3.993223622173737164e-01
-1.748471041448635688e-01 -4.359820575799722153e-01 7.031279716647930167e-01
7.125336214019746539e-02 -3.704740689325676795e-01 8.575685402422054127e-01
-7.935189419108954478e-01 -3.183631089778347634e-01 4.619437497691460948e-01
4.368973137235969417e-02 -4.575116276639092927e-01 7.987509653072707438e-01
-9.117029369509209724e-01 -2.557303437903057919e-01 4.367941985376728176e-01
-7.536894490458997398e-01 -2.193631859880769419e-01 5.329896806235373541e-01
4.756969502553008711e-02 -3.852365223358282798e-01 8.382995141372585612e-01
1.821034067094253472e-01 -3.789394940046975080e-01 9.073511177736088840e-01
2.538153352480053138e-01 -4.944954741047151714e-01 8.822109531716241237e-01
2.641825897815364699e-01 -4.645791539996454445e-01 9.028642231937280549e-01
-7.030126875527884511e-01 -3.548537746757710609e-01 4.871808617784230688e-01
2.684523694242532121e-01 -3.557758400591988224e-01 9.616327097414548719e-01
-3.863759906355386242e-01 -3.881177798954268954e-01 6.246501022322764607e-01
-6.283846288912411371e-01 -3.926417269228634210e-01 5.039795817027483693e-01
-6.866158904618537839e-01 -2.618978085448973037e-01 5.436223611711367143e-01
-8.110705394332630158e-01 -3.542647179801495794e-01 4.346601455429370819e-01
3.464458005858325751e-02 -4.645387417587584777e-01 7.906681759631728479e-01
-9.090897380910392123e-01 -2.811640008865773366e-01 4.248220865800085289e-01
-9.409181137226558800e-01 -2.527309013863430764e-01 4.240739708897675042e-01
4.927523651362291507e-02 -3.739532483412270070e-01 8.450113429078505156e-01
-4.691210141958415125e-01 -4.142588652503036983e-01 5.705793204532567664e-01
8.284373930685781651e-02 -3.901905789146944969e-01 8.529635597631660682e-01
-4.157258187340588385e-01 -4.034780650935457236e-01 6.022995492134378681e-01
-2.619999181228843677e-01 -3.188358599088745304e-01 7.215477822210950576e-01
-2.144855869629163081e-01 -3.057815603192700071e-01 7.515773388602716709e-01
-8.346827725088721284e-01 -3.662867549851632765e-01 4.168536617010781820e-01
-9.295490970476038006e-01 -2.290829249099146925e-01 4.419514923664231154e-01
2.904769188146067438e-01 -3.574855826984281726e-01 9.715094348558538373e-01
-9.631540914856110414e-01 -2.464229655634286309e-01 4.164893100485019817e-01
-8.172295777986000598e-01 -2.589292811731829791e-01 4.813140780953979458e-01
-5.070919607917198646e-02 -3.089303930341197879e-01 8.300043549975719692e-01
2.609835641364558704e-03 -3.566012235186882817e-01 8.312369824568301979e-01
-2.161654410647439739e-01 -3.814635061486628675e-01 7.113295920042169707e-01
-6.230835177817993786e-01 -3.849898630189020898e-01 5.105574388712419420e-01
-5.897332933432484214e-01 -3.195418236021883018e-01 5.609569216824071836e-01
-6.810061847094646126e-01 -3.385782577518718917e-01 5.064181819004178742e-01
-9.972459045643286002e-01 -3.167737642192787195e-01 3.631731860608005125e-01
-2.836916251252041277e-01 -3.381488087577768087e-01 7.008820106545293749e-01
-5.674696056740087258e-01 -2.686498224570644244e-01 5.983534260081151412e-01
2.255535010952260111e-01 -4.888687996042686557e-01 8.713254540553231342e-01
-5.973232025587971172e-01 -3.425708107389710544e-01 5.452494018260921615e-01
-2.401094063271132784e-01 -2.994708878245481154e-01 7.423378474530718529e-01
-6.140656356589065945e-01 -3.305722452118431964e-01 5.433149709424298646e-01
3.215628274480506477e-01 -4.990168714130497896e-01 9.129760906948899413e-01
-5.916886784484186590e-01 -2.547431385353146616e-01 5.937578312771752964e-01
3.945206569484482895e-02 -4.729371556796721499e-01 7.886433190425802264e-01
-2.152506061860395559e-01 -4.129494572354403537e-01 6.953742382999044125e-01
-2.750466564994439311e-01 -4.036180099518999476e-01 6.710022156546252559e-01
-3.579999830085482393e-01 -3.627424341372223471e-01 6.517419154814694249e-01
8.857111741927027604e-02 -3.417356404046473228e-01 8.810061655592388297e-01
-2.415924475370165303e-01 -4.434258648563006444e-01 6.666194959676996490e-01
-9.215031433571608810e-01 -3.200698831507745590e-01 3.984853786691879840e-01
-6.960583571745195819e-01 -2.844253778032465596e-01 5.272703720549948292e-01
-8.826730363120441902e-01 -2.412471284776915026e-01 4.585314352477539712e-01
2.652318503175150541e-02 -3.591999363145121915e-01 8.415739998662289389e-01
-4.690222702901122309e-01 -3.300694112679472547e-01 6.144860751153493617e-01
-7.921911402294560256e-01 -2.889896852516818937e-01 4.778949683463656339e-01
-4.288579325942042386e-01 -3.784200666971621052e-01 6.089334491140666605e-01
-7.602246198795615806e-01 -3.748922365724511319e-01 4.487719202514275918e-01
-4.068500613355520712e-01 -4.167228023051657848e-01 5.997389076549051179e-01
-2.867370301383923570e-01 -3.358597790401616767e-01 7.005856352598106573e-01
-9.593197290413286726e-01 -2.740049250158999583e-01 4.039950457958060293e-01
