-8.767723839393445351e-01 3.988613833929703367e-01 -2.067845404204398385e-01
7.794325320000463631e-01 3.995042332649418881e-01 3.822293327180585620e-02
2.326957310021239567e-01 5.014257771783150464e-01 3.698135364537922243e-01
-3.739591177108245734e-01 5.061391751168046182e-01 3.000554181114907237e-01
-6.673286484955518461e-01 5.051088192667319010e-01 2.529551018744619628e-01
3.163044561843321167e-01 3.562503309746858915e-01 -2.042455753710768207e-01
8.480073870620346010e-01 4.263688479134462583e-01 1.567536932144154016e-01
4.598644851523810972e-01 4.421632565310867347e-01 1.637292724127593357e-01
4.157179733893145435e-01 3.058314970918276088e-01 -3.933132371094557045e-01
1.556378294384672956e-01 3.641209931555389745e-01 -1.959756625686403242e-01
6.208600299700786085e-01 3.488028835246902992e-01 -1.897459383209943451e-01
-8.940162019299447982e-01 4.061798603078909387e-01 -1.797524942282532623e-01
-1.369016889076761223e-01 4.704305034685501985e-01 1.905416278070752312e-01
-4.839571189923017602e-01 5.023669691662936421e-01 2.687213062045162304e-01
3.484675242238534087e-01 4.648832622917759561e-01 2.391802030145372682e-01
2.382232683437411069e-01 4.189577013482212453e-01 3.757212470911125424e-02
-9.385663530867832671e-02 3.292554277962521647e-01 -3.732989589139851794e-01
-1.898985074354150593e-01 4.593424629004800308e-01 1.380052482458599683e-01
1.959782669188034621e-01 2.660481759348807818e-01 -5.861420060156254941e-01
-3.072996715953197344e-01 5.043907728815897329e-01 3.027510741086079649e-01
6.753038858486092311e-01 3.906908358856053809e-01 -1.261115021848976080e-02
6.777316569184804740e-01 3.589593294339933349e-01 -1.404047007647459822e-01
3.399326204118048866e-01 3.418048801989411190e-01 -2.591257276786620434e-01
5.369263415682974383e-01 4.033473026541312678e-01 1.824876919027109551e-02
6.025133786495606714e-03 3.388409235688614185e-01 -3.199683231581204601e-01
-3.097651088612393688e-01 4.496905223367651527e-01 8.148118222773975683e-02
-3.985539177515260434e-01 3.949104954076767537e-01 -1.527456551141927743e-01
-4.566669077513003661e-01 5.268438622860988074e-01 3.715665136567666282e-01
2.798165234431910786e-01 4.667586211170015043e-01 2.367057710804302273e-01
-2.909800530725957790e-01 5.281254877308531048e-01 4.009932499109696291e-01
-7.341753216256214909e-01 4.176354563180603163e-01 -1.100934410005231928e-01
-1.084906989972264785e-01 3.190927416747083578e-01 -4.164832747320875161e-01
1.154063002861936693e-01 2.637020639612161488e-01 -6.074098263228904226e-01
6.358917958772037846e-03 4.486997615837734488e-01 1.237496161245835308e-01
7.858042179179837161e-01 4.068286090599639304e-01 6.873529791523190491e-02
2.365100819732340320e-01 3.847541927141204243e-01 -1.008107938307723078e-01
-2.566451359548649336e-01 3.737082808284609703e-01 -2.176010498081119848e-01
-9.088850985830536633e-01 3.451150660893680389e-01 -4.285412760030945512e-01
-5.544822841659530210e-01 5.477490403130931274e-01 4.416760693429048201e-01
5.747395864676403399e-01 2.336730987252135239e-01 -6.614523845225229737e-01
-1.807905088415103501e-01 4.024617535331904694e-01 -9.037655730244531505e-02
4.999321339409679155e-01 2.843324889816090106e-01 -4.678117471980407505e-01
-2.223483668485553288e-01 5.055368949958544134e-01 3.198136739645315862e-01
-4.109516840907355695e-01 5.362406282494908139e-01 4.162068421218788616e-01
5.098695069484642239e-01 2.781604774570879401e-01 -4.912831610675715277e-01
6.318002084925093964e-01 4.101337548629576668e-01 5.954237710830315861e-02
-2.345941537295921087e-01 3.776127775062110281e-01 -1.986050882945735174e-01
-3.550481329665091668e-01 4.745841515778126962e-01 1.753871747066083897e-01
7.925596336521438801e-01 3.755972901883589676e-01 -5.640480813643412861e-02
8.259563111844665517e-01 2.498546357608987245e-01 -5.593331658527848083e-01
2.203241095282212625e-01 4.308181671239308952e-01 8.285124591154119367e-02
7.087188476181116581e-01 2.566158005229857708e-01 -5.491874682460665680e-01
5.944603149883298521e-01 3.674611878915030605e-01 -1.182576764504419120e-01
2.803606923761342018e-01 4.657690225441650789e-01 2.327888872748100357e-01
1.648160763043828372e-02 4.946664553455056290e-01 3.108694653913988137e-01
-9.213566237542165915e-03 3.824930766333795029e-01 -1.459078673864282472e-01
3.617268134282917713e-01 4.804917174180761141e-01 3.041562439545492103e-01
1.685338640557974268e-03 4.380528403473565313e-01 8.006756993824766522e-02
6.207966307766507041e-01 3.102612945105913123e-01 -3.454068870749773534e-01
3.049365376576783082e-01 3.191176218487993266e-01 -3.558713011449494146e-01
7.499526271719691994e-01 2.251042605640216077e-01 -6.704128140077307840e-01
-2.945384181010831659e-01 5.195534330517753707e-01 3.658538599496332644e-01
-7.561759792726696627e-01 4.449537964344855157e-01 -2.987425907960107856e-03
-3.070704505248198490e-01 3.381607949255113765e-01 -3.685414476926255345e-01
-1.222586979493999193e-01 5.132925199676492412e-01 3.657847364393859158e-01
-8.228711076215843301e-01 4.322584503412572610e-01 -6.401993009782806776e-02
9.530370925106979030e-02 2.683563887017339500e-01 -5.915554855650808630e-01
8.682375951557448346e-01 3.094306518010604967e-01 -3.125446427982732645e-01
-2.328426590606030855e-01 5.276325963563852639e-01 4.075119995263958850e-01
6.527076125210633517e-01 2.946922598577175756e-01 -4.036123565684991976e-01
1.335100548953407074e-01 3.056573120434319391e-01 -4.353221998555430461e-01
2.402149130412956635e-01 3.173605900336878838e-01 -3.724401552731528842e-01
-3.566079865843550523e-01 3.184159930564075536e-01 -4.555321664693323669e-01
3.314267787708251589e-01 3.859330615695013011e-01 -8.215735519088192274e-02
-2.462687176477162121e-01 4.109933327556692384e-01 -6.550520330102993505e-02
6.072841981306296467e-03 3.711445558614395179e-01 -1.895018958803732501e-01
8.601848234970674856e-01 4.320103295934661358e-01 1.813193878499727296e-01
-1.006156139201438565e-01 3.552105516697485754e-01 -2.694674879955637481e-01
-4.063167561886981138e-01 3.938043832546002099e-01 -1.583489429187429076e-01
5.279613562711988894e-01 2.414554444674599787e-01 -6.368698061880846417e-01
5.716856583390975827e-02 3.675624066478576091e-01 -1.964898889798860349e-01
6.895673657432832560e-01 4.534451359542208126e-01 2.429121528818956322e-01
-1.480348091170776426e-01 3.217374608587195151e-01 -4.115903703730190433e-01
2.611806485674835199e-01 4.679480666296377267e-01 2.387817423162060249e-01
-8.611886421844365813e-01 4.486871072051847320e-01 -3.280542154679394300e-03
-6.199980204267934170e-01 4.060886320272355521e-01 -1.400141084246432355e-01
5.504086052140302332e-01 2.735502091244874645e-01 -5.039683782646182664e-01
-4.832862423509574068e-01 3.863733654816042251e-01 -1.996250692499406953e-01
-7.411881600373561307e-02 3.937965784704416938e-01 -1.097581373038827579e-01
1.150151241109009445e-02 5.153438225709726650e-01 3.936468830760599391e-01
7.027909198048114536e-01 3.090984797947292084e-01 -3.381018213510315618e-01
1.832729174863305666e-01 3.297314844722677440e-01 -3.308141738040885627e-01
5.162328582531751087e-01 2.778582525638494394e-01 -4.915723325166780344e-01
1.285780047466785203e-01 3.053758118870876781e-01 -4.371809310191538400e-01
-6.362085058173569951e-01 4.462490426802641630e-01 1.980257728575228818e-02
1.694818598893401695e-01 3.138550329451303411e-01 -3.969503609345849116e-01
-2.295601648746098955e-01 3.861822674296860880e-01 -1.632600757416845239e-01
-2.830324855640888315e-01 5.238412178100987360e-01 3.848543131950125096e-01
7.623317491433900805e-02 5.054273144179305399e-01 3.630731724109745873e-01
-6.177710555625791633e-01 3.283573242865442388e-01 -4.536089925719083982e-01
7.637072594229166178e-01 2.769363450609399480e-01 -4.590737705767600207e-01
-7.284384629591814653e-01 4.617398843786279516e-01 6.886364313508368251e-02
-5.214195951791936734e-01 3.102966895039031003e-01 -5.124450192955402050e-01
-5.348800290102191379e-01 5.294244222920730936e-01 3.705404986699593062e-01
-3.361103734693105527e-01 4.791251306475862171e-01 1.964979260297085029e-01
-6.265465996676508609e-02 3.915827385762834512e-01 -1.170208564941708496e-01
7.009009133819503745e-01 3.015736811542302775e-01 -3.687676378919477749e-01
-3.939468166316667519e-01 3.200500644573227027e-01 -4.543980245479198876e-01
-7.077325599478092588e-01 4.532795181602669587e-01 3.772676356132499687e-02
-1.810042363594075721e-01 2.948618641120706041e-01 -5.249540748414293079e-01
1.545284290036618158e-01 2.773580881093746231e-01 -5.465333238998656418e-01
-4.567759599670627169e-01 3.159426436614232725e-01 -4.801820197223460873e-01
-5.245349186113170692e-01 4.778708341742403110e-01 1.638535448878177536e-01
-3.222088930411416696e-02 3.916393496654417827e-01 -1.123377756777956121e-01
-7.467463590064712942e-02 4.351461906078405995e-01 5.715248702859218599e-02
6.454803995082599721e-01 2.274574565322319275e-01 -6.762004751503899458e-01
6.032001802488082820e-01 4.565795016367270587e-01 2.429292292450119239e-01
5.698890097454357706e-01 3.528695671488749630e-01 -1.807828823117549055e-01
5.621080262489657198e-01 3.796803452951701963e-01 -7.364540543398420680e-02
3.678498516304767874e-01 3.591147636024344947e-01 -1.851329867367571269e-01
8.351982180623566121e-01 3.767904642215316735e-01 -4.534531079800098452e-02
9.106758638791757621e-01 3.564641220365434848e-01 -1.163866896184372612e-01
8.508470074632025204e-01 3.730943993723439545e-01 -5.798156564260773665e-02
-4.332909366585089850e-01 4.054479432169622588e-01 -1.152740743700142179e-01
6.606850876692782482e-01 3.098237972421981623e-01 -3.413354415016989774e-01
-9.356847230368707802e-01 3.740040767565191437e-01 -3.157944515990123713e-01
-4.587977577902229154e-01 5.346067943790663302e-01 4.026055264167125447e-01
7.107639515788998219e-01 2.442326530467991696e-01 -5.988979463673623771e-01
-1.698285233242209646e-01 4.387666779711897336e-01 5.784671401005689328e-02
2.406017608745815439e-01 4.807962381117771300e-01 2.876575305615205469e-01
-8.758661033471895063e-01 3.452638390525787360e-01 -4.231076082133368721e-01
-5.159067411880801091e-01 3.307954603413298944e-01 -4.288530638912306236e-01
1.128464070358360938e-01 4.732684962386465855e-01 2.385574801568932368e-01
-9.323686433142077679e-01 3.727287877346793232e-01 -3.204593949457614777e-01
9.208907914419428575e-01 3.966212841367813269e-01 4.728464609772414784e-02
-1.352781144818355763e-01 3.066016117546786490e-01 -4.708499308612075773e-01
6.030984467399579385e-01 2.424404374827982822e-01 -6.218943949243821434e-01
-5.480292935047201830e-01 4.458616400897885690e-01 3.114443382951858838e-02
5.283636207947431940e-01 3.670139109080281514e-01 -1.297382987848745561e-01
5.615847971343963518e-01 4.767570651777832125e-01 3.183260276866959337e-01
-3.357147093098144519e-01 4.061652380494486514e-01 -9.809545634899960453e-02
8.639190238917197062e-01 2.890350190345055137e-01 -3.955452693738974457e-01
-1.121498975536951992e-01 3.606991592582330930e-01 -2.489897595067516456e-01
1.308537801005592582e-01 3.227507248744589941e-01 -3.666785907553959944e-01
-1.859512940322499974e-01 5.296099330534045357e-01 4.223608279926897024e-01
2.167869003515513482e-01 4.350827967030735932e-01 9.955638877038371082e-02
-2.590971805749858747e-01 3.429531163737188915e-01 -3.421658429424283554e-01
7.578623972782719820e-01 4.185642808782456536e-01 1.120405345279795045e-01
5.074163312668248382e-01 4.173585303541658686e-01 7.051439565273782961e-02
5.701391567969055219e-01 3.976448548961624141e-01 8.042869789294498212e-05
-1.699428264909382535e-01 4.083784327596450825e-01 -6.489409708921202447e-02
-6.852316388718815432e-01 5.449195144232192867e-01 4.111117239068828866e-01
-9.338160340344080212e-02 4.235596749061396604e-01 7.621848738151453667e-03
-4.571359285307708964e-01 4.327785017265843859e-01 -8.388661778022690058e-03
6.502501737730049802e-01 3.743384702923258089e-01 -8.231779868129167343e-02
8.854357708435038887e-01 3.153022884680267701e-01 -2.863145953863087123e-01
-5.051504615452245828e-01 4.807822439101116507e-01 1.784485997623640741e-01
-2.572676503891253019e-01 5.041015305052527484e-01 3.089059207917622119e-01
9.145963613823032690e-01 4.345748216394372809e-01 1.996401595061024770e-01
8.584938168391949009e-01 2.260609709866814310e-01 -6.506624145900652412e-01
3.383965009219274123e-01 4.246469769015935869e-01 7.521038751293435132e-02
-4.923157186703384647e-01 4.839435712556973690e-01 1.930943040357373242e-01
7.840693433862652162e-01 3.028662799300541608e-01 -3.513744378773752675e-01
-6.958303971928674336e-01 5.602572915689286726e-01 4.715026259304700984e-01
8.738639851808266412e-02 4.620938428980729817e-01 1.897017512501213143e-01
-7.130188277751817738e-01 4.872885139555688250e-01 1.742996558427042653e-01
8.336190668865308684e-01 3.357968147797621428e-01 -2.111308524402634723e-01
8.321318906096701884e-01 3.290230017681630148e-01 -2.387048245851027262e-01
-2.847010131760379648e-01 2.986945367425052900e-01 -5.246533140907219117e-01
2.416214950145016971e-01 3.210943336134301496e-01 -3.571554150805226202e-01
-1.660816621176859631e-01 5.191768774996421421e-01 3.831347664473434556e-01
-1.132874540885940584e-01 3.467292990741204783e-01 -3.055740688611464084e-01
-1.218552966232869378e-01 4.247397995897417844e-01 8.220260016966095262e-03
8.786169228924401997e-01 4.463637879958157195e-01 2.419841979856514336e-01
8.948492450680872734e-01 3.497385292120746558e-01 -1.458647227263418777e-01
-6.937422213843345009e-01 4.947500691023531960e-01 2.072548599471367159e-01
-4.542910326170467306e-01 4.009845195497354631e-01 -1.363734702143729050e-01
1.805084789782189225e-01 2.969675547026686124e-01 -4.635371655594632267e-01
-3.496107865360955635e-01 4.545159042696504947e-01 9.513663672780711678e-02
-4.952776280239116757e-01 5.298994185193685036e-01 3.782552151181865496e-01
-7.081446153424273415e-01 3.586033349448762841e-01 -3.446869045722123492e-01
-9.912756533818943561e-02 4.595892702273781660e-01 1.522877254870736718e-01
2.776325887460067143e-01 4.642086376863950870e-01 2.260879135170463239e-01
4.975319457393340694e-01 4.795225092136018441e-01 3.201192491841932664e-01
2.106592280672843764e-01 2.554910084760808053e-01 -6.266287407122963504e-01
8.228814761762427432e-01 3.292171381952231357e-01 -2.392747390141399533e-01
6.861591279804404309e-01 2.742746632062469936e-01 -4.811734465980210262e-01
-2.437714250750622480e-01 5.329994908768472817e-01 4.275868120763566260e-01
6.625081838981413673e-01 3.302550704055078890e-01 -2.585561313425088215e-01
-4.299633229772409360e-01 3.546929444868676673e-01 -3.197630141985903229e-01
5.337362750265463029e-01 2.556244963141557913e-01 -5.788023037974641127e-01
1.236909330517629163e-01 3.898999667796517743e-01 -9.654222389402569715e-02
-2.292652414944273132e-01 4.670686041804996691e-01 1.634456302420431162e-01
4.236824839891084604e-01 3.443830359930015184e-01 -2.364556550492106779e-01
-5.485913563112302382e-01 5.468097954836936836e-01 4.387451222107106030e-01
-2.680575484316478629e-01 3.990827924968072815e-01 -1.167955055908749401e-01
-4.040806899975473709e-01 3.922938349210189357e-01 -1.641220666667436434e-01
-7.232297349404258613e-01 4.005909862343750572e-01 -1.773261234818366838e-01
4.252754631384496053e-01 3.258059079077750830e-01 -3.112469343118999809e-01
-4.968714260044000963e-01 5.477153873579506671e-01 4.499724040402900971e-01
-3.539308885969557616e-01 5.032151736730686720e-01 2.911781696055064095e-01
-2.958256394206363118e-02 3.111044456511002920e-01 -4.371948807350862221e-01
6.278385494533490485e-01 2.712111177640903481e-01 -5.020818131073303547e-01
-4.473505005651685629e-01 3.851098831328494398e-01 -1.994679369743944664e-01
7.542628894100050774e-01 3.623827324436142416e-01 -1.153776239112719870e-01
3.897189201146207815e-01 3.402390277304895849e-01 -2.581624844369181382e-01
-8.393825865808667297e-01 4.665655037314937470e-01 7.211369517995598610e-02
-7.971967900363783333e-01 5.087543080372589621e-01 2.486693279988565486e-01
8.841626156166401129e-01 4.587440663000533214e-01 2.927941197803061724e-01
-1.243607012595312200e-01 3.820720331952031090e-01 -1.644618380191493756e-01
-7.127325012598574316e-01 5.030235360590307181e-01 2.378880478415954791e-01
-6.307523783036417253e-01 4.216748132590905085e-01 -7.864279148651955043e-02
3.590003697438410302e-01 3.013469652075640992e-01 -4.197256910116952122e-01
-6.771877310154956753e-01 3.571769300172194517e-01 -3.459164743920454255e-01
3.145879434610441838e-01 2.944627219001452190e-01 -4.540284167981706309e-01
-3.093742562795269158e-01 4.790852740288025768e-01 2.002502093605716682e-01
-6.258017250970133727e-01 3.625830630005580923e-01 -3.165624615846940326e-01
-3.256893573263147101e-01 3.346831609884305392e-01 -3.853111703178135339e-01
-8.299370162235705228e-01 4.080305529595033009e-01 -1.628994181664378538e-01
-8.137714693469698390e-02 2.841883467895595650e-01 -5.534775083135738960e-01
2.062488902414158776e-01 2.791874234582258918e-01 -5.315753912962043470e-01
2.081810701202255198e-01 4.389150341682021561e-01 1.137734282983259432e-01
-3.923959771947168051e-01 3.828569863331962586e-01 -2.005228985626377192e-01
6.153290171372594042e-01 4.047583579143786969e-01 3.542281806640686787e-02
5.644329023278277235e-01 3.017437416056255595e-01 -3.880550542323167873e-01
-4.573136937029405602e-01 4.864131477789438440e-01 2.081908722271670065e-01
7.015676194901690477e-02 4.380292282987338082e-01 8.999406752437245915e-02
-2.648391543126472625e-01 3.176869155868589090e-01 -4.450447802803686459e-01
4.568771227846523675e-01 3.071704371647904774e-01 -3.818815963706663763e-01
-2.942390556589217221e-01 3.725625666651672940e-01 -2.277305136693782428e-01
-1.940912834276652121e-02 2.951909566115942241e-01 -4.999730696641995209e-01
-8.504286163785981234e-01 4.009734876725002950e-01 -1.943989078266832593e-01
5.431938709279588995e-01 2.395706026563057256e-01 -6.422522963563314091e-01
-4.942815979869993881e-01 3.630126881360489222e-01 -2.955773918781302023e-01
-8.293265173350351516e-01 3.583384756018129225e-01 -3.634934016408902790e-01
-5.465649156726880564e-01 5.423354279511258813e-01 4.209718202421350308e-01
5.517078860280201225e-01 3.328357549222622502e-01 -2.643512826627779644e-01
-5.068859436482561209e-01 4.235988195158263414e-01 -5.274284363826483440e-02
6.913795826141404532e-01 3.801620353883342074e-01 -5.277918265573402351e-02
6.903705719804860141e-01 2.277552642842988195e-01 -6.684273936375170200e-01
7.305563294956604059e-01 3.940858989355567332e-01 9.186993557015910028e-03
-4.293485618801289316e-01 5.205889691682306086e-01 3.503043545263500036e-01
-2.823547441195268723e-02 4.103775564469184789e-01 -3.607948942378765012e-02
6.329352836288152373e-01 2.501356360120912670e-01 -5.864499594878429534e-01
-3.347334172433460431e-01 3.536083503938797223e-01 -3.102048135494889225e-01
7.745059393630184807e-01 3.128081600690175157e-01 -3.126235304332316556e-01
-1.800036415062010176e-01 4.951684374440595837e-01 2.841380727234158465e-01
2.925651574048849790e-01 4.562282090840875659e-01 1.960442631052473350e-01
-2.542107481825780502e-01 3.397205893955224654e-01 -3.545053205320861656e-01
4.099633158019083679e-01 3.817382873571533164e-01 -8.760306859236931254e-02
2.135766230340868654e-01 3.278275524343017833e-01 -3.340678578279335231e-01
1.013654670021723603e-01 4.966297589643861032e-01 3.312224120756182000e-01
8.544427291993429430e-01 3.141514413256631943e-01 -2.954986480032655849e-01
8.391524073562313113e-01 3.746818672832063490e-01 -5.328220253512540999e-02
5.857919726594142951e-01 3.147513205779524648e-01 -3.323972215960178667e-01
-8.015768828063453144e-01 5.010922519947689224e-01 2.170847294405923167e-01
5.933062097342168412e-02 3.392622683226567126e-01 -3.104646208309803646e-01
-1.621802985260026031e-01 3.529324271382135447e-01 -2.876787276481971301e-01
-4.030821783374757272e-01 3.485809916836247746e-01 -3.405118946332474916e-01
-3.132444518600581151e-01 4.797220482692605703e-01 2.022553830830294275e-01
2.679091937137161872e-01 4.142752452744982716e-01 2.300684424499533504e-02
7.389936850383912459e-01 3.974581302941975758e-01 2.404081578732487554e-02
-7.198246622638941883e-01 5.056217117493922997e-01 2.473428310677172892e-01
-7.369059207269481604e-01 3.247993902524368148e-01 -4.854150810845613839e-01
1.589994793914218385e-01 3.253022342658833943e-01 -3.522546632669524835e-01
1.381698949097083171e-02 4.456690137301416166e-01 1.126014304937222321e-01
-3.166414003976564251e-01 4.220145972477298835e-01 -3.129554313556133505e-02
4.631704162637437783e-01 3.457779564724822174e-01 -2.250425438844105008e-01
5.445634401829494431e-01 2.320617768824076443e-01 -6.723765163679883416e-01
2.185873790117355553e-01 3.237723487012068024e-01 -3.497115500135827282e-01
-3.974338595049771716e-01 3.749235115659743101e-01 -2.332999096475627809e-01
1.595555394744126165e-01 3.399399907806192611e-01 -2.930581402776666344e-01
-2.127140809861104431e-01 3.895876273504753629e-01 -1.470417146273098608e-01
5.221804669370461172e-01 4.133930802461525111e-01 5.666073541461524865e-02
5.004820100660241078e-01 3.513635446599704948e-01 -1.970238031295619141e-01
-3.606850477066176341e-01 3.041524604866085446e-01 -5.137327250224432706e-01
-3.906130273189839519e-02 3.786777825950646270e-01 -1.656847566795301430e-01
-9.129752855502069053e-01 3.975177463233394159e-01 -2.175097263552257798e-01
2.250342572346397951e-01 3.056843957118025035e-01 -4.218168336145342034e-01
-5.505620942214396463e-01 4.143813996796815724e-01 -9.636042596447398634e-02
-6.715314943175395568e-01 5.410468814178075458e-01 3.974771774415769010e-01
-1.451177378941550522e-01 2.987831714075727119e-01 -5.038651804284138835e-01
-1.479373757222948449e-01 3.635662856169929458e-01 -2.426488139321105186e-01
2.734074884769122638e-01 3.104359474642229832e-01 -3.955473382832790930e-01
-7.748703203498030767e-01 4.916199474831190463e-01 1.827393883448330536e-01
9.070850570416334469e-01 3.468386655311857525e-01 -1.557850311780854813e-01
8.437727013240615692e-01 2.783972356601820408e-01 -4.414550881283809125e-01
6.683728949021460197e-01 3.227368253121034591e-01 -2.880604578565083562e-01
7.448428080867461887e-01 2.885651522072206765e-01 -4.148714970826224979e-01
3.382576871379469607e-01 4.643935038983773023e-01 2.357079270106104407e-01
5.659518778811746254e-01 4.165239615102976356e-01 7.571154366076093822e-02
1.653678783550965037e-01 4.725068092221413885e-01 2.431687109085308995e-01
2.835914056733068733e-01 3.538514158876299165e-01 -2.187217477265795129e-01
-7.420916925900331584e-01 4.899150279955551968e-01 1.806516673412822405e-01
3.778463656451657715e-01 3.769738030715685251e-01 -1.115454333527241132e-01
6.315176974851227643e-01 4.737887694592861632e-01 3.165742184191453479e-01
1.036027382775566996e-01 4.831451340156535657e-01 2.770917020668705599e-01
-5.152095931403379847e-01 3.708038924241958134e-01 -2.671754547767102861e-01
-3.649186253239392608e-01 5.081716083719539645e-01 3.095866933161215417e-01
-4.234439045039006255e-01 4.025543762934592484e-01 -1.255185881377122448e-01
-8.629773492808520685e-02 4.627428048452750242e-01 1.669012395185795750e-01
6.021787020780462463e-01 3.904443816240633081e-01 -2.430947093093833999e-02
-3.229316285412855980e-01 4.438671885329246170e-01 5.603630320435152440e-02
1.245058242858344683e-01 4.749124817048435143e-01 2.469033145396532236e-01
-3.830969575524085791e-01 5.203591969763302627e-01 3.561460511086075864e-01
-1.022208391941161337e-01 3.975048679928136486e-01 -9.889523673991501562e-02
-3.249902861004741461e-01 3.051570744610330177e-01 -5.044510708963658718e-01
-8.935339035177757017e-02 4.479832504721644182e-01 1.068469766764645890e-01
2.186258337369741955e-01 4.920102651811211758e-01 3.297292861948091236e-01
-5.820334767796364606e-01 4.229787719117991118e-01 -6.624593746007015338e-02
-3.324156253836061392e-01 4.351787284873398498e-01 1.955949755009188731e-02
-4.307739577303414946e-01 4.228828582622741195e-01 -4.449410963160144172e-02
-8.798731997242686953e-01 3.539016940642322750e-01 -3.888098038344476870e-01
4.358741156560849705e-01 3.907046884987210311e-01 -4.759946965061638557e-02
-5.376645417878907207e-02 4.116378185425468295e-01 -3.472672837047170030e-02
-2.592558115359454018e-01 4.625908082621654760e-01 1.409722960677083636e-01
4.272948688923848271e-01 2.842281891559511608e-01 -4.788645573492514851e-01
-7.624698575665629363e-01 4.773324980151672503e-01 1.268539819091679954e-01
7.862629878007189044e-01 4.181836484061058901e-01 1.146602031590705784e-01
2.723794833948585681e-01 2.732772217296464690e-01 -5.457647262705614954e-01
-1.463174809295731196e-02 3.522396507281667644e-01 -2.688805105853663280e-01
2.081909925987353305e-01 2.846985902595634554e-01 -5.090340782755646831e-01
-5.403554181960862346e-01 3.420159988287072572e-01 -3.871169369792971104e-01
7.535608121871693044e-01 2.327852140478236520e-01 -6.388648780987367104e-01
-1.520089595078084055e-01 3.633993547851861461e-01 -2.439189099224373380e-01
2.158056665686456377e-01 4.292405292991607890e-01 7.581855143826513044e-02
-1.947460788955923672e-01 3.292817011864556109e-01 -3.879595890908970057e-01
1.325459466090825045e-01 3.093839615251805508e-01 -4.204130967684476805e-01
1.673253755959290823e-01 5.015497342910865131e-01 3.607461756437538303e-01
8.377839996680616075e-01 2.362745040972707988e-01 -6.124458769141912784e-01
2.562185812905180826e-02 4.297403992082368673e-01 5.000094228148255215e-02
-8.121773438118986554e-01 4.329959273382143481e-01 -5.947640292787180483e-02
4.222076673215448966e-02 4.643976699250785822e-01 1.923951527380747539e-01
6.574653110167968384e-01 3.458272468076101225e-01 -1.964054089473736553e-01
-4.883569669748512032e-01 5.491821877101149552e-01 4.571423561611894226e-01
-7.549990641331248975e-01 5.594427296985116094e-01 4.595527339853428539e-01
6.615944436130096785e-03 2.888924163530909306e-01 -5.216007900214242321e-01
-7.093483317758828566e-01 3.415183310649686499e-01 -4.138615234423880795e-01
-4.015791480427027271e-01 4.798192015288742507e-01 1.897185861279682140e-01
1.440935467627630674e-02 4.982440248731668797e-01 3.250143092538043121e-01
7.719487172804722075e-01 3.179643721822790203e-01 -2.921742613640340158e-01
-1.945398087972931567e-01 5.083506636974511883e-01 3.352473997717000387e-01
-3.860850833986684272e-02 3.654653092332141306e-01 -2.189775580744622863e-01
4.863468216560232898e-02 2.952115514372707361e-01 -4.899306287107251245e-01
1.644598274830976620e-02 3.754685703571016275e-01 -1.705209291271959915e-01
-2.175238250921080752e-01 5.223454572849071109e-01 3.884018369784165148e-01
5.432001246845057363e-01 3.704189426735223778e-01 -1.138153961673088188e-01
-8.618890060362049965e-01 4.671846162980974326e-01 7.131984089283792405e-02
-8.173790758839777348e-01 5.224644105431812680e-01 3.010841062176717320e-01
4.594821929743072575e-01 3.968373822257265648e-01 -1.937694478868949230e-02
-9.425277113279163510e-01 3.435415276710063748e-01 -4.398201892349345443e-01
3.216288604007024321e-01 4.174646435006838519e-01 4.375005712520427248e-02
-2.966057626641260270e-01 3.128375381718754289e-01 -4.692787112023484308e-01
5.821127067807687627e-01 2.896093781315838278e-01 -4.344724275958773974e-01
-3.703285971694978973e-01 4.034561392787929246e-01 -1.141025343317106644e-01
4.659908028489624932e-01 4.850871393337248816e-01 3.379756831155222851e-01
1.256652564548061402e-01 3.203968987717316641e-01 -3.769440277443306120e-01
5.320859564775293205e-01 3.532006371210700824e-01 -1.849789073640807913e-01
6.314460666107353237e-01 4.762202178678033304e-01 3.263832307628038443e-01
-5.074811411162181152e-01 3.347311880179390520e-01 -4.117252610003826474e-01
-4.938700336999559681e-01 5.547049161111553550e-01 4.786391814127949895e-01
-3.140291870347965975e-01 3.950625503784072068e-01 -1.397600688584509643e-01
-4.970422548622254744e-01 3.615116045514378262e-01 -3.020436398674362644e-01
-8.455255490235448479e-02 4.139023752366646214e-01 -3.008725401516449544e-02
-4.605640266250147219e-01 4.898620260639772184e-01 2.216435613327318310e-01
6.525519360451136341e-01 4.113432686951508099e-01 6.746438207588124902e-02
2.950898358259387289e-01 4.935305526410643795e-01 3.470607184936659872e-01
-2.423122545949119577e-01 4.149308947615271692e-01 -4.902411998280669508e-02
6.536312455472108596e-01 2.999167598048805838e-01 -3.823778273102362291e-01
1.245122889751654471e-01 3.551085170846678407e-01 -2.369285951011378122e-01
1.028765544300938722e-01 3.984585651960273478e-01 -6.502450695169900707e-02
4.953686283737466778e-01 3.496955114513457530e-01 -2.045086413089190758e-01
4.371760268635517810e-01 4.138966762401737332e-01 4.625280754066788541e-02
8.638468985306309023e-01 3.360776265394571638e-01 -2.055724710832639579e-01
-9.402180413066905107e-01 1.142893947040267699e-01 -4.171987025692452944e-01
-4.800089551129706478e-01 2.934661472347174782e-01 -5.324064620901343137e-01
3.656333000865131799e-01 -7.527934885883688643e-02 -5.752210860614656029e-01
3.155851585721937136e-01 4.230341396384346142e-02 -5.958566160939410272e-01
-3.832484589218953519e-01 -1.387054298632821314e-01 -4.429478360061517850e-01
6.540098474749329593e-01 -4.680595822134479000e-01 -5.252114670646981232e-01
-6.334447689718069041e-01 1.766645638249095263e-01 -4.801888948994816886e-01
-2.664956020053166896e-01 -2.451906777821326322e-01 -4.354123798059464923e-01
-5.624997420066556453e-01 -1.035425220385084721e-01 -4.234682309430899960e-01
-4.716901794072552723e-01 -2.135940244930700227e-01 -4.110192326979237309e-01
5.745203650022505659e-01 -2.619860810450588828e-01 -5.626609977543919339e-01
-9.544971110878048837e-01 -3.674976940664559377e-01 -2.983981154008462644e-01
-5.368649576880072383e-01 -7.722301710216193660e-02 -4.338388816542511628e-01
-6.728752962055018286e-03 1.104343189111230417e-01 -5.620166647948162675e-01
-1.509114240104932336e-01 -1.905522207875117724e-01 -4.666792458002888555e-01
1.688494189667273104e-01 -4.223815555145802869e-01 -4.605128091025840753e-01
-7.470575778612714712e-01 2.678737781263808571e-01 -4.845185007583100445e-01
-2.558976978041916928e-01 -3.500667078428795209e-01 -4.116917374167425314e-01
-5.595505314397292151e-01 -3.289880981654442205e-01 -3.693808711709815618e-01
2.066986229604758640e-01 -2.481438047476827169e-01 -5.085802216771541095e-01
8.186372013447248963e-02 2.010269877240715153e-01 -5.977684957480292605e-01
-8.139883935481280197e-01 1.181664867785580386e-01 -4.378457030260440308e-01
-7.827429509877638081e-01 2.513988069162013672e-01 -4.749605381596705977e-01
-9.546771987124755277e-02 -3.265721174883131073e-01 -4.424251849526121827e-01
-1.764473801167695463e-02 1.678439391962145422e-01 -5.742028764173328081e-01
-4.132441645802379937e-01 -6.422525770228044995e-02 -4.562853447513334770e-01
5.882637557125427463e-01 -7.168573130588103137e-02 -6.108510765592015668e-01
-4.140553550435373542e-01 5.704050366487018603e-02 -4.854996280219009419e-01
3.307470492420077623e-01 -5.325005178223470859e-01 -4.591468521594565533e-01
-4.069026799050609600e-01 -4.085275786728004843e-01 -3.739695754380906734e-01
-6.532206147251808925e-01 -9.570665949348919344e-02 -4.111994229472317741e-01
1.281338088432551203e-01 -4.174892802675208570e-01 -4.553393749396311141e-01
8.370173703248575681e-01 -1.784231766945592323e-01 -6.238645903233939194e-01
-1.849305342951868547e-01 -3.392142078687931939e-01 -4.253980475199704570e-01
-1.554899227740660639e-01 8.197858182996163937e-03 -5.140530890536129105e-01
-3.767849086139263837e-01 2.350132163850172373e-01 -5.343803712853135712e-01
-9.514143921936056569e-02 -1.786999411093801171e-01 -4.782546407570048008e-01
5.754567177555217627e-01 -9.289798401321229526e-02 -6.037190197522880331e-01
2.822952893161485843e-02 -2.345765918566205810e-01 -4.839975431262708572e-01
-9.647634476240900536e-01 7.498424018046224993e-02 -4.038561907479614188e-01
-4.184801360942222437e-01 2.973729837543974686e-01 -5.429585698684976647e-01
5.771636684536884943e-01 -1.672494144796780047e-01 -5.859957848328105623e-01
8.002078873819862270e-01 -3.668993550985757968e-01 -5.725144466758241846e-01
2.283263053144071186e-01 1.544969088293070558e-01 -6.093782729619517946e-01
-6.387333442251920124e-01 1.991621713952455019e-01 -4.848065848722328819e-01
-2.596518989552943912e-01 -2.138531714467956923e-01 -4.440632115042381090e-01
-2.219711448204736981e-01 1.367391621209438357e-01 -5.347743147326353697e-01
2.883342898714210678e-01 2.366314472757175269e-01 -6.386205608591311034e-01
4.803927976074278128e-01 1.006794312670570152e-01 -6.357133305865455553e-01
-9.761575133664537329e-01 -2.826953246181745372e-01 -3.155345742237813944e-01
-1.344218779291225796e-01 2.310374671695933357e-01 -5.712598639785047006e-01
3.746423178086286110e-01 6.201250100362674933e-02 -6.098462544414110509e-01
3.714107743567438558e-01 -7.159600675104649259e-02 -5.770143598103103511e-01
-3.968617377223316867e-01 -3.422073187894734136e-01 -3.915838849869330840e-01
4.498047438603457460e-01 -3.094606779303795685e-01 -5.317017268571775368e-01
-5.473751220487246827e-02 -1.315981902121652336e-01 -4.959596597040128452e-01
5.811701917421213670e-01 1.799057479234294349e-02 -6.314412110683305102e-01
6.332897879130217067e-01 -5.020362661671206039e-01 -5.137554809527535848e-01
-3.655644692457507006e-01 -1.179569069297060069e-01 -4.507291555517562442e-01
1.100046842176588269e-01 -4.439223184658210308e-01 -4.461131533600302679e-01
5.280807767918211937e-01 -5.391454670722526377e-01 -4.883498486881076017e-01
-3.207235972747097819e-01 1.938579744395671489e-01 -5.331757820982402363e-01
3.537037707840594014e-01 -1.752019040673516437e-01 -5.491816352596593509e-01
-4.522641920763491585e-01 -3.035901813144624151e-01 -3.922772362968525162e-01
7.764289806474515832e-01 9.980599725273547884e-02 -6.817237249363962137e-01
-5.659362070266327205e-01 -2.899972878654384356e-01 -3.778178889030489040e-01
4.100506430676405523e-01 -1.349915242639650459e-01 -5.677085059535166289e-01
-5.244905724569981498e-01 2.367657018164665353e-02 -4.601841886652232039e-01
6.836821400172210517e-02 -2.132040013852348065e-02 -5.418631578465179510e-01
-5.880565013036502808e-01 2.897368927842279285e-01 -5.146341014131344815e-01
1.779424974004158722e-01 2.056606725195380125e-01 -6.138909400016869800e-01
-2.912237488381110295e-01 -3.150544980633429581e-01 -4.146474932049020179e-01
7.022561063283653260e-01 1.351679806213276214e-01 -6.786987462921632019e-01
-7.309583013140064089e-01 -4.254204376149350320e-01 -3.192856996273109038e-01
-3.673466579357833606e-01 -3.980938514050883503e-01 -3.826701700870666079e-01
5.357033536982780397e-01 -2.191492208408091780e-01 -5.669649096322084691e-01
5.791929025364094263e-01 -1.294685336525596975e-01 -5.954539185192877504e-01
4.811248282463077008e-01 -5.397058023730121334e-01 -4.808827867638499898e-01
3.376295952266928357e-01 -3.185075957331177932e-02 -5.813565100304760591e-01
-6.905337177429369255e-01 -9.284549435182451460e-02 -4.060658019675588704e-01
-8.360513998425616045e-01 -3.316039700263235801e-01 -3.255763735588571017e-01
6.922818371714668795e-02 -2.049411683431358044e-01 -4.975693431451156945e-01
-7.127364428352677139e-01 -8.070311894014035869e-02 -4.055370872990609610e-01
5.150248899658403934e-01 1.925879119212904889e-01 -6.633584042645083167e-01
-2.071082593363659519e-01 -3.341178353875490226e-02 -4.959259507988751370e-01
-1.778161949197520908e-01 -3.206471376929603823e-01 -4.310012556619595148e-01
-9.911590953771488577e-01 -4.056526734513058452e-01 -2.834420682788799106e-01
7.811401061623198805e-01 -2.193567741596479104e-01 -6.052360554639383272e-01
5.197651048017226660e-01 -8.435601711761413213e-02 -5.970903650535894780e-01
-4.235753190533726453e-01 7.971478195832874813e-02 -4.894993949191930871e-01
-6.041924772065587756e-01 -1.697187846174488812e-02 -4.379047774884332611e-01
-5.701986268569626537e-01 -1.602794998547174251e-03 -4.469310576952145175e-01
3.427648575590525604e-01 -1.251587294660372607e-01 -5.595819136647834924e-01
-3.138171488613333282e-01 -3.401890729621325771e-01 -4.050384107788693178e-01
8.153346838664404794e-01 -1.983524813704255207e-01 -6.156571471765561743e-01
-2.062058525295426548e-01 -3.521836360740409622e-01 -4.189381905624631197e-01
1.863942217615237873e-01 8.790247081714970545e-02 -5.867182884734783999e-01
-3.267808577039671425e-01 -4.296893500830621382e-01 -3.813592172462941243e-01
-5.283993349257853911e-01 -4.313004722666438640e-01 -3.494896163169323722e-01
2.866450366817992479e-01 -5.097562026831972126e-01 -4.577640830245485737e-01
-2.578195554169072090e-01 -4.409735149826645162e-01 -3.893962497820471214e-01
-3.045618061157099321e-01 7.682878325870437508e-02 -5.073833331333953423e-01
-5.727738741076157103e-01 -4.551176890019142940e-01 -3.367984693835033294e-01
-3.478850399763452894e-02 -4.833105688033993430e-01 -4.139756009926133795e-01
-7.310730359229524744e-01 -7.138637409865954131e-02 -4.049283353378305694e-01
-5.583242919708134577e-01 2.319932504271401685e-01 -5.053049498849822019e-01
-3.245580728087855138e-01 1.453440584635809774e-01 -5.208388675879841445e-01
3.040666988350199662e-01 -3.793995923951916094e-01 -4.920247424204179376e-01
-3.866059533330518105e-01 -7.555307029716178124e-02 -4.577036839009372415e-01
1.181001260495663924e-01 -4.867850116616385669e-01 -4.370062666286612663e-01
-3.948504088858982852e-01 -5.885608806165443241e-02 -4.604563621301889231e-01
-1.939062115475654879e-01 -1.943823818164574502e-01 -4.590395084363678713e-01
-7.534391061126847200e-01 5.073317777875611945e-02 -4.309837183838539643e-01
2.051698599558170466e-01 -2.727785317330526649e-01 -5.023810157311565661e-01
4.874001728780687492e-01 -2.743749769143405959e-01 -5.460608884303309596e-01
-2.597887313861092506e-01 -2.088137612854202296e-01 -4.452611609919032709e-01
-3.559195361249617440e-01 -1.248101462608146028e-01 -4.505768908742139311e-01
6.632503621511263159e-01 -4.582215843783977727e-01 -5.290345978627016832e-01
-8.118784645297784097e-01 -3.205753578131585457e-01 -3.320190596681947270e-01
3.337203815522775119e-01 -4.373405957637063191e-01 -4.826355774918476560e-01
4.963470924104809168e-01 -4.406664924820813956e-01 -5.072226438125604364e-01
3.313633677106979092e-01 -1.784262914010693590e-01 -5.449133487744168836e-01
-5.508617471671416466e-01 -9.369475659006396701e-03 -4.480710366221438146e-01
4.578753095868581813e-02 2.547637683968255184e-01 -6.051376445587794972e-01
1.923240254651582826e-01 -3.182488791753425028e-01 -4.893735177925445101e-01
7.560092036710501784e-01 -7.987214222366211674e-03 -6.524542960238540745e-01
-5.437629951904576764e-01 -4.406792938916097579e-01 -3.448215460464167381e-01
-9.324979203682558504e-01 2.287380575556320905e-01 -4.460955898695176391e-01
-3.530617155684797615e-01 1.662870362815486447e-01 -5.214557123160245000e-01
-3.434499487661913930e-01 -2.368791924309328056e-01 -4.254080934275988879e-01
-8.465102930104654311e-01 -1.751340043157269544e-01 -3.618021658759292825e-01
3.306229981203389623e-01 -3.250550471614539472e-01 -5.093200917013178675e-01
-2.606870232858159997e-01 -4.203637057576494196e-01 -3.939351967972385959e-01
8.294724391194597812e-01 -3.454474131238344792e-01 -5.822740980915607212e-01
8.034538447672238959e-02 -4.195296743664622130e-01 -4.473842254519018180e-01
7.727115083772635451e-01 -5.324175354432528762e-01 -5.281732260538516410e-01
3.964692290949913267e-01 6.090671072613760423e-02 -6.129866556481941009e-01
5.981446689434245512e-01 1.282854768058026562e-01 -6.607780049522276045e-01
-6.069229525949098036e-01 1.337468994092577412e-01 -4.739457168557577593e-01
6.302597700571880290e-01 -1.184228825582768901e-01 -6.060998220373706724e-01
-1.965779079472407265e-01 -1.538811019253120693e-01 -4.684218764648679367e-01
2.766862983755768446e-01 2.448192944934214077e-01 -6.387829931725252930e-01
5.205472525742168566e-01 -1.528185466513551187e-02 -6.139253714183551258e-01
2.772812654748468275e-01 -4.202092400500890834e-01 -4.779684624427847361e-01
-1.164612604468781287e-01 -1.112698854208402643e-01 -4.912409464826202332e-01
-1.583287828431160019e-02 6.585731313308283708e-02 -5.498095291818015928e-01
-3.310851381002913318e-02 8.303303748634287274e-02 -5.512679549207479823e-01
1.344272258395387554e-01 -2.588214221258055420e-02 -5.510735684477530150e-01
-9.416010336732818509e-01 5.766830501805082776e-02 -4.032829746888875189e-01
-6.048994020997700005e-01 -1.643405482173312948e-02 -4.379245309706831790e-01
-8.118238989779233972e-01 1.782441479550183616e-01 -4.527197881411489377e-01
5.291861158314312696e-01 6.863766442354726771e-02 -6.355790074114281429e-01
6.021576160243137243e-01 1.463854628933370511e-02 -6.339070485593643056e-01
5.357566793623033119e-01 1.909971004818018236e-01 -6.662104645600469555e-01
3.281487457250814033e-01 -3.626068908838476212e-01 -4.998478917310417713e-01
-9.175576387557382585e-01 -3.513101809074683501e-01 -3.080823351695236023e-01
-4.909990141443719702e-01 -2.599659975942845702e-01 -3.967844782141590199e-01
8.121980406125444141e-01 9.061001175470914659e-02 -6.850835204246027432e-01
-5.625097517673620651e-01 2.859319230040443041e-02 -4.554376536587225743e-01
-9.599333431655295845e-01 3.120296800390267578e-01 -4.619648297794556879e-01
7.185079792640804153e-02 -1.287394972409451888e-01 -5.164162526127201724e-01
-6.881234186095570582e-01 -3.912891545291025674e-01 -3.342319985446425279e-01
4.670074449640764236e-01 -3.271837480555185862e-01 -5.300994800591749545e-01
-5.222745070125024425e-01 -1.725920447888926179e-01 -4.130418902404670023e-01
-1.476797005836552323e-01 1.631699506526355370e-01 -5.527689180044080830e-01
4.179781327388549794e-01 1.535583258832460829e-01 -6.387625406678928419e-01
-2.932784027483213984e-01 1.141145965532024131e-01 -5.181665858079452791e-01
-7.842578088206796361e-01 8.040321190557926656e-02 -4.333506610862805641e-01
-4.682329651943497595e-01 1.665254678780546671e-01 -5.035310935271647415e-01
-6.831294914156015308e-01 8.789460445922205045e-02 -4.509529558908664804e-01
-7.587783067790508928e-01 -5.634303765418562093e-02 -4.042423824845114977e-01
-9.059333118634188553e-01 4.089010018281617059e-02 -4.047923867270759035e-01
3.410973019479892065e-01 1.936892624294277720e-01 -6.364686294397383648e-01
6.545722107809626156e-01 -5.274392203229519294e-02 -6.257872516450442291e-01
8.333595361972643278e-01 1.369922798255515661e-01 -6.996100317697256932e-01
7.076899360607438183e-01 -1.445734221720541557e-01 -6.118621402748491978e-01
3.667049585402634704e-01 -4.248468266424104134e-01 -4.908085757880810140e-01
-8.741458123806223890e-01 -1.170213936611134709e-01 -3.715479588941298372e-01
6.752545246223526920e-01 -3.592195322281991482e-02 -6.330866636786753876e-01
2.973999200739390614e-01 6.312919642099662498e-02 -5.980561728749316242e-01
-8.404402855900520997e-02 -4.309451691051675026e-01 -4.189551756485280776e-01
-2.304444483017616119e-01 -3.509034629858713283e-01 -4.154634329536873727e-01
1.955590626908881025e-01 -3.790465267585790277e-01 -4.751682859174395923e-01
-3.859397257445925655e-01 1.391181574705331082e-02 -4.794542422565513662e-01
-1.225535358731707769e-01 -1.545816389268883650e-01 -4.798102022098097441e-01
-9.455017052633265529e-01 -2.150346812533824037e-01 -3.366919074125777067e-01
7.329492588942070341e-01 -2.662548072053680381e-01 -5.863645133293614586e-01
6.371278508939627327e-01 -1.988643914942250790e-01 -5.877088931855465326e-01
-9.874475262038584500e-01 -3.679321143899035862e-01 -2.931482788275213136e-01
-4.199714334288397466e-01 2.543651205712968988e-01 -5.323197291193203506e-01
-1.696822159575207822e-01 -4.303712101630997044e-01 -4.057228959695587389e-01
3.402386112025551079e-01 -4.196042812075597567e-02 -5.793177781231796386e-01
7.696647675763600427e-01 -5.303665539213557600e-02 -6.436864450780043212e-01
-3.554081683446544959e-01 1.637588122688173331e-01 -5.204776298420168423e-01
-4.912941178061484490e-03 -3.575761018660459922e-01 -4.490624012988150837e-01
5.380713998560304745e-02 -4.664581297282144323e-01 -4.318860601740253657e-01
-2.493336964650844367e-01 -2.457400034843056080e-01 -4.379590482537132901e-01
-8.899585893643688905e-01 2.188402174504904263e-01 -4.503426466039727738e-01
2.707097450299570385e-01 2.366729545939700030e-01 -6.358787885023976516e-01
-6.843154409909401048e-01 4.563777889061551574e-02 -4.405435085459104561e-01
-5.723475970731588952e-02 1.915305872838757306e-01 -5.737525915647899710e-01
-1.267968101903907130e-01 2.593702182291422464e-01 -5.793056767791180395e-01
-5.454279516544917605e-01 2.776246393449869343e-01 -5.183592984691651750e-01
5.082564125001224342e-01 -3.407782670490829280e-01 -5.332506329570079195e-01
-1.473549648584199512e-01 2.596331417237724981e-01 -5.761594369902637292e-01
-1.930164272966265471e-01 -3.799742045391348300e-01 -4.142734410182774552e-01
-1.829134375803482537e-01 -2.260965425563156994e-01 -4.530824484704286670e-01
-7.098594231004844157e-02 -3.736104551049213573e-01 -4.348664643860432055e-01
-5.790819254991510512e-01 -1.310616275172055700e-01 -4.142207614909092506e-01
-1.334536903287108778e-01 1.406630163809558520e-01 -5.495444213363954722e-01
3.359924222271538641e-01 -1.478434393322934810e-02 -5.852302054453161206e-01
-8.330254021584849733e-01 -3.972506953939807239e-01 -3.101652413369271888e-01
1.714015390829394803e-01 -7.356724812590599571e-02 -5.453088856287101605e-01
-4.810577661406862937e-01 -1.093914429153249740e-02 -4.585901186116107531e-01
-2.961809057205261331e-01 -1.189806092338881356e-02 -4.872239251029197860e-01
1.449631594951468760e-01 1.316023424899360195e-01 -5.908228649892082185e-01
5.380751835345992662e-01 -4.823612051803662926e-01 -5.036496036028333956e-01
7.652496092964764518e-01 -1.794179862181756457e-02 -6.514884822546893606e-01
7.564958089345056313e-01 1.156977342826333993e-02 -6.572621964239104830e-01
2.431272868204746584e-02 -3.389260538179539317e-01 -4.581380477485845204e-01
1.815825904901989252e-01 3.915543072845624126e-03 -5.656459089554499720e-01
2.560271276154506004e-01 -1.753774193542884108e-01 -5.338883869810870930e-01
-1.528437888900756603e-01 7.406996246967992303e-02 -5.304043734918535424e-01
1.681849747970993667e-02 -3.629826347538540610e-01 -4.511473067793930758e-01
-1.582797027857912597e-01 -4.559269288107949958e-01 -4.013198807931029344e-01
-8.620246696598717895e-01 -9.657897781028236539e-02 -3.783866567825744376e-01
-1.585759823039088190e-01 5.978947042626415499e-03 -5.130343677902239330e-01
-3.600919778107902203e-01 -4.245814980807468414e-02 -4.698509577037820462e-01
-2.827187472467692086e-01 -4.146675859231223060e-01 -3.918734733563143946e-01
2.086698689396777051e-01 -1.624189620776154974e-01 -5.296296148870643927e-01
9.284792574074511584e-02 -4.901484601198053404e-01 -4.322496989011884172e-01
7.405415190937414405e-02 -1.160359292402433212e-01 -5.198339744951608887e-01
4.480777214075354342e-01 -2.214644225092502750e-01 -5.527232706601906687e-01
1.420645310794373950e-01 1.314989780113418050e-01 -5.903452768718095989e-01
-8.971343100961206574e-01 8.669429662129754521e-02 -4.172488074942627967e-01
-2.499470254900378330e-01 -2.975125382544281383e-01 -4.253366274281723536e-01
-8.799349847174571249e-01 2.727291487817331550e-01 -4.649464186927815268e-01
5.646926651059899216e-01 -4.979794830708741959e-02 -6.124666682435646603e-01
-4.296477393378591580e-01 2.479248434969672510e-01 -5.292506536954556529e-01
2.918961689760266043e-01 1.923118569107534481e-01 -6.284533199821380478e-01
-7.799512765208806986e-01 8.414767827203732675e-03 -4.166050508296539889e-01
-3.713251603784072374e-01 -2.017143696451651758e-01 -4.295641145617843382e-01
-1.020893934389228014e-01 -1.728685068457178620e-01 -4.785807677712237140e-01
-4.749508454198780871e-01 -4.205963784081730994e-01 -3.604247336161336968e-01
-6.158774729308348350e-01 -4.176655584606193683e-01 -3.391302273360049524e-01
4.946585479435690047e-01 1.164838701494454593e-01 -6.417646927988785999e-01
4.894982673060851996e-02 -3.281968343906466190e-01 -4.645807663076983451e-01
2.793215322882308671e-01 -4.878510179801627822e-01 -4.619207084570765010e-01
5.477305323817714955e-01 9.211444088451098411e-02 -6.441547864640874144e-01
-1.117257181222594542e-01 1.722221490019599510e-01 -5.605728380302705816e-01
-7.387061443105926717e-01 -2.215377361398604972e-01 -3.674065631924041120e-01
-3.273653860377375158e-01 -2.762265837022252479e-01 -4.183991384913368083e-01
3.142811495897478991e-01 1.521512322293587516e-01 -6.222313168507918046e-01
