-6.980036050188518360e-01 -5.477819648986566314e-02 9.481101269948348509e-02
-3.843590168212486780e-01 4.742564686742275493e-01 3.345642381106138652e-01
1.322640521865461050e-01 -1.852027946247414986e-02 4.794020781036468226e-01
-5.498731346418993249e-02 -5.369755501406455744e-01 2.991234124923177751e-01
-2.868813718606537666e-01 -5.002787907529875344e-01 2.002904328363163122e-01
-5.265312449274869300e-01 -5.588864878119310653e-01 8.045625922089819082e-02
-1.070473475760885668e-01 -3.370640265778199751e-01 3.120719429198440253e-01
-2.841343280610063582e-01 -6.342778485659525400e-02 2.816220164693223338e-01
-8.047937006676609828e-01 -2.562333310460840896e-01 9.269669029300332472e-03
1.854026492254905734e-01 2.157897232693365419e-01 5.465436038579252198e-01
-7.925588626056340180e-01 -1.623781482344901494e-01 3.204407737104836978e-02
-3.472428676244680434e-01 -9.310495314815932233e-03 2.628149873700355577e-01
-6.323867098539713849e-01 -9.850670967318024551e-02 1.166642782453471278e-01
-2.037724182594266575e-01 2.956109865624297894e-01 3.840203986907498312e-01
-3.273328310664038732e-01 -6.459109818787278634e-01 1.551801188698619938e-01
-7.243220907596898961e-01 2.273466371159349811e-03 9.328902282974042837e-02
2.061521102124924676e-01 6.122007189072448119e-01 6.286567927447310744e-01
-2.576063286685100762e-01 1.440402018923284677e-01 3.317296560326228883e-01
3.201367157607115654e-01 -4.285628544352516056e-01 4.897564799177773764e-01
-8.993999888787206354e-01 5.375311711859227098e-02 2.302913062850974607e-02
3.301463918670129449e-01 -3.324610334325434069e-01 5.119298180484269656e-01
-5.406349873470724932e-01 -7.221188860484963890e-01 4.411326373772393727e-02
-7.366647570422940605e-01 2.586271647654543315e-01 1.346638830661456288e-01
2.835264508153568230e-01 3.269180476576338812e-02 5.576458450467436379e-01
-4.325200151361668910e-01 3.122777909274651598e-01 2.829479329936266940e-01
-1.603984462161664459e-01 -1.714835947761309820e-01 3.181393848331798280e-01
-5.184184137660914349e-01 -4.927737999835725691e-01 9.626869656110005613e-02
-3.607259376709451848e-01 -3.825549136226519820e-01 1.882562863131437003e-01
-3.427717440370339069e-02 -2.732422391229431535e-01 3.568969632733616226e-01
-6.964251298176943328e-01 -3.534366967649891778e-01 4.078112474123312542e-02
-5.720361766567165773e-01 9.752369169320064535e-02 1.800715303535793677e-01
-6.623125369990336131e-02 5.211762701967457279e-01 4.879796134075565783e-01
6.805970847973676074e-02 5.118587054052080587e-01 5.474018869319708935e-01
-6.233270554247819506e-01 -1.255845029955226233e-01 1.158245541260675415e-01
2.924782580710114654e-01 5.595955587912078144e-01 6.583098576579631267e-01
-1.222522024523258061e-01 -5.214497416479891845e-01 2.713500033503379316e-01
-2.110367084467718035e-02 3.699083938673781990e-02 4.197638573033798393e-01
-5.887228834749091977e-01 -6.073361870426573494e-01 4.326459835883187527e-02
-5.219695800405441677e-01 1.818110478925716311e-01 2.183133361722829902e-01
6.878686351069868143e-02 -8.553226241265499477e-03 4.523338601424492511e-01
1.447310734293756895e-01 -4.519313525806561427e-01 4.056266477465097497e-01
3.619427508038955965e-01 1.693038228193390754e-02 5.904522740354993804e-01
-3.276702349294932648e-02 1.377573826036317117e-01 4.329265707946207686e-01
-5.800039235330083365e-01 3.666102817168039874e-01 2.257720120107005457e-01
-5.294099679497191735e-01 -7.221716303818875859e-01 4.921331336737684581e-02
-1.729332549998681889e-03 -5.597272216036314196e-01 3.191961600876504490e-01
-3.791670343735953352e-01 -2.896619436036232398e-01 1.968903767710159791e-01
-2.201576198921006422e-01 3.250839373405904897e-01 3.819645422516110278e-01
-1.654721019656892333e-01 -7.158054365472420189e-02 3.341434903628641706e-01
5.327845655146884463e-01 -7.518644101442276129e-02 6.513344858104088697e-01
-5.147626793908066656e-01 9.588007310978161057e-02 2.058415844139024342e-01
-2.767969339667918360e-01 1.966006832508389313e-02 3.001932619806850777e-01
1.743190973194602977e-01 4.433780169920483183e-01 5.832185083109833190e-01
1.877472273139564052e-01 6.183611881886772466e-01 6.214080462553926987e-01
1.464179177833813779e-03 2.754373275588966608e-01 4.737476126027647672e-01
-5.128641549650699849e-01 -5.850347989168654950e-01 8.188426406645626932e-02
-7.064446252418087324e-01 -4.046468760594902625e-02 9.359246610553641210e-02
-2.398112155205015528e-01 -2.328605675319713741e-01 2.707387715912360493e-01
1.290933497976897715e-01 2.741964336823058956e-01 5.316179560222638045e-01
-6.470606979176608993e-03 -7.479496066810237265e-02 4.059329909175726780e-01
-4.087966427658303314e-01 -1.969115236151096349e-01 2.004052359178573328e-01
-1.176427985984871832e-01 2.214583777127066555e-01 4.096340434154073784e-01
3.943839978764790422e-01 -1.522975815297482050e-01 5.741978554142265212e-01
-6.379314673167095773e-01 1.233616724159852518e-01 1.548119436131025206e-01
-1.064565207342487579e-01 3.242480991876480617e-02 3.800735395015886753e-01
2.292532544158136787e-01 -2.555928503177859815e-02 5.222619856119274928e-01
-6.702452086568172485e-02 5.131777180980807707e-01 4.861522615824748206e-01
2.080971237648040761e-01 3.691140868298586897e-01 5.849808831222446104e-01
-5.067618203447851188e-01 -7.811127101141317475e-01 4.871817858237507265e-02
3.498373333336360913e-01 3.082466065819952084e-01 6.383442684714661919e-01
-4.912584911959718692e-01 1.755631138949037551e-01 2.311479322900409361e-01
-5.897369231411470070e-01 -5.931860235333545894e-01 4.539692902756473775e-02
-1.818571309271082015e-01 -1.137407664739131796e-01 3.189563158050089942e-01
-3.202364744675034042e-02 -1.565959229042351852e-01 3.793057435002081257e-01
-3.847100762718650979e-01 -3.196368366243442782e-01 1.888723084492367754e-01
-4.971288789497667060e-01 -2.810313322368208633e-01 1.447753194223101447e-01
-1.815377315149419024e-01 2.839152011585330815e-01 3.919977989604656599e-01
4.122220072430530791e-01 2.307190885201957642e-01 6.525303546873262306e-01
-6.671534515265392651e-01 1.024708043309856542e-01 1.376802648927177575e-01
2.987039750235666036e-01 -3.794596201962830984e-01 4.890014582510543995e-01
6.137187596498758051e-03 -2.537729718202373363e-01 3.788629017190898174e-01
-4.857499136269346485e-01 -7.281861093337568258e-01 6.798517761686959093e-02
-1.186112602806812730e-02 -1.509334944864474670e-01 3.895218892112753406e-01
-3.045466802007527618e-01 -8.369702355817414119e-02 2.686145062428472730e-01
1.268766426757900363e-02 -5.349564586219648366e-01 3.302997312201547686e-01
3.081588770931613652e-01 -1.019724442495782979e-01 5.441728176712331555e-01
1.784745508806867831e-01 1.162483179404705941e-01 5.251424989695305801e-01
3.040175748611848722e-02 8.329014641761685322e-02 4.516968719861281789e-01
-3.688897560575071233e-01 -4.577442442864236745e-03 2.538287880114489803e-01
1.607670133464062234e-01 -5.717237134308194024e-01 3.909666633480268771e-01
5.332150359797638295e-01 -1.374683867552942973e-01 6.401132579909776243e-01
2.094554484832868158e-01 -4.274841706621855253e-01 4.395712219214795158e-01
-4.142772011081956585e-01 2.085449670426280933e-01 2.722364806938025183e-01
-5.855400519996122322e-01 -4.456932833653498571e-01 7.434493066759463586e-02
-3.589281403182059682e-02 -7.563018193079536211e-02 3.923866592796301789e-01
5.094248217330153983e-01 9.961033704951549606e-02 6.727437214108682451e-01
1.704059884137194281e-01 -1.341187367990939565e-02 4.977010365872065467e-01
3.634389367392539261e-01 4.399488680740098467e-01 6.686787561953360104e-01
-2.643360120259181656e-01 1.947293358917780992e-01 3.379583018085521307e-01
-6.238823533058910353e-01 -1.010254782513574923e-01 1.200738025203242493e-01
-5.462851801245733885e-01 -7.519217817409280524e-01 3.607794907822939323e-02
-3.937317732133686077e-01 1.105153134432350498e-01 2.636186702016513617e-01
-9.400637022970054213e-01 1.124648419549766631e-01 1.528139198394795964e-02
-6.173763639557133809e-01 -1.651858224433750688e-01 1.112738617901648519e-01
-9.127803879238019502e-02 5.640880834484521822e-01 4.844444728918487209e-01
6.254473365193416456e-02 1.502940131750087321e-03 4.513358335396673304e-01
3.883302993399456171e-01 -8.327199825305497960e-02 5.840955512210553868e-01
3.351509163965886162e-01 2.348905055150685706e-01 6.182116600102518511e-01
-5.999697689397638367e-01 -4.551049219690224690e-01 6.605111886463103932e-02
-4.971567553610042878e-01 1.309432920914079257e-01 2.202835367078521400e-01
2.091515024574210624e-01 4.149182866987128904e-01 5.938574170015924469e-01
-6.384467170579946060e-01 -5.224995471061156804e-01 3.618169546778914059e-02
3.760228308868412417e-01 -1.337937403062932663e-02 5.913054221887027451e-01
3.624998752683843417e-01 -4.342469153678030769e-01 5.079985576971352002e-01
-3.222017026779629423e-01 4.705050087973414868e-02 2.845457112617085227e-01
-4.934482996063158100e-01 -4.493860194560505561e-01 1.155888995097379551e-01
1.648716519273565606e-01 -5.317684105026966590e-02 4.878922688205082903e-01
5.124871220090264634e-01 1.078501511149436015e-01 6.756481820271281746e-01
1.434368369795191445e-01 1.214130681438276016e-01 5.101398253353864876e-01
-3.932931192958194488e-01 -4.741314674525308748e-01 1.566441385341817982e-01
2.374829060479988208e-01 -1.434270167171929899e-01 5.044013288366721026e-01
-9.481494479591029423e-01 2.673590413500444019e-01 3.999504293444992864e-02
1.843759979112029601e-01 3.623686101203899002e-01 5.729462938517791981e-01
-6.480712640262230595e-01 -7.054887006771307645e-01 -1.744033478814667470e-03
1.889445020589620994e-01 -2.707675397811425966e-01 4.589629003543729824e-01
-1.869848783561668115e-01 3.700894468313430941e-01 4.053151997714556365e-01
-3.993539791804874839e-01 1.032137657868232028e-01 2.597209178839180455e-01
-4.237057596174963470e-01 1.688451181262704548e-01 2.606669691326339300e-01
-2.828654122253835834e-01 -3.209398657492086304e-01 2.349939483726589950e-01
-7.338647191498219868e-01 3.125730322929630711e-01 1.458275403785297963e-01
-1.446734675279169047e-01 3.638605921747507521e-01 4.234338525701444866e-01
-8.175760382911505253e-02 5.949845391006964856e-01 4.944420180432408940e-01
4.885451038073234664e-01 -4.080890014232826934e-01 5.701704757689690650e-01
6.390050651239871475e-03 -1.833703301238339134e-01 3.918838294259384680e-01
1.568135038069524423e-01 6.131440388991284962e-01 6.063703894811108830e-01
-8.142545474008039408e-01 3.709187659157621442e-02 5.873376887484253739e-02
2.301728304497936417e-01 -3.408645438577656006e-01 4.648805698961324118e-01
-1.942804729478080361e-01 -3.402061452694427612e-01 2.717867321487640320e-01
2.642902620739411290e-01 5.380730773193925787e-01 6.415330747568575021e-01
3.899274788915516043e-01 1.619759469079526670e-01 6.297800953649121958e-01
-6.405086414942364748e-01 1.523549233642535750e-01 1.589536755719435646e-01
-1.775112884215276077e-01 -3.473170195845150521e-01 2.781166726947973955e-01
4.867181442290408055e-01 -4.628719050924771650e-01 5.592963306419387326e-01
2.662991042531955010e-02 -4.283659129803346621e-01 3.561859415485540414e-01
1.516372437262764224e-02 2.377878754483135348e-01 4.730820658467902451e-01
-2.364701367829931955e-01 -6.662827177586613456e-03 3.137249745085349817e-01
-7.011687220377644802e-01 3.541847639605376630e-01 1.683390514734776910e-01
2.086414568060758201e-01 1.637853304098230156e-01 5.475889372346188777e-01
-5.193662151465936461e-01 -3.497589692005499962e-01 1.220539366515265151e-01
-5.807665411468353467e-01 -4.352476405701850015e-01 7.843270830554303907e-02
1.168252323563833683e-01 -2.991925352848905928e-01 4.209229203490391091e-01
-2.334618464279937800e-01 4.030069871320799968e-01 3.901927741311477238e-01
9.938083625489221862e-02 2.976155008653909653e-02 4.732841333703782238e-01
-2.869273945563198813e-01 -5.933095027407513378e-01 1.832156079675215377e-01
1.357582723927612534e-01 -1.240854884871358393e-01 4.616410454744420688e-01
-7.219358539026328181e-01 -2.607406004531280796e-01 4.616097458646770124e-02
5.112897997027727737e-01 -3.211587279927832772e-01 5.964596192455857704e-01
-3.085898654028585431e-01 -2.957146988368861140e-01 2.279081098671155436e-01
-5.286813250139049680e-01 1.129431634956593183e-01 2.026336170702355277e-01
-1.006352272285204325e-01 -3.093514307881294334e-01 3.200709108877298203e-01
3.729640835147735589e-01 6.800815343503380239e-02 6.048325668268625943e-01
-5.542441397608979248e-01 3.151962762929719220e-01 2.280731404279122687e-01
-7.927038296367009407e-01 1.663481555631345088e-01 9.223837293404647808e-02
5.714134113685778171e-01 -1.341401772444405505e-01 6.581115723086040648e-01
9.784501130863725027e-02 -1.802739502783562708e-01 4.340824687261255477e-01
-8.128373605876730232e-03 -5.932243131843883965e-01 3.101427641805749036e-01
1.941606311467964918e-01 -4.708631837042248081e-01 4.246568985227732740e-01
4.621431567478588853e-01 1.240901959007617017e-01 6.557082422722153581e-01
1.435290142753571085e-01 2.999188554976579546e-01 5.429044776502931491e-01
2.316577454699415006e-01 1.501830610075841933e-02 5.307949884434002286e-01
-4.301729226861197297e-01 -6.952770181812277794e-01 9.931697987186351162e-02
-4.487625161030321386e-01 2.492676774708114384e-01 2.640035518197518249e-01
2.375179369883348435e-01 6.806332592258228509e-01 6.554794418085976293e-01
3.212893213452957530e-01 -2.984395888764418414e-01 5.141346316736080668e-01
-7.287279544553461053e-01 3.732771096152995294e-02 9.770938851529704927e-02
-6.705648332569389414e-01 2.297517618428553676e-01 1.594598170205356602e-01
1.572957313578560168e-01 -1.001573295675702302e-01 4.758314463018588625e-01
1.396746070221661085e-01 5.128570917259264728e-02 4.955718691072076298e-01
-1.753751550251239633e-01 2.648913404943034067e-01 3.913157041752315934e-01
-4.290321591307789117e-01 -2.125511206591004232e-01 1.883269030199331284e-01
-6.670069868583549111e-01 4.070192682632836068e-01 1.935750747704774177e-01
-3.481987237177968514e-02 2.273555946087701604e-02 4.109069339059299719e-01
5.279401104485731411e-02 -2.868595544397809505e-01 3.940362110605932777e-01
-2.737748324784008425e-01 -5.153928159400142928e-01 2.034860147762836691e-01
4.287746180905996907e-01 -1.472765934546307887e-01 5.907731599752457097e-01
1.086945166312053151e-01 -2.116893623853492168e-01 4.332623507639276617e-01
3.324520748894682076e-01 9.463727756566775451e-02 5.912726807088227732e-01
-1.762113480445442193e-01 -2.645452651858521409e-01 2.938816756040550926e-01
3.968707598544530257e-01 -3.903749268308901454e-01 5.316868287126230719e-01
4.779003084332423268e-01 -2.900716331474317844e-01 5.869591703861769538e-01
-2.580873306432768799e-01 -2.376235910841036636e-01 2.615462070031078778e-01
-6.253820203825236623e-01 -2.313569815389687756e-01 9.549949261569563863e-02
-7.635571572006653041e-01 3.824279690544011845e-01 1.451167257602509475e-01
2.423959426041096682e-02 5.643870158093847733e-01 5.370838201546258572e-01
1.788916903347261000e-01 2.492393061570669088e-01 5.497115557099876426e-01
-7.054540596865173097e-01 -6.386959577235785668e-01 -1.562106431999381144e-02
3.843694864847775339e-01 -2.799717518738265368e-02 5.924252320776549618e-01
4.429661710089180526e-01 -3.587748117955161242e-01 5.584625859126234326e-01
-2.714198199796087618e-02 3.794282727880544659e-01 4.797889039352493668e-01
-6.706384370643039272e-01 -4.423051775710402089e-01 3.622855531604952939e-02
1.541445729896674943e-01 7.515802958129295941e-02 5.065348547021499837e-01
-2.885648775996516036e-01 -6.405073355353371189e-01 1.738181672625397078e-01
6.747802414981428354e-02 1.545204283030342518e-01 4.816318253599163324e-01
-9.516386464691008185e-02 -2.390568192222872479e-01 3.354475377484132936e-01
4.863488942531974391e-01 -1.968762691177144974e-01 6.078890921597385200e-01
6.704689633073207533e-01 -3.847864025169265845e-01 6.572553721408130878e-01
-7.704825793425617020e-01 -1.488813332962294067e-01 4.456753910405161778e-02
-1.317058867411772527e-01 -1.529514529874162754e-01 3.345976765450008883e-01
2.956490698687780916e-01 2.159511057780626742e-01 5.967582382793749085e-01
-3.709389477205950886e-02 2.479746207036348515e-01 4.511613582189461513e-01
-7.769643218541948393e-01 3.897236275462654942e-01 1.403510771082963071e-01
-1.267261010430251744e-01 2.812155723711945998e-01 4.164536096623245309e-01
2.233011573708810205e-01 1.510579230753918145e-01 5.519290321113592412e-01
-9.363782821417627744e-01 2.871245865634394767e-01 4.897668187115968713e-02
5.195699225413531464e-01 -2.815577501794149229e-01 6.074882292194184741e-01
-1.606063628360130391e-01 3.539999502610311627e-02 3.559694936069850435e-01
3.736724330583636733e-01 -5.027318784862805368e-01 5.005301109754233257e-01
-5.368949858338359915e-01 2.587149321061585350e-02 1.829331966596142722e-01
3.429635347295292291e-01 2.209071177590932467e-01 6.192046690250546659e-01
-4.730801050090069904e-01 -5.318196992645919385e-01 1.097493785595616278e-01
-2.017609622539347503e-01 8.162355677233402995e-02 3.457090388317575758e-01
-2.726293904176990690e-01 -1.780629477446444772e-02 -5.609797140811966232e-01
3.028434405188810685e-01 -6.510634598644302919e-03 -2.969492300888794123e-01
3.748338025262125117e-01 4.959887053441295879e-01 -1.720632462271815821e-01
-3.946374016523932493e-01 -3.007246012472775121e-01 -6.683817519758233905e-01
7.632901849087073698e-01 -1.923048753472774430e-01 -1.214089681067128529e-01
9.349183612836815815e-02 -2.386851729221158847e-01 -4.348087021854117884e-01
1.266827329662555124e-01 -5.598056941438898093e-01 -4.785659767794815944e-01
3.051052628824825197e-01 1.848511990016883377e-01 -2.608402388123972071e-01
4.576492644377354035e-01 1.366111773710533273e-01 -2.002440853241060359e-01
-8.738651211579162581e-02 9.437540143866987238e-03 -4.716614882966294608e-01
-4.057154934089417242e-02 -5.665721791066006263e-01 -5.559418556787213417e-01
-1.179844370532083103e-01 8.898957193860285164e-02 -4.710068700088522742e-01
8.230280673179500850e-01 -2.903119024082873034e-01 -1.121819126945082096e-01
4.336809735076295191e-01 -1.283154927946398571e-01 -2.597195328339243492e-01
-4.513835395541315743e-01 1.131349773654991009e-01 -6.183466006693456585e-01
3.463715334980735361e-01 -3.827187225117352765e-01 -3.460992781692113218e-01
-3.014335106729044145e-01 1.030523997716943918e-01 -5.519364329010063575e-01
-1.563641631024574596e-02 3.950463226912619315e-03 -4.400061325263775469e-01
-5.122191236968176575e-01 8.578875719300797786e-02 -6.510524018203500685e-01
-4.176665361279187638e-01 4.074148965989273785e-01 -5.490525863387252237e-01
3.011347354561707546e-01 8.983821812219490444e-02 -2.800649081168819499e-01
5.155074839372186801e-01 6.272870821094043148e-01 -8.395857220621180672e-02
3.875365884915025205e-01 1.546764462987426370e-01 -2.288483099958401601e-01
4.621191861138670420e-01 -6.292227211357263351e-03 -2.244056021080021723e-01
-2.607754232591691368e-01 2.135031030418385323e-01 -5.131813356635492873e-01
5.667869746773397388e-01 6.894225033724548091e-01 -4.922541734855404028e-02
6.197725872042504358e-01 2.312262094693977588e-01 -1.090999509579777538e-01
-4.580939536266965262e-01 3.301628206522933540e-01 -5.816168922638557115e-01
-1.900287352541680519e-01 5.361808004267052397e-01 -4.218253898984558603e-01
5.256921991433272101e-02 2.911773269827699906e-01 -3.563055443289296909e-01
4.888169782088193638e-01 3.756894682674200570e-01 -1.422297848246533714e-01
-2.787467508238781755e-01 3.257400332174796853e-01 -5.007873748842978090e-01
3.870735015963615022e-01 -6.337984340751883806e-03 -2.585753846653066623e-01
-3.982380385548417445e-01 -4.305187212706946820e-01 -6.938139299910232038e-01
-4.200771832073368905e-01 3.869260815689556932e-01 -5.539058282471540640e-01
-3.374394178758232665e-01 4.751642474410009420e-01 -5.001131258913958932e-01
-5.357148304887984214e-01 3.367768788835424632e-01 -6.157380824581959455e-01
1.060289428485685637e-01 -3.137973634635952136e-01 -4.428708619755003517e-01
-5.590092911170502221e-01 2.533770421609652379e-01 -6.416303031217118757e-01
-1.215746991677793890e-02 2.621799346374804607e-01 -3.910852915879218239e-01
1.610486601478538782e-01 1.776779989483402156e-01 -3.277309055625349798e-01
9.889613613462296948e-01 -2.628456970118113745e-01 -3.161280007742963555e-02
2.225451061084814941e-01 6.193527180993066983e-01 -2.187718687200336520e-01
7.666272272164823542e-01 -5.039271097851492909e-02 -9.387536766849989556e-02
5.001359870000937624e-01 5.947760560225834325e-01 -9.691554158329676594e-02
1.310628407591928925e-02 2.319957936782651997e-01 -3.851182186909268279e-01
1.097902721754294292e-01 1.924709194883061636e-01 -3.483523766380133835e-01
2.212724807035897356e-01 -9.811205850393846239e-02 -3.508728478971595566e-01
9.042834467650903152e-01 -1.880228389027099184e-02 -2.542217558176181752e-02
1.741501413124295350e-01 -2.854935612612169438e-01 -4.066730523958997368e-01
-4.593356596972821282e-01 -1.376299905793995290e-02 -6.452287035820905015e-01
4.913498011806552435e-02 5.630615513699127345e-04 -4.111426355787970999e-01
-4.986097713139073240e-01 2.333593281833158672e-01 -6.178054960726188094e-01
2.318168842113773054e-01 -1.443498932840978632e-01 -3.545490150870850288e-01
3.342033071581304582e-01 7.552064880128604996e-01 -1.430402035169443808e-01
-4.999264203693298825e-01 -1.015787266835625757e-01 -6.798038347538045700e-01
2.235042909726877025e-01 -4.634690756146540025e-01 -4.168321352853145423e-01
4.620096056722116096e-01 -3.226806665121323414e-01 -2.824540607129254477e-01
3.880699315973659691e-01 -4.719594813015808854e-01 -3.434769562508132590e-01
-3.396848186537058112e-01 2.929004395824562623e-01 -5.345468422316931312e-01
-4.015732812361936244e-01 -4.589948341698417145e-01 -7.005522424139168924e-01
6.868930386482942074e-01 1.353106393048958689e-01 -9.612889689583889452e-02
2.401471259169760952e-01 -1.264016840045814882e-01 -3.474668562318282139e-01
-1.942047906196167351e-01 4.555913226141273253e-01 -4.384995804483162174e-01
-5.769445169314347810e-01 2.302925991196781985e-01 -6.540262733427919528e-01
7.240997010907935794e-01 3.522642909289104285e-01 -3.942138511545629359e-02
-3.256259621699360562e-01 -4.192835471025823657e-01 -6.587007633100518955e-01
5.479112365998191070e-01 3.682590449824073020e-01 -1.166917107605711657e-01
5.580388311218704711e-01 -1.991769477880866446e-01 -2.161007729513239051e-01
-2.154584262294114150e-01 -3.894825071866565014e-01 -6.030886599666595016e-01
-6.720720279606808845e-01 4.091907793828177820e-01 -6.645344519102293068e-01
4.075712534278757571e-01 2.372019345669191814e-01 -2.046002550682634591e-01
8.577959437098475748e-01 -1.819641794880025865e-01 -7.649359324300772367e-02
-3.394789976419844701e-01 4.530249071239060843e-01 -5.051000201529021183e-01
-8.491935170794516485e-02 2.103843986821160583e-01 -4.337019518081837721e-01
1.106651969388909168e-01 -2.105827212441965246e-01 -4.218396654389774958e-01
2.036011738584785069e-02 2.912129348242577520e-01 -3.709608574635018252e-01
7.270627628936885412e-01 3.602501784425454212e-01 -3.660864705366290855e-02
5.298063447113162683e-01 -4.961256401437653951e-02 -2.015351114888188355e-01
1.344799761500370915e-02 -3.500378640275625397e-01 -4.916578551192724023e-01
5.797055681679927908e-01 7.923558402778679843e-01 -2.447560113907919568e-02
3.543448153182366944e-01 -1.500598749215416583e-01 -2.998200450335018474e-01
1.497146893208511353e-01 -2.548931759290041024e-02 -3.701337269949264708e-01
-1.856208349238885058e-01 1.770922910309228604e-01 -4.856449955981486100e-01
4.013723602955324155e-01 6.477028882396244081e-01 -1.321712789959949286e-01
5.210378081532358180e-02 5.640907209472485473e-01 -3.064884437797238959e-01
5.732350910188267479e-01 6.536717282960142761e-01 -5.284381744000193892e-02
7.109378947524214176e-01 2.154999639150077806e-01 -7.048362352444610679e-02
8.219824618878904254e-02 -3.488462639290591527e-01 -4.601437556662112960e-01
-3.464363033323701324e-01 -1.029205640706874897e-01 -6.101798865062405541e-01
4.501427605949681054e-01 -2.605639388847681981e-01 -2.764690487728002077e-01
-2.015758943562380723e-01 3.993333083245995674e-01 -4.521678733606709355e-01
2.195203022135337190e-01 1.853102575937086438e-02 -3.302880892278568514e-01
-2.348809155110209712e-01 -7.859036703772336041e-02 -5.549389065316242542e-01
3.933102127378762525e-02 -3.469592022090465244e-01 -4.793113329124984445e-01
-2.243646512408909444e-01 -4.798766399147089690e-01 -6.237133965425259996e-01
-5.066819490700988360e-02 -3.638073307205640372e-01 -5.233682001231424463e-01
4.256265601220273198e-01 -2.681961454586296867e-01 -2.890281127648799409e-01
1.140631618262859248e-01 2.837248670450675126e-03 -3.811699176131596034e-01
6.542404061951306860e-01 2.147169385799143904e-01 -9.643631274861912128e-02
-2.603906070133756301e-01 -6.129635153832017069e-01 -6.645094482239380929e-01
-6.316059364489648442e-02 5.678218641650834009e-01 -3.582737345707991961e-01
-1.318346955018589138e-02 2.104160402862231827e-01 -4.010414052841055899e-01
-1.589677241961120202e-01 2.641405235683221830e-01 -4.575550868822542139e-01
-2.425949390598404198e-01 -1.414139602250780448e-01 -5.699668648468120269e-01
-2.394868787739277138e-01 -2.374537215610074692e-01 -5.861575282303203016e-01
-2.058592007320128314e-01 -3.854286436597457732e-01 -5.979758840846086665e-01
-4.110566235916339184e-01 -4.453560207403047810e-01 -7.023689437970953575e-01
-1.858626237583495960e-02 6.523044137355751837e-02 -4.301154197412275226e-01
9.534319552800601949e-02 -3.728428802880117132e-01 -4.585589966341365176e-01
-3.110585336961474989e-01 -3.545036233752206778e-01 -6.401944566869811615e-01
-3.661581293425463790e-01 -3.205295603982194486e-01 -6.590482953392268195e-01
-5.082547106850928698e-01 1.332412139595897521e-02 -6.625315851394479871e-01
-3.722069414432185863e-02 -4.151024225537709444e-01 -5.266499226286042168e-01
5.139031683702318665e-01 -3.887942197344397832e-01 -2.709512672311559789e-01
3.071224354393383149e-01 4.345517868505538450e-01 -2.141482766987963804e-01
2.094746528040933586e-01 -8.421820913973744605e-02 -3.536963697991241662e-01
5.628503056206068944e-01 2.243352788429184563e-01 -1.362746351379722776e-01
1.943219879070608724e-01 4.015652654705522684e-01 -2.715428472374978863e-01
4.780530597847170160e-01 7.670576615281421429e-02 -2.019376430796405164e-01
6.240159443292149222e-01 3.943490918297259396e-01 -7.726555741138564637e-02
7.011610515991691939e-01 1.609475047199689923e-01 -8.493437530655126300e-02
5.445361256847902620e-01 4.456588029381344795e-01 -1.040395931569690208e-01
4.887327123280383323e-01 -3.046014514950973195e-01 -2.669753076724685203e-01
4.431430598915014341e-01 -2.226849308162137109e-01 -2.727115983985519132e-01
3.670161050141106940e-01 -3.280038631348675127e-02 -2.725566126853716242e-01
-1.775342121821097546e-02 6.656127194113741104e-03 -4.404738227225679092e-01
-1.040680281188235551e-01 -1.742424366592864593e-01 -5.129262437667616581e-01
-1.355548212469874780e-01 2.191571166235610144e-02 -4.913006577911475659e-01
4.625009511564088238e-01 -2.780434192528756787e-01 -2.740477433347026093e-01
3.562680321590420696e-01 -4.137573792179540799e-01 -3.472841476569409891e-01
-5.450598344378964066e-01 -2.020031131609625538e-02 -6.854310846190199147e-01
-2.306701927310605971e-01 4.388373256218315310e-01 -4.581701725140512327e-01
-3.510859473716158030e-01 1.705558663480840065e-01 -5.621642567195027640e-01
4.482509308096358502e-01 4.134586064092256597e-01 -1.537721441424452495e-01
2.345408922087301173e-02 -1.211998679840772669e-01 -4.451536880908779081e-01
-1.831573752732271188e-01 -6.236417766409378949e-01 -6.313097443768971306e-01
4.234909407183907737e-01 2.191060856102905463e-01 -2.006707171674550483e-01
5.492191923250044905e-01 2.005838314173868236e-02 -1.799265360654475621e-01
-1.623520706370647493e-01 -9.508306213390026185e-02 -5.249465469511419569e-01
-1.073137605458290289e-01 -5.539720545394530848e-01 -5.840136578981763860e-01
6.077850426862281275e-01 2.299492349423913062e-01 -1.147908648073632520e-01
-1.493480099799598948e-01 -5.913509614873484477e-01 -6.100000780002624579e-01
6.171192922914173762e-01 -5.808757400028992379e-02 -1.633431527114432846e-01
-4.468583185229861865e-01 9.290942819915691542e-02 -6.199943196108241850e-01
-4.724962136415166158e-01 1.316356530009182846e-01 -6.245658170259177355e-01
7.252705927242849571e-01 1.601027788391338746e-01 -7.411437021275206483e-02
-2.999964301812700351e-01 -3.576520795271020958e-01 -6.357360564157129579e-01
8.556063299851101034e-01 -2.412758035114856703e-01 -8.836300137011007805e-02
3.923500399747786860e-03 -2.300240500811772393e-01 -4.739932144727069807e-01
3.860821844414721316e-01 1.659066115457570045e-01 -2.274517146217888974e-01
9.366239605507119537e-01 -1.981033503860455680e-01 -4.356899420425023456e-02
-3.960922671635033754e-01 2.031045962027683005e-01 -5.766848398126440678e-01
2.920206240900996564e-01 -4.537805331823712707e-01 -3.838669035977392840e-01
-2.349819118554528352e-01 1.574605473466118566e-01 -5.117133343646839139e-01
2.957149150435138818e-01 2.673807682852102907e-01 -2.499859364640997506e-01
-3.727044587089785033e-01 -4.683700267371291859e-01 -6.891295323529554873e-01
-6.010727770091478517e-01 4.604750542705204341e-01 -6.228138768654960522e-01
-4.369342111834589870e-01 -1.046134187325340054e-01 -6.516855812649768875e-01
-4.266274674716838966e-01 -2.395052832793644892e-01 -6.717214989122478608e-01
5.319802566719132875e-01 -2.891455769353868943e-01 -2.444553949429431605e-01
4.904288504669249704e-01 5.351930225439121003e-01 -1.122567393767488625e-01
-3.230046336584461164e-01 1.742860988482478890e-01 -5.486976130036934629e-01
-9.404871882633793201e-02 -5.473976700015350527e-01 -5.767701252564321202e-01
-2.828946765434658395e-01 2.141584123648982985e-01 -5.231300686400426336e-01
-5.174493823035924978e-01 7.227050497909427718e-02 -6.559113484259995186e-01
1.283308117552424410e-01 -1.387722017743319991e-01 -4.006342297827013565e-01
-5.369791386409631384e-01 3.572192653641953486e-01 -6.125662205295703266e-01
3.185150916795935760e-01 -4.076033998151989413e-01 -3.633414740836549695e-01
-2.446924136945072825e-01 -1.887278118210059807e-01 -5.795949653200793694e-01
5.792936540032634918e-01 -1.581036792510819022e-01 -1.988960837700416429e-01
-1.806395011166780640e-01 1.751101085183108252e-01 -4.837408154096668467e-01
8.518217550566914431e-01 1.049829042026045704e-02 -4.393193736865740051e-02
-1.477706692904253716e-01 -3.655899135185318172e-01 -5.678967947506836644e-01
-5.186447083838719996e-01 2.830393106332713682e-01 -6.178185000643134916e-01
3.307065018832051062e-01 -4.871241906484452544e-01 -3.723691578806383462e-01
5.743798495120679970e-01 -1.339734572111999679e-03 -1.723957885279695512e-01
-1.339687755282021608e-01 -2.403735309352660887e-01 -5.386600886641911279e-01
-2.104033478154531539e-02 5.971051647959072506e-01 -3.337322040111745380e-01
5.693685113064216319e-01 4.613694539639193737e-01 -8.985570345829614614e-02
6.718002636964595098e-01 2.441259369237078758e-01 -8.305183072360390606e-02
8.120386793486058519e-01 8.397738920463590495e-02 -4.857172947938877966e-02
-2.751089031350420488e-01 2.062707194045804437e-01 -5.210318506337131561e-01
4.891140201014097522e-01 6.149372803991252079e-01 -9.823698488259942352e-02
4.231590819835845951e-01 -2.067388946560550778e-01 -2.788853256073391407e-01
1.243867204870535703e-01 -9.657195960078011898e-02 -3.946936968957785452e-01
-4.946539915980830981e-01 2.636242709466292689e-01 -6.104567918532759485e-01
-1.785052160484306913e-02 -2.668856123184615292e-01 -4.906621805623344601e-01
-7.384381102112978768e-02 -9.088425064908212114e-02 -4.838871778223753917e-01
5.329865336817986021e-01 7.079527049946625628e-01 -6.121479393620675447e-02
-5.639208490251292755e-02 2.241098358005889912e-01 -4.182000411222751013e-01
-7.631848668886044573e-02 5.964835171541086334e-01 -3.590092169978900127e-01
4.217966357842315439e-01 -2.110488428614380463e-01 -2.802955978314182195e-01
-1.082530901313063787e-01 2.215283056154999375e-01 -4.422808164800777209e-01
5.103707896422633450e-01 4.684289833308543649e-01 -1.154178234530175845e-01
7.792334868814655702e-02 6.802755299968665792e-01 -2.734368145604043066e-01
2.721651813679544230e-01 -1.007312294244480655e-01 -3.281862162343287537e-01
-9.576826697095559837e-02 -6.145127150810036909e-01 -5.898560357164295276e-01
2.190507645577078055e-01 -2.856495480913151530e-01 -3.862625249357936053e-01
6.630748370053574092e-01 -1.189002617102857956e-01 -1.535716671012812284e-01
6.943073037076347154e-01 6.327871790655884565e-01 -1.559219733001869198e-03
6.648312776366778198e-01 -4.819620618124971501e-03 -1.318594898945976424e-01
-3.874741136726618240e-01 6.826829028309805425e-02 -5.974792325070831245e-01
5.412912396604554477e-01 6.339903607852549472e-01 -7.099279286484662388e-02
7.044264390117248587e-01 1.012413956738296428e-01 -9.439293818357116783e-02
-4.038406803438410186e-01 1.946008780966111962e-01 -5.817708338553206904e-01
-3.944804269826254206e-01 -2.279740213155609929e-01 -6.549740623914546145e-01
-7.412835540404877355e-02 -1.423759629520093828e-01 -4.934558802642642350e-01
-1.212776051126002314e-01 -6.374240961412952489e-01 -6.056680775620818524e-01
2.874005323867732664e-01 6.067736305206322678e-01 -1.915550896754362464e-01
-1.393323345513648448e-01 5.774422666270410121e-01 -3.911841601340553809e-01
-3.911815981902062034e-01 4.959514102394997348e-01 -5.207664077686595672e-01
6.931607889244578713e-01 6.486413794377842920e-03 -1.168911106056072791e-01
6.563076442961699453e-01 -9.523262981497448987e-02 -1.523135280176895201e-01
2.812608889878336904e-01 6.301575685212114086e-01 -1.900632903305118082e-01
3.910668418176428962e-01 1.073266284568624718e-02 -2.536282878067087632e-01
-1.200998540565318407e-01 4.734283300793387106e-01 -4.014966403752722179e-01
-6.207138208970444104e-01 2.719132024624489885e-01 -6.663207513448857755e-01
-2.077033086370736747e-01 1.028901855382104574e-01 -5.092994329864892755e-01
4.967892166855056302e-01 4.322391390417146262e-01 -1.282343857285503930e-01
3.570762935427134188e-01 3.460977505554407307e-01 -2.076237858794091340e-01
5.247794527801895592e-01 5.527615038583948426e-01 -9.339951430387381792e-02
3.682900675879680619e-01 -5.210344697480577547e-02 -2.755152249439190570e-01
4.975364509045536732e-01 -6.903192052694730185e-02 -2.197844736333513516e-01
-2.118058967734294806e-01 -1.765441490385648016e-01 -5.623913187194163887e-01
-6.460956348043171704e-02 2.007342880152406805e-01 -4.262257789430986543e-01
-3.452666581937408607e-01 -5.719850638389756270e-01 -6.956337613877515702e-01
-2.975629953600637534e-01 -2.605728019665322637e-01 -6.168323018686846515e-01
-5.682365815686542948e-02 6.111411253428643553e-01 -3.474480638730080284e-01
-2.592015778150504879e-01 5.089890327657635438e-02 -5.422726101461066150e-01
-4.739981720059905368e-01 2.803712530347267085e-01 -5.979841338772415860e-01
1.501452544563697256e-01 1.996891061980106130e-01 -3.286592685692525939e-01
-2.111529547267319840e-01 -4.565391099988473471e-03 -5.305679007032679806e-01
-1.745253848581670153e-01 -4.735708647993827625e-01 -5.998702248872953557e-01
1.416574153215487131e-01 5.518391520443088893e-01 -2.679688042964452621e-01
-1.127454934957743959e-01 -2.770507528231316297e-01 -5.357225464957656724e-01
-7.426164185400518924e-02 -5.984912084452695957e-01 -5.771290744169305098e-01
-5.014555683849382106e-01 -1.960153992270466661e-01 -6.978115230103396627e-01
-8.012511832195343131e-02 4.815733756432409307e-01 -3.818067169368434821e-01
6.734004107343142254e-01 3.478549609907815587e-01 -6.330840071988053097e-02
7.809177283617234622e-01 -2.157702960412952176e-01 -1.176863206057343347e-01
-2.843489139246010433e-01 -8.741202933667752140e-02 -5.790742725507552757e-01
3.836357525237417132e-01 3.509322337283702908e-01 -1.946474774666323571e-01
9.563010845284394823e-02 6.493490158593108186e-01 -2.710458334968097738e-01
2.171965258595032200e-02 -5.875098001438859574e-02 -4.344954331553799731e-01
-2.437770431877794297e-01 5.136321832203433191e-01 -4.504255363384666033e-01
4.957089251081053249e-01 -1.950668193194795771e-02 -2.115376854667664619e-01
2.850259682186098709e-01 4.585049670278620870e-01 -2.198158006026440514e-01
6.112845603017871277e-01 5.319318928728723472e-01 -5.784006781186796370e-02
-1.420147143329745787e-01 4.615676936429653487e-01 -4.136466858935299862e-01
-1.374587503989011528e-01 5.571139331065610989e-01 -3.940577672069510151e-01
7.452726250088712590e-01 4.938762848753321943e-01 -3.823774580284597553e-03
8.235336224364830926e-01 1.665369368845700804e-01 -2.820478051930759220e-02
-2.308326451463734996e-01 -1.214187345828262599e-01 -5.609471607271834248e-01
6.006391886922700651e-01 5.233164843975814939e-01 -6.426525491527958212e-02
3.683074180749735804e-01 -2.346825907563589719e-01 -3.089767244822115289e-01
-3.698953134156606759e-01 -5.879615969467942849e-01 -7.097736514132561014e-01
4.251555937952389286e-01 6.798670812302756161e-01 -1.154487995150160068e-01
8.391543629351657652e-01 5.821167523149798489e-02 -4.095168188065070186e-02
-5.807666223187429172e-02 2.377376109503483992e-01 -4.164687058914691153e-01
8.565834861987478011e-01 6.029639365346730479e-02 -3.263564681312134536e-02
-6.482214445455003471e-01 4.159046689075573400e-01 -6.524467229121838630e-01
5.446102027443433524e-01 -9.927760387538915599e-02 -2.039005972370165898e-01
3.095598849603208857e-01 4.628113759258090099e-01 -2.078583388371780249e-01
-1.637720079918042471e-01 -4.386940585112374114e-02 -5.162047098914582799e-01
-5.015165934086759369e-01 2.859660405701907049e-01 -6.094851334839932466e-01
-5.275125693611577571e-01 2.263159421538380733e-01 -6.322534349730949410e-01
5.881763443357966858e-01 -2.781255101398025786e-01 -2.168543496540579762e-01
1.820771712435325373e-01 3.644427591850797898e-01 -2.839218778108601460e-01
7.885290154653965544e-01 -2.889440470489129109e-01 -1.276354088022271516e-01
1.880974371273702872e-01 5.462835162059122007e-01 -2.478473640799761235e-01
3.410465968102016077e-01 -4.582589576908815410e-01 -3.623708494677883030e-01
-1.712384568515989969e-01 -2.486186636990046772e-01 -5.571369971739122962e-01
3.872257138093757600e-01 -7.472925715065074914e-02 -2.710432058704702052e-01
4.478246733907377819e-01 1.926078319699938979e-01 -1.944513209460422554e-01
7.817120928009135827e-01 2.847984809792168392e-01 -2.556322323441038991e-02
4.369297262012564187e-01 2.063814072064618366e-01 -1.968858923290199014e-01
6.684419427452278351e-01 4.280368424162270258e-01 -5.086703642623711247e-02
-1.506738116819372406e-02 -4.523662236987362473e-01 -5.233965514122852491e-01
7.976332505794769823e-01 -2.588872808158442784e-01 -1.179812483589286753e-01
8.710636608835675698e-02 4.367499860964606517e-01 -3.138983859418861266e-01
-1.380726742122600527e-02 2.382113851752300782e-01 -3.962300743439882700e-01
2.830378473635952741e-01 1.767160742757365732e-01 -2.723767885177378889e-01
2.818383081270597335e-01 -1.959171476604232021e-01 -3.412318871673075127e-01
4.715114835768768331e-01 -3.802801983830105814e-01 -2.886875572749719732e-01
1.085017191332720843e-01 1.311151448698553434e-01 -3.601863371177833062e-01
-5.111494566787361249e-01 2.388302900459867983e-01 -6.225107545099903827e-01
-2.175683631969707946e-02 -1.129523893273496615e-01 -4.642221801570881601e-01
3.047099990239131584e-01 5.592399168933886999e-01 -1.923892994639495035e-01
-1.374799191232716211e-01 -2.494069866116890299e-01 -5.419143523273850516e-01
-2.390944498627834702e-01 5.801965588837301180e-01 -4.360917697291316064e-01
-5.574425710718509119e-01 1.650130329426364451e-01 -6.571155205116638864e-01
1.739614889758207272e-01 -4.989809367198557166e-01 -4.458942519426513651e-01
4.741485618696144044e-01 -2.940787671832418293e-01 -2.716851691537315872e-01
-2.906490616478221156e-01 -6.827174687730920288e-01 -6.910702467768961021e-01
7.073107889490884981e-01 3.862477251164535552e-01 -4.083417695864568348e-02
3.049269922943689815e-01 -1.091540537088960122e-01 -3.148168038999354379e-01
3.399223388028676518e-01 2.031100949620293639e-01 -2.416441082403723017e-01
4.707214827677018154e-01 7.891275950194143185e-01 -7.467781077858076655e-02
3.701906012764313858e-02 5.889277451004796271e-01 -3.088021433099010227e-01
4.154519741826367962e-01 3.836526199845259888e-01 -1.741663593860122983e-01
-5.497143219177604845e-01 2.655963680478303779e-01 -6.351591797910255410e-01
-4.563523654644919270e-01 3.088277037504558731e-01 -5.847351429195972727e-01
6.831622056515329611e-02 -3.123644894468936561e-01 -4.597753276549269019e-01
-3.520663065182406681e-01 -5.324094369216652023e-01 -6.914742308013189787e-01
6.126920967282177208e-03 -2.468334828999337316e-01 -4.760716119857115736e-01
7.762833355116603995e-01 -1.509262575993887967e-01 -1.079090831654932192e-01
-1.119364611016830657e-01 -3.276162174769012836e-01 -5.446236494697216379e-01
-4.269061093442785143e-02 -5.446237963185664999e-01 -5.528830134356079729e-01
7.337672148126703764e-01 4.048699384462781659e-01 -2.537727969960412375e-02
7.349041269066155513e-01 4.645646405567487869e-01 -1.391684600395905885e-02
6.879548488158826469e-01 -2.265427461550395191e-02 -1.246028057320330423e-01
-4.738438108396834103e-01 4.631909788635706904e-01 -5.644003676550408688e-01
5.160134418840935933e-01 -3.112109965232665032e-01 -2.557685270159926749e-01
-5.433111582650329563e-01 8.338311645850657317e-02 -6.656467328735741207e-01
2.870844318804173789e-01 -4.471733723009714556e-02 -3.111266977703079917e-01
4.358239825253880650e-01 -2.315815256942644895e-01 -2.776741753458920603e-01
-6.284317166212426420e-01 3.827959879598182846e-01 -6.495075808519624738e-01
3.442141649475217169e-01 -5.044703081335982775e-01 -3.694001560388240901e-01
4.836821202845403289e-01 3.761284531421396626e-02 -2.065415475822052482e-01
-3.851777269810939819e-01 2.281454490165237547e-01 -5.671261035249753890e-01
-1.974606264928652211e-01 5.731797073290775257e-01 -4.184260113779121881e-01
3.808740728973210032e-01 -2.302558555329768664e-01 -3.024447983105126303e-01
8.622198677464438799e-01 -1.264521821716748373e-01 -6.430363575526484854e-02
-2.608535849577310328e-01 -5.632474543934913314e-01 -6.556065264784052271e-01
-5.431539406792685459e-02 3.377649324520479723e-01 -3.964200919172453097e-01
8.268141520821339352e-01 3.052933582740996812e-02 -5.164361753210507805e-02
2.729591414899794066e-01 6.330534384753903066e-01 -1.933114572125070041e-01
5.318357473006706249e-01 2.810917303227246089e-01 -1.399884312458835600e-01
2.975757695326537444e-01 3.599001003109759678e-01 -2.321787290196681564e-01
7.925905812856515187e-01 -2.739376737006211648e-01 -1.230356663556269742e-01
1.915996879083280494e-02 1.863992704848371484e-01 -3.907210352318263857e-01
6.662081306172067396e-01 1.184813265547557393e-01 -1.086298885625555516e-01
6.521747658021784799e-01 6.197232302968400663e-01 -2.313309804080484686e-02
4.496175330687816052e-01 5.293202496875327734e-01 -1.319109410159140239e-01
-3.248945776101296035e-02 -5.367388647825731551e-01 -5.467939450976468940e-01
-1.062290078854494502e-01 -6.288598215746015185e-01 -5.972478805955568903e-01
6.473244189545371841e-01 3.600220511981859772e-01 -7.294799671654025874e-02
8.217202796753146909e-01 -8.034625110664768421e-02 -7.428748754217959216e-02
7.593581406946223744e-01 9.390306321490672625e-02 -7.073281157862412738e-02
-2.481311049568465099e-01 -5.429825297138130002e-01 -6.461002982533922134e-01
7.759958755157727595e-01 -2.909230968065396050e-01 -1.337033825906527029e-01
-2.939050940971303372e-01 -8.239175424330051623e-02 -5.825040330128870014e-01
-2.861694532373249000e-01 -5.654101103579881604e-01 -6.675269579086481331e-01
-3.737621168212844069e-01 3.790374046935328090e-01 -5.342689488990211011e-01
-3.098955298855330942e-01 5.450116182327680026e-01 -4.747708949819514634e-01
7.984885735785463012e-02 -5.326455991053981043e-01 -4.949062925633199161e-01
-3.652063909114645623e-01 -3.987070526213695176e-01 -6.729461213803505926e-01
7.370737679200124459e-01 1.947800239259209198e-01 -6.238463010323017782e-02
3.657335624640244420e-01 4.174991181138478225e-01 -1.905940246427339224e-01
4.099885303086387434e-01 -3.486641201524425804e-01 -3.108976122950289911e-01
2.339228933958868994e-01 4.426750254556923170e-01 -2.459801854030398971e-01
-1.166587867294106018e-01 5.599647516185234375e-01 -3.840668614540326820e-01
7.603742156284986065e-01 -1.460715469021097723e-01 -1.142611028419277391e-01
4.661857056286003997e-01 4.440455715809170645e-01 -1.400010584058394292e-01
-1.305232649362344788e-01 3.800659078320951512e-01 -4.233561424666241191e-01
4.340793202518331007e-01 1.881022209511166998e-01 -2.015342590739740147e-01
5.875352044615911318e-01 -6.727285145012551482e-02 -1.784938598336659465e-01
8.706521939712447145e-01 -4.558659773900480133e-02 -4.564134239961969292e-02
2.481034911964938652e-02 -6.002496794754239584e-01 -5.323530664960823833e-01
1.117957104529755386e-01 -3.885047045673643007e-01 -4.539407194154542191e-01
6.847667308039129264e-01 -4.006496725377537427e-01 -1.953460857222795721e-01
3.714341049960420138e-01 -3.451206041098721644e-01 -3.277983167032417211e-01
2.471413597389234343e-02 -2.061733905803872502e-01 -4.601569803783638890e-01
1.619961296285682972e-01 -1.265923922391275214e-01 -3.830767731280626531e-01
7.146914344298497257e-01 4.947684889461692048e-01 -1.758102272390157927e-02
8.282412905518126908e-03 4.055676558481792204e-01 -3.554958507216309793e-01
-6.575106786589447749e-02 -2.149833878935410170e-01 -5.029524631902545506e-01
4.726362858042578163e-01 2.618662366350250070e-01 -1.704608096974046527e-01
9.484304413282047541e-01 -2.732708202174303214e-01 -5.197387424870078543e-02
5.461144568123801335e-01 -4.230417492217469766e-01 -2.625664990811635291e-01
9.627664925104527649e-01 -1.890971876023541109e-01 -3.001774509365877364e-02
1.082888388930136753e-01 -1.224384370710181053e-01 -4.067632805081013991e-01
3.402887784651803527e-01 -3.438132913995424478e-02 -2.850129147549357311e-01
4.286254163410427309e-01 -1.123939055157064659e-01 -2.591022055947934666e-01
1.674953345399945170e-01 1.264015608071975549e-01 -3.341960406215552792e-01
9.042248998128245008e-01 -2.983199277304680042e-01 -7.668845328064469169e-02
-3.774279023553241408e-01 -4.934846232178198844e-01 -6.958835503601948913e-01
7.032056186941963716e-02 -3.514701858070043983e-01 -4.660315752060010253e-01
-1.937118398563930921e-01 -1.904991162290767259e-01 -5.567129068930890545e-01
5.245330406324857364e-01 3.845822571305632098e-02 -1.877909121106485502e-01
6.302865506674250051e-01 6.225430472359298056e-03 -1.455598077454055284e-01
-5.951783322182040425e-01 3.477340706394183023e-01 -6.407977313704152911e-01
2.433277860496209088e-01 2.856359677427158239e-01 -2.704865336632322759e-01
-3.012068727369094367e-01 6.078059077773016045e-02 -5.595822994510096793e-01
2.872186915093470905e-01 3.819303604824533238e-01 -2.328548883034274597e-01
6.335758780573921278e-01 6.657533492691622978e-01 -2.316147367885388816e-02
8.969360896307349007e-02 2.000133445934038912e-01 -3.561179025410357579e-01
6.205726220932722415e-01 -3.776739970985265038e-01 -2.203559828151864242e-01
7.528437938056971035e-01 -3.546900044470204239e-01 -1.559317913908101483e-01
3.990975975307011758e-01 -1.336506243924945048e-01 -2.764401684078071630e-01
3.053650525761612555e-01 2.496059505617772428e-02 -2.900322406021400568e-01
7.776144416074214361e-01 1.620603800905793535e-01 -4.992817576654277195e-02
1.878334156117860976e-01 -1.184178850529045285e-01 -3.698169289213769084e-01
-4.232396982249032602e-01 4.767276664748978376e-01 -5.388835010518256974e-01
2.322333395464991623e-01 -2.785431393036334469e-01 -3.789590040687020878e-01
3.162497571999470791e-01 5.694036556752186257e-02 -2.792150817303687416e-01
5.019628942875303812e-01 7.175821960895699680e-01 -7.357177723706860573e-02
1.010385523481876907e-01 4.281654787674525897e-01 -3.091300078958863495e-01
-1.323364885761188214e-01 2.256776871561408382e-01 -4.524831300408795887e-01
1.959807585225132598e-01 -3.926599630550163811e-01 -4.163807325381283508e-01
-3.817192323730979608e-01 -4.514997525963378999e-01 -6.901405640440939626e-01
7.422773559224530304e-01 2.027276853341134499e-01 -5.855899402929870545e-02
4.914690009740478871e-01 6.195989263047291251e-01 -9.631043167783820413e-02
-2.356749381498804141e-01 4.179879990307787119e-01 -4.642703556759695815e-01
