-1.499604062226811418e-01 -4.353848070185022401e-01 -3.372254273655513890e-01
-1.556338613674349003e-01 3.245249412857528770e-01 2.534729236191982649e-01
-4.467376656994243023e-01 -9.289398915933015921e-01 -6.131416257792635660e-01
-2.421384788074149308e-01 -9.313136302569580138e-01 -6.883441056906292044e-01
1.597680027775048861e-01 2.787362072076131625e-01 1.049082174760405245e-01
3.360633920535584518e-01 7.045076481513147248e-01 3.715173216906158538e-01
-2.830727276647037813e-02 2.577290683030299401e-01 1.560736811317808281e-01
2.065443355828296967e-01 3.448122503833100372e-01 1.393213057418442868e-01
1.761291790241295840e-01 4.909631795794105469e-01 2.634431493709983862e-01
-1.523183418984326853e-01 1.938430587444472941e-01 1.510513628065882352e-01
-8.379434922509212957e-02 -3.692787626619218333e-01 -3.097417226100150356e-01
-4.065618930855265933e-01 -6.337130394896358654e-01 -3.988501077777736881e-01
3.820284530025783720e-01 8.793646140812649836e-01 4.904884400171736769e-01
1.855744298728999597e-01 -6.587010439534243256e-01 -6.305309268499408315e-01
1.573422253380319107e-04 -7.745582080812097869e-01 -6.537941784663423572e-01
-1.257040420396423330e-01 -6.597723208990100563e-01 -5.197448587391887420e-01
-4.480605886442763364e-01 -9.559545573639158800e-01 -6.335941698071432260e-01
-1.331429225705092582e-02 -1.898651446224694506e-02 -6.366008759783611803e-02
3.410446015751937843e-01 7.744077466438655799e-01 4.238793002486824224e-01
-7.126291743959191870e-03 9.070374877512993317e-01 6.514654593832781559e-01
2.959317123289954554e-01 5.219839668726116155e-01 2.445154924336730984e-01
-7.255118006758182192e-02 -2.398833570853237951e-01 -2.135370779529518481e-01
-3.561681899742378254e-01 -8.260327165138265926e-01 -5.659003264724340454e-01
-3.346699945309174473e-01 -3.595012476934454915e-01 -2.122104379119165163e-01
-6.385753350637123071e-02 -7.744593224132671760e-02 -9.082224763823160130e-02
2.237408581921028483e-01 -3.058963013048727198e-01 -3.709162062662646475e-01
3.075866662947698837e-01 5.976191877421873633e-01 2.989271609956019038e-01
-2.941861617314288080e-01 3.244960203245336045e-02 7.689785257748717184e-02
4.484738475185900408e-01 6.196318213115282747e-01 2.654609615993584470e-01
-6.752246392913396900e-02 -5.607787985199357284e-01 -4.639218572473771673e-01
-7.727569606028213134e-02 4.508486173212726822e-01 3.232324542836415571e-01
-3.155494050032113806e-01 -4.775773484845918793e-01 -3.105341963872922384e-01
2.205682626296690818e-01 -3.587225162561646918e-02 -1.606044991547199430e-01
-4.164283907636834869e-01 -3.549577944503694571e-01 -1.793745311907806173e-01
1.747355304342104454e-01 -1.329184754181747807e-01 -2.193469838579790165e-01
-1.297034999840587510e-01 3.541626318281596575e-01 2.671338401930872242e-01
2.119352322837973410e-02 -2.158344643006044061e-01 -2.285218882292453235e-01
-2.410575611543386287e-02 -2.554887422852227807e-01 -2.429969898187375466e-01
-1.470157370526574414e-01 1.273014993110198612e-01 9.760358206080242682e-02
2.505159640185321002e-01 4.963181665729905490e-01 2.409183261701996759e-01
3.284442822327709455e-01 8.928756399205229899e-01 5.201685704628037366e-01
1.997590691136966468e-01 -4.789377833696809028e-01 -4.963635592806422969e-01
6.750783478364547063e-02 -7.870774516623996186e-01 -6.876422507622871327e-01
-1.320208519305812178e-01 -6.502092480204176850e-01 -5.100717903743079429e-01
-4.273116674459878639e-01 -3.895033470512322404e-01 -2.022327949493775423e-01
4.030273491412800224e-01 7.359110918684166336e-01 3.718325554516407339e-01
-2.355150052738624322e-01 3.593462408045238615e-02 5.855965510137861596e-02
4.628864073476128271e-01 9.087479628420772615e-01 4.842568006398465519e-01
4.854249038004158912e-02 2.153150497819980580e-01 9.566144641609176935e-02
-1.843463269972822338e-01 8.005732091686597052e-01 6.325391671178893782e-01
1.436778706197070488e-01 -7.057050243607045914e-01 -6.519195968448348033e-01
7.521773685636946871e-02 -4.107886558407179978e-01 -3.989147349273386989e-01
-2.141180154547112080e-01 4.953666152668270151e-01 4.067862236350324734e-01
-1.580103520410526263e-01 -6.685946410175606092e-01 -5.149949103286591834e-01
3.578311456805865487e-01 6.969493291928346990e-01 3.578569505843914866e-01
2.671626012114201587e-01 4.512705387900451948e-01 2.000531580480715554e-01
-4.639624152173472682e-01 -7.949109012234363281e-01 -5.031397593867019680e-01
-7.590131704875811847e-02 6.035206685369626234e-01 4.410070277947946704e-01
-2.876910919134278433e-01 -3.408957671425656422e-01 -2.146430519005384507e-01
-3.647692550252690236e-01 -5.237560658505526767e-01 -3.286576450041578945e-01
9.747687770474722235e-02 3.540444234809485557e-01 1.855816101832356846e-01
-1.786849302937641715e-01 5.611695381175081376e-01 4.450551171318980481e-01
-1.383681942846958224e-01 -1.532779458089786329e-01 -1.228480270859400314e-01
9.988411064467646316e-02 -1.291687425548218582e-01 -1.896025850830211634e-01
-3.520786346249251131e-01 -8.351632925733305512e-01 -5.744397287586777701e-01
-2.601700797903586659e-01 -7.199916466785066804e-01 -5.181779155292625116e-01
-2.577620260185900514e-02 -5.606833491625986543e-01 -4.788169831032282331e-01
2.406052931687914231e-01 8.160151008808034234e-01 4.921252172671396474e-01
3.324846623836909543e-01 2.259426621616300937e-02 -1.554435723988925599e-01
-3.102994120764994701e-01 -2.898556246197592778e-01 -1.669980866797126373e-01
-3.573212129708987495e-01 -5.345068676360701376e-01 -3.396564163041471129e-01
4.077828233966638849e-01 8.907671052238997911e-01 4.900865668704771361e-01
-1.015493538220291897e-01 6.597897449453884455e-01 4.937925451964790269e-01
-9.881588262094551101e-02 3.169735837654032440e-01 2.272498946489239779e-01
-1.670209776737612284e-01 5.478183795482122198e-01 4.305302696912811089e-01
6.572831781444038457e-02 4.370027026309533102e-01 2.612293961076503912e-01
1.138434658274769390e-02 -3.485152121665666125e-01 -3.277857133711286619e-01
2.523592189954635967e-01 6.772525190342279511e-02 -9.175207015919542575e-02
8.643350738355912166e-02 -5.064501946773980467e-01 -4.770406038334635279e-01
3.819824724776697544e-01 6.598178365858452521e-01 3.204330396269653436e-01
3.735019534311150302e-01 4.087885077593785277e-01 1.290140786625615932e-01
2.871369044508190749e-01 -8.802431642800033484e-02 -2.248737819223822210e-01
1.585057917680655348e-01 6.486116059774704734e-01 3.918847499334425777e-01
-8.308150247510150133e-02 -2.981382270461769290e-01 -2.548883216070307878e-01
2.710787507539378360e-01 4.345547007091016822e-01 2.937061277842091811e-01
-2.254709811043482670e-01 -5.572151882268846501e-01 -2.965191797243834637e-01
-1.993624849987437470e-02 -8.748451660549929620e-01 -6.162703327096274997e-01
4.367682919556976212e-02 7.969560449611798880e-01 6.559803899059770682e-01
3.773863052186486877e-01 3.752054299727011766e-01 2.096122447653412935e-01
1.080091706913106769e-01 6.162090241403915813e-01 4.928969142223172950e-01
-1.801321172425678352e-01 -6.131089052256513128e-01 -3.560745161712900453e-01
-2.495816954784065012e-01 -9.980357638588309710e-01 -6.293553499018320618e-01
-3.707518562624173009e-01 -2.138919918981135593e-01 2.152983957858500483e-02
1.699655375888022291e-01 -2.358224392628630317e-01 -1.893450238357986537e-01
-2.062772956113237410e-01 -7.011959448302828024e-01 -4.149361872697278630e-01
-2.885467101073547758e-01 -2.018157293105251326e-01 1.408201667657048989e-03
-5.932748561542126181e-02 -2.662345298831340634e-01 -1.306855498547521421e-01
1.793727516837433263e-03 -7.189693053445705972e-01 -5.033128879682979839e-01
-1.646750664914594653e-01 5.123446833552898205e-01 5.102155111036049684e-01
7.619606627994983394e-02 -9.609751323521082897e-03 1.951377436001953264e-02
3.417202393907710078e-01 7.753696057107818396e-01 5.323882549258394103e-01
-3.924793283936875987e-01 -4.434134995661236367e-01 -1.484780955403578184e-01
3.620303351713139439e-01 9.163784039021918293e-01 6.343380614297597919e-01
3.764797877113684743e-01 6.400009215159726539e-01 4.150610963627716643e-01
3.167194107154797100e-01 8.552283923194238524e-02 6.963143200337938710e-03
-1.050599594067062326e-01 1.262087109233271387e-01 1.897189770158724254e-01
-3.056400102111644923e-01 -7.454932308364766724e-01 -4.136223276901566659e-01
2.092037687959203418e-01 -1.240898473524986584e-01 -1.168611382372976570e-01
4.230870440776274277e-01 6.480916924175060823e-01 4.046165258314862179e-01
-2.000061054770309599e-01 2.513621736932821205e-01 3.207141805587989669e-01
2.505232998540877776e-01 9.031932523494186071e-01 6.641075533625624416e-01
2.289693596804486253e-01 -4.957415878889455674e-01 -4.118485187852709006e-01
-2.941167873855826675e-01 2.098629282627784490e-02 1.759990414503792289e-01
-2.717112847417579302e-01 -6.269400490598999731e-01 -3.339510295741774382e-01
-1.927802433241785074e-01 -8.780016370704910589e-01 -5.567383710908518912e-01
2.194040965251924935e-01 -3.517164426669103228e-01 -2.968496140848967957e-01
-1.409724230090582398e-01 -7.621342136206116225e-01 -4.855585489971342983e-01
-2.610804472967565015e-01 -3.303855106604779435e-01 -1.080370151451978955e-01
1.833153905381318116e-01 -4.798984008399898027e-01 -3.832053329665527364e-01
1.230898110991369004e-01 7.234729340900970529e-01 5.705813860904680457e-01
6.811786379097042182e-03 -2.560821661047804620e-01 -1.465367534168841024e-01
1.146212734805467648e-01 8.500845426462175225e-02 7.903153055751686862e-02
-9.736998154469596323e-02 2.154821372282425540e-01 2.561172117741205567e-01
3.992143790375074497e-01 5.082701197146067829e-01 3.048638431668524995e-01
-3.381485600196700303e-01 -7.812321710594694046e-02 1.150124575971530616e-01
9.850705536488271741e-03 -2.915082230563899035e-01 -1.750692178120720199e-01
-1.035383610436717283e-02 -1.232086129780530087e-01 -3.745114769615463801e-02
-3.116704739854291861e-01 -4.825970924981051180e-01 -2.078075030871741335e-01
2.866947889744789202e-01 6.976426016833588983e-01 4.919076586742782697e-01
3.015394383632331587e-01 2.705438328258120140e-01 1.557327583704088692e-01
5.162557662427963434e-01 7.377485027867124456e-01 4.406614129620951004e-01
2.784925691566382255e-01 6.487899141140114345e-01 4.570050207947041754e-01
5.295303652439176806e-02 -8.916551279448307055e-01 -6.554282687306198785e-01
4.507274613061897361e-01 7.845314258387076078e-01 5.003984543388607653e-01
-2.028827933864696120e-01 -6.269902973544043689e-01 -3.586699658819776926e-01
-4.902538720623827312e-02 -3.578966674256340852e-01 -2.053856651834924940e-01
-6.160088012134689456e-02 4.208824719393777225e-01 4.024047392378404253e-01
-1.512142236353921920e-01 -1.970763913199999051e-01 -4.416413814590824244e-02
-4.851003227860726380e-02 -5.074451681541546355e-01 -3.214181874653450066e-01
1.390392373184271835e-01 -7.205843318346886184e-01 -5.537764480970615022e-01
2.366903409997881957e-01 -1.795552149124160224e-01 -1.696833111047840459e-01
1.891811561482667492e-01 -5.855298991101809403e-01 -4.671360646813260686e-01
8.694112806932850768e-02 1.927279264828072880e-01 1.724017500688968807e-01
3.977660286568764775e-02 -3.547017296830690808e-02 1.254002337803557764e-02
1.194409959721998565e-01 -2.238585436434301079e-01 -1.619604768468347333e-01
-1.377014647331700481e-01 -3.501325658645523253e-01 -1.675743925816100821e-01
-1.582253269803536033e-01 5.402990440379042969e-01 5.295576537211088564e-01
3.692446864867892642e-01 1.302017699656946026e-01 2.273954713978413450e-02
5.029630435205954819e-04 -3.078114772320157677e-02 3.025482763856855370e-02
-3.765625530568477153e-01 -9.876275586586393818e-01 -5.757607779154175764e-01
2.565616137041131783e-01 7.238517187095069305e-01 5.230154795463810569e-01
3.736255354354405811e-01 9.046726808788222440e-01 6.211125031704937127e-01
-8.829865527464485220e-02 1.697114251589503242e-01 2.174082054611800874e-01
3.280922925130281276e-01 7.559659318172945452e-01 5.222438094342561898e-01
3.082109886470340010e-01 8.027866469201790922e-01 5.656423623160852232e-01
9.678901993247859825e-02 8.705790076456570992e-02 8.701329168498250777e-02
7.715415105466537360e-02 -2.620123567254417640e-01 -1.763534199205834541e-01
5.105525171615304253e-02 -6.729594958414824024e-01 -4.853352270276908853e-01
1.079003560874863821e-01 -7.069485351371712634e-01 -5.320479298685752978e-01
7.267398226018534357e-02 8.027131874592871030e-01 6.500425750035688788e-01
-2.909957531769288286e-01 -7.831428865829778152e-01 -4.480386588935880154e-01
1.113113990504216964e-02 3.629068868151290039e-01 3.314142484934055055e-01
1.203194302499587393e-01 -7.456062368144387165e-01 -5.664472541248044557e-01
-2.331269801912936868e-01 -5.760273325404801081e-01 -3.083467737687876076e-01
-2.619271645012315464e-01 8.286515108481962155e-02 2.123911754489722914e-01
-2.277527431239345299e-02 -2.676858293478322492e-01 -1.449164204706202552e-01
-1.367455863055031251e-01 -7.317398277437321408e-01 -4.635291690721228819e-01
2.286228341520572249e-01 -4.496777347670229408e-01 -3.760409053208429997e-01
-1.945270648678526781e-01 3.088224362189265770e-01 3.632611329231304476e-01
-3.032989578389775343e-01 -1.718217709621739642e-01 2.993277020469756883e-02
1.890490065239052997e-01 4.381149762809887771e-01 3.258777139856809946e-01
-1.189060369038832943e-01 2.270508785270112240e-01 2.728011754665060629e-01
-4.795663565971693826e-02 2.152186043265633120e-01 2.381947938638809825e-01
3.494110035799462971e-02 -6.775298410413390648e-01 -4.830975512123105164e-01
6.573388892620660173e-02 -2.117126022794641460e-01 -1.332937273633943986e-01
-1.306102985955829576e-01 -5.109285902927774847e-01 -2.946777136548419662e-01
-1.777423305209198945e-01 2.799673600751746982e-01 3.348900053431732027e-01
2.571522108348563984e-01 3.067911300777851902e-01 1.997277671385471187e-01
-7.377456226849918308e-02 2.206276217906311468e-02 9.782424257712532545e-02
-1.305026997994989946e-01 2.231197012135841262e-01 2.739141350089364657e-01
5.879205806818380703e-02 9.047324215941590086e-01 7.340494415596758859e-01
1.728971354216116696e-01 -2.404135176144786001e-01 -1.939526928636392256e-01
1.657403914550978907e-01 1.732340561207462992e-01 1.290455682974339380e-01
-4.422723687172494533e-01 -9.021791665344182087e-01 -4.860064502768456363e-01
-5.714053389537523953e-02 4.558712477552524095e-02 1.100828806586419129e-01
-2.846267202348026423e-02 2.794203939581345053e-01 2.809387020165989290e-01
-9.558856867137401070e-03 -7.194515522680222652e-01 -4.996157347353435974e-01
5.368321087790867141e-01 9.354425649413641297e-01 5.864269843502241120e-01
4.524860677288579103e-01 8.085543491422039208e-01 5.183772212242266919e-01
-3.200081732294833281e-01 -5.145617814330900597e-01 -2.295792754168565764e-01
5.189819340709023177e-01 8.395651064398103047e-01 5.185561050105613745e-01
8.594893587350492525e-02 -9.061571700117583283e-01 -6.784936996669647113e-01
-1.634748734859246266e-01 -7.866494065899581889e-01 -4.964804783178244363e-01
4.180312285397635441e-01 3.606848233649492252e-01 1.837897023549310838e-01
1.013698194066919578e-01 -4.321740661906025016e-01 -3.168522452831575298e-01
-2.217327624129888652e-01 -1.898831920312607224e-01 -1.330591090555763301e-02
6.114778955353354639e-02 -6.769204878512944390e-01 -4.920225166527612548e-01
2.403505200540384523e-01 9.261987196015653012e-01 6.855764162704331977e-01
1.869484514901778027e-01 2.420393098311209301e-01 1.747409213956461205e-01
4.827653062102323089e-02 -6.310953708138109519e-01 -4.519088137818527140e-01
-3.172635166033074827e-02 1.946834078852281991e-01 2.164674709128167340e-01
4.594021171594626224e-02 8.895505864393971063e-01 7.268971546088079938e-01
-2.720258060730912919e-01 5.295529300661840771e-02 1.928426033015736285e-01
1.095607784946917712e-01 3.214829199977362051e-01 2.640310050621297311e-01
1.690279664407788318e-01 -5.205594277767768840e-01 -4.095803142587324253e-01
2.024856800749361974e-01 -6.301038145155859471e-01 -5.064358812993191572e-01
1.757917957372978901e-01 1.916861468839436700e-01 1.397353202155841023e-01
9.481400380977937636e-02 3.520497294425922186e-01 2.929973701552986420e-01
1.438393441747645718e-01 -2.808530384143753666e-01 -2.148598354188435700e-01
-2.482569494244602215e-01 -2.605259489451218213e-01 -5.851846816354423775e-02
-3.565523491957653390e-02 -7.678053980491093000e-01 -5.277155899370704617e-01
-7.166633475686602639e-02 -5.851365573345080895e-01 -3.732985980878198995e-01
2.569636674497199902e-01 -2.340426906837577981e-01 -2.191614878791911525e-01
-3.876612814682920960e-01 -5.096536908756968964e-01 -2.015186723051922701e-01
-2.319988322411548065e-01 4.771026607265230202e-01 5.070557401278600329e-01
-2.189701998413482453e-01 -2.418132660109482187e-03 1.309232980625928133e-01
-1.319687270122568423e-01 -7.865636363331511838e-01 -5.077112774250941429e-01
9.978126413851054477e-02 7.189451803306941280e-02 7.419404206996868534e-02
-2.639672552732899025e-01 -1.444611215216736744e-01 3.702442330835052642e-02
1.098580133488044341e-01 3.443154576957318524e-01 2.816116476760982534e-01
2.214624724138831990e-01 -3.782160500948134607e-01 -3.181156093550048247e-01
-1.198845580820342704e-01 -6.419704854620864598e-01 -4.000352604779181531e-01
-3.442875520099335507e-01 -6.845874935017001173e-01 -3.525837550108535945e-01
5.215333207097919838e-02 -4.073988945956182328e-01 -2.800124771590526418e-01
-8.129920562484903301e-02 -6.094135673160331335e-01 -3.886506976733352103e-01
-6.705163918330113437e-02 -4.576396246765674358e-01 -2.761878162316048768e-01
-3.495753308756190392e-01 -8.224239785339251263e-01 -4.574627207801864603e-01
-6.976326490737340229e-03 -7.101989764999170340e-01 -4.933742525500569576e-01
1.816170189907611865e-01 6.649031688615453239e-01 5.042240702882200276e-01
1.233200072164087197e-01 7.637524649202455107e-01 6.017013783260557469e-01
-8.349541632567931970e-02 3.730161764393370993e-01 3.731758994302689092e-01
7.802620523691936039e-02 8.801447855413728483e-02 9.448213591778963083e-02
-2.730706852057838974e-02 -3.454374659119391899e-01 -2.035217401774008228e-01
-1.920939525105671564e-01 -6.469985407297279556e-01 -3.780379322587289481e-01
2.565254646330623611e-01 -1.392481094177577261e-01 -1.455717480965997290e-01
-2.557051511929668286e-01 2.066309192443346321e-01 3.060352710169852997e-01
8.129238145193312670e-02 3.543540139761677810e-01 2.996308672814619878e-01
-1.505324404726783305e-01 3.946235878713612033e-01 4.139517187966031964e-01
1.416644043038493839e-01 2.250931034297895816e-01 1.778511631993148767e-01
-1.636992346945735088e-01 -6.221609885333670986e-01 -3.689790930488225928e-01
3.525311894309080540e-01 4.360519681845233531e-01 2.656593727206444933e-01
1.855645531950175786e-02 -7.604982343979298232e-02 -1.128603493433968409e-02
1.133711839947195155e-01 -7.120418834944174380e-01 -5.379551806461785324e-01
2.775703790012738481e-01 -1.938832292213563957e-01 -1.954409675949931313e-01
-4.542481987995110049e-01 -6.189804631147742819e-01 -2.623324003140815597e-01
-9.233260997668785164e-02 8.617584028002857055e-01 7.549487884519795466e-01
1.626164829098522904e-02 4.218209404952001917e-01 3.752123541276543572e-01
3.506470411493839978e-01 8.589013454246366974e-01 5.938952016122956978e-01
-2.022790478345735943e-01 -8.311657735508281020e-01 -5.170509633342061928e-01
-2.605606171067118559e-01 -9.493078183884782195e-01 -5.876715116128097272e-01
3.636398114798303771e-01 2.442539635507938733e-01 1.130998213579036404e-01
3.763545913783556407e-01 7.206053175460737092e-01 4.775461751170438363e-01
1.530619529665688816e-01 3.108909986378076695e-01 2.402276448426590993e-01
2.094733870486456262e-01 6.527094059563709472e-01 4.847896426837739470e-01
-1.095630035649429457e-01 -1.080905394790870021e-02 8.519284836323184895e-02
-2.088851828382140841e-01 -8.656003777431348079e-01 -5.413569467553943637e-01
3.946044796118288178e-01 2.047158885422117880e-01 7.136857404600321919e-02
-5.890578202376698519e-02 -6.922858639298764549e-01 -4.608773816420829172e-01
2.796981566483133785e-01 3.667143960167373873e-01 2.380629601686199415e-01
-2.345512069180883674e-01 2.217855242137383720e-01 3.101895592251676659e-01
-2.744471142134025654e-01 2.101448441836333558e-01 3.154776871068160626e-01
-3.777038547102373744e-01 -3.400419463464488534e-01 -7.369941297011170511e-02
-1.155977129552248350e-01 2.663573220290175181e-01 3.020636333909497151e-01
1.305566733791328760e-01 1.598497144173536832e-01 1.312933068844576723e-01
-3.280207925300132055e-01 -1.465147882895848630e-01 5.840139430583184132e-02
2.341530213155518236e-01 6.694256298339188449e-01 4.888894229661076563e-01
-1.472599151917257931e-01 -7.489039665154851866e-01 -4.730552170362358755e-01
-8.759285032840868901e-02 -2.256404753633281246e-01 -8.910418438697598198e-02
1.076583917237416144e-01 -8.411662068374418100e-01 -6.359328731290591064e-01
-1.463693540120280245e-01 6.329219839719049112e-01 5.970567771351112940e-01
-6.219144527512448367e-02 5.483162421395122443e-01 5.013330562037101590e-01
7.326231306047098490e-02 -4.098438175682074802e-01 -2.894755387897252064e-01
5.432286276986338924e-01 8.720992034309579255e-01 5.350644396645207745e-01
-2.096347076364307727e-01 -4.540029704454341397e-01 -2.222443000768829224e-01
-3.149479404894663381e-01 2.617337798866140736e-02 1.874866972598094317e-01
6.603663296474589217e-02 -4.596151726204411592e-01 -3.254399827292824288e-01
1.282351368458792829e-01 -2.808278667325407874e-01 -2.092450949008940464e-01
2.625688269214110915e-01 -5.317039754233864740e-02 -8.105864194360976049e-02
8.035507302527089557e-02 -5.632809211669908001e-01 -4.108788441308846573e-01
1.706307372034167325e-01 5.150917087893437385e-01 3.921120184222482985e-01
-1.720119104996881698e-01 4.537087358636513468e-01 4.674239719110290792e-01
-1.428390199492051149e-01 4.281147276257198098e-02 1.386618515473173330e-01
-1.280478770033666447e-01 -3.446613318515079905e-01 -1.667976138413905240e-01
-1.011493975560343733e-01 8.796675500822682681e-01 7.719835659755780455e-01
-4.110738370498804306e-01 -5.049527811416201217e-01 -1.894820120273462138e-01
-1.228558724534458413e-01 6.750040263766563520e-01 6.212243364462827211e-01
2.243300247940178127e-01 4.985520539091157777e-01 3.600444830750251790e-01
1.246693943041318892e-01 -7.626387087916134400e-01 -5.812012346677962737e-01
5.077794030549512977e-02 -7.009125956312064476e-01 -5.068896565203462323e-01
8.963410972375937535e-02 -5.290550074293746130e-01 -3.876929520728727430e-01
-3.046087266409354122e-01 -8.825707215658828986e-01 -5.201791812852508690e-01
3.128395018939084671e-01 8.920094459258242070e-01 6.330991359857838230e-01
3.520333626757372603e-01 8.954148364217601186e-01 6.216832765931961102e-01
1.367608434691702443e-02 -3.564448762199205478e-01 -2.267440652989544669e-01
3.408590311416828667e-01 5.244458590621188243e-01 3.383190070601091448e-01
-2.143752350628981007e-01 -4.963477570766502978e-01 -2.533468612494613192e-01
9.643758847514077859e-02 4.945035619045635711e-01 4.027670432792563315e-01
-5.636871164304210063e-02 5.160510163111309279e-01 4.742509296914904637e-01
2.092004262769041334e-01 8.179518488556545286e-01 6.128925596886239946e-01
-1.090124319542115222e-01 -3.779687723996978388e-01 -1.994248082324110716e-01
2.004783893033144637e-01 7.711207003906994650e-02 4.212858764654402871e-02
3.316578940483365656e-01 4.395484717723380230e-01 2.758525307604976495e-01
6.868144258620384468e-02 -8.223857000449276144e-01 -6.074084893440977462e-01
-1.950504064284262207e-01 -8.013124402587032957e-01 -4.965170746693549630e-01
-2.046874576806232970e-01 -2.765754227215045380e-01 -8.657401748194454294e-02
-4.385093859146657613e-02 -2.381750280965602151e-01 -1.144987255807244364e-01
-1.963311031882810156e-02 -1.631701824816920304e-02 4.867970828043343551e-02
-6.789320249790740947e-02 1.760078314574274605e-01 2.149688795612953729e-01
1.103790134570000747e-01 -7.749111640383917754e-01 -5.855839517217569234e-01
4.578412036973506655e-02 -3.536146240497258231e-01 -2.360646728888430579e-01
-4.757968296382318607e-02 2.659140682532171174e-01 2.773308646718573578e-01
8.781215020166811824e-02 7.005375131431036406e-01 5.654640674834277014e-01
-9.852665892405977621e-02 -9.449574331968151331e-01 -6.424024247392938758e-01
1.238073817819104611e-01 -7.271298195375666129e-01 -5.533851833222798167e-01
-2.077326814268461164e-01 -5.761324927415124586e-01 -3.175339359778626691e-01
-4.562438888273594867e-02 -6.850664316916954544e-01 -4.600471929716391517e-01
1.464763103683152101e-01 -6.033487090937373898e-01 -4.656266161176302321e-01
-2.766204350195197170e-01 -3.790229944945832652e-01 -1.401418229186681685e-01
-2.814079720658674288e-01 -5.226028919202327927e-01 -2.496492954978654366e-01
2.286128326153409329e-01 1.644226621371350228e-01 9.967548785335511585e-02
-1.570443408475651614e-01 6.316180141188869612e-01 5.998744148700447809e-01
-9.793695177256006579e-02 -9.584877951557644327e-01 -6.530951710159624835e-01
-1.021452989775267495e-01 3.598351511718613782e-01 3.696525566271931518e-01
2.194373602258149411e-02 8.853027736672346437e-01 7.322110657084419660e-01
-3.203242622754698399e-01 -6.290716098835430481e-01 -3.181709609275486517e-01
3.833155200809743590e-01 8.081965133598815187e-01 5.429026872615158039e-01
4.450696344995395681e-01 8.264148837204287057e-01 5.348722122142601787e-01
2.476862316280782350e-01 7.617498566365843438e-01 5.555557369204097151e-01
-9.360570428163760004e-03 4.801064292229399455e-01 4.295506274702788896e-01
-7.636102728893240377e-02 3.589258727988764441e-01 3.597026507546157714e-01
9.808735556786832288e-02 -1.598852388237134992e-01 -1.047467326235708013e-01
-4.078237538390644401e-01 -3.723662942984158897e-01 -8.793929495461720591e-02
6.978948640034424167e-02 5.480417736873498535e-01 4.537956927110007310e-01
4.529794863330531829e-01 9.321693725053121771e-01 6.139586594801836883e-01
9.277611223342295890e-03 -8.185816951372211214e-01 -5.831611307652563303e-01
-4.278285684644370090e-02 7.189003152173377709e-01 6.265166020807309000e-01
1.963511686883113727e-01 -6.645939900959191293e-01 -5.309540243994360642e-01
2.436258846321574523e-01 5.594661621379752869e-01 4.003126237751688521e-01
8.389964823253905080e-02 1.891360965844672282e-01 1.707099307710159553e-01
-4.242940958243857259e-03 -7.715849723082284228e-01 -5.419070248210448026e-01
-4.627990920167192324e-02 -3.273027489957430203e-01 -1.826705427393479630e-01
6.930544878332239866e-02 -9.796028258895690399e-01 -7.294204706221905088e-01
-2.986743909118560469e-01 -5.783954623239992987e-01 -2.866777394126889811e-01
5.606589976738680231e-02 8.968217224146097788e-01 7.288989449695087997e-01
2.226438056799611154e-01 5.878237748489015813e-01 4.298034441509200332e-01
-2.579105457451897343e-01 -5.258315949396350497e-01 -2.605759433234079991e-01
3.352169652203242922e-01 -6.020071273186474586e-02 -1.125543070827374620e-01
1.408299086615167062e-01 -2.140066144201784593e-01 -1.619981590758214351e-01
3.125711766748000553e-01 5.999935092687465055e-01 4.069852359044958123e-01
1.560237367806927566e-01 -4.074034227088035309e-01 -3.172610665033851474e-01
-2.602732378737170338e-01 -8.331650941622151252e-03 1.411525297158661985e-01
-7.442706221672309996e-02 6.535324213765492107e-01 5.872261152618007962e-01
4.088196896005888981e-01 3.949464419039565022e-01 2.136334670154888538e-01
-2.927228616934410832e-01 4.246273744797254140e-02 1.921359434164518487e-01
2.080261674209603340e-01 -1.365917245056528229e-01 -1.261234604460644559e-01
-2.528109330748080641e-01 -4.449579510234960011e-01 -1.997557651000889667e-01
1.720761174820605310e-01 5.133798971224298180e-01 3.902676899249116760e-01
5.668014280261916144e-02 5.351196681346975098e-02 7.540888210390596369e-02
1.820502641796042376e-01 4.135452552121977599e-01 3.093543394599403973e-01
-3.585150926325078591e-01 -3.305210765401163653e-01 -7.320463660397399930e-02
2.144795322917830427e-01 3.038453024807072356e-01 2.127470356300718568e-01
3.645801731773344323e-01 7.356586027606931699e-01 4.934291847129264053e-01
-2.646487484729117545e-01 -8.156580983028827170e-01 -4.826738783024276946e-01
5.156982070072860247e-02 5.340083600896328858e-02 7.715521614862823341e-02
-9.984688495698955391e-02 -1.315478897043321216e-01 -1.182141182849277133e-02
4.850434606623718059e-01 7.218995550588928056e-01 4.395759050297403658e-01
1.989348904195416268e-01 1.510666161073611347e-01 9.997092527876227930e-02
9.046438851184103458e-02 3.794651216987351972e-01 3.157943537294245484e-01
5.297512724982329085e-02 4.215684835963857124e-01 3.618523406139406706e-01
-4.166743864842599732e-01 -4.858515162600190451e-01 -1.726770156237456000e-01
-1.286749154202229406e-01 -6.260023952459157215e-01 -3.845135997635464875e-01
-3.187851757511040440e-01 -6.726189045692180235e-01 -3.524567423714575765e-01
-2.366102501948141312e-01 -8.582952681928575078e-01 -5.257565947849323074e-01
-2.654212457018589877e-01 -3.570813076993822888e-01 -1.271604200775123816e-01
1.440234471292354268e-01 -7.192928019311041199e-01 -5.545631656929210784e-01
-1.851429939947093484e-01 -2.606946518682398684e-01 -8.128008930121410902e-02
2.024416157062137733e-01 -6.858548728200947187e-01 -5.496076323871232905e-01
-1.568048362211193342e-02 9.110432741969400894e-01 7.656419561601653934e-01
3.822222897802013408e-02 -2.823607672585033979e-01 -1.781563932348023960e-01
-1.157962787727845888e-01 -5.349795200601545342e-02 5.435897977174190127e-02
-1.275499913102631222e-01 -8.530592179016913690e-01 -5.608065101610251180e-01
-3.111199937363026691e-01 -5.784493315751509934e-01 -2.822568169916602754e-01
-1.120880168508421731e-01 -1.689518065945940783e-01 -3.640701749772148194e-02
-6.456950527870340684e-02 3.847030079401939640e-01 3.754427889707525612e-01
1.650125122979047010e-01 -4.697071178917946316e-02 -4.127503412791601323e-02
-1.929118056566495321e-01 3.047556607466122003e-01 3.595316180339166445e-01
-2.363083070166644983e-01 -9.708744947732866892e-02 6.380469216030493218e-02
3.615508192314941666e-02 8.419018147005231656e-01 6.934947181526259774e-01
1.711046098708243757e-01 -5.301036783877736136e-01 -4.177183944207678579e-01
2.325806400210851665e-01 -3.738534983868006534e-01 -3.187228294664815609e-01
2.886846929956993560e-03 -9.077715813161761904e-01 -6.499605135681367774e-01
-2.627014261676842710e-01 2.300130174237545178e-01 3.266568834211349692e-01
-3.968296722968904788e-01 -3.843605415464387276e-01 -1.011728137674140909e-01
3.711468195778862555e-01 8.734412066252748852e-02 -1.114217913551393893e-02
1.216534599660477759e-03 9.168501990771800447e-02 1.248673641066758849e-01
1.674969789840951850e-01 -3.241574848456235114e-01 -2.568885999748544702e-01
2.649650617251537651e-02 4.552381205494479555e-01 3.974290294322787576e-01
9.047701762707077711e-02 1.455625975102276259e-01 1.345972598847462731e-01
-1.953848393442791653e-01 -9.104829587972527172e-01 -5.809660867176332788e-01
9.118130417897005527e-03 8.702440802243196494e-01 7.251447612582911928e-01
-3.004755258459657630e-01 -7.981543892233886606e-01 -4.562681310266250567e-01
8.669364034903789817e-02 -3.197147445471661409e-01 -2.244731680166434928e-01
-6.202172376950319810e-02 -2.434955387375898339e-01 -1.121047127970853097e-01
2.233272422871050711e-01 1.470668537340069637e-01 8.812608062200691372e-02
3.985423407903556647e-01 8.559597275905488356e-01 5.744425352919416694e-01
2.068579299139323979e-01 -5.497911050280822609e-01 -4.457894184857246200e-01
4.153695112982569437e-01 6.181267210739437301e-01 3.841714598154679638e-01
-2.603678161227381271e-01 -6.481454743821409847e-01 -3.544452671331738136e-01
-1.818922834680118950e-01 9.650474246519502586e-02 1.942587676396408114e-01
2.801544457850801972e-01 6.749736591732913293e-01 4.766923526768234165e-01
1.064301266652685901e-01 -5.929514378977198685e-01 -4.432129066685044361e-01
-1.857167754830277989e-02 -3.488657793536022456e-01 -2.093097547191790642e-01
-5.150456830198171798e-02 4.141135524940539603e-01 3.935409356780874557e-01
2.861583668916301559e-01 3.985159513450434177e-02 -1.745772805561187496e-02
-3.268808385561863261e-01 -4.618761000740350675e-01 -1.863019684647544971e-01
4.540152699987088925e-01 8.114092444062624976e-01 5.200404354936235540e-01
-3.669192070932818517e-01 -3.626378023172830978e-01 -9.507036957992204274e-02
3.410784979948259799e-01 -6.239921268779011210e-02 -1.163591599175307911e-01
-2.777104961726614696e-01 -8.220594782391236199e-01 -4.829491216826601874e-01
3.358240389088195110e-01 3.472126588644712797e-01 2.028307377325442584e-01
2.416674819407910735e-01 1.830462211385661397e-01 1.094211862240980077e-01
2.434189270955497419e-01 -6.660214959677003554e-02 -8.459691776459486723e-02
2.005860821888172940e-01 -6.120861637078418571e-01 -4.917973662615019448e-01
2.937061004687049337e-01 3.021134955645881637e-01 1.829970146183652058e-01
-1.250566055520029862e-01 -5.378232038308540242e-01 -3.175030253449919737e-01
2.831189834048624121e-01 4.092314734889067607e-01 2.697721949303242273e-01
2.547063043698278295e-01 5.448499623263861613e-01 3.850170511772336157e-01
-5.190458103232562515e-01 -9.831860648863361973e-01 -5.212295824533291766e-01
-5.131595056802779747e-02 -2.323869307073497814e-01 -1.073382277622755843e-01
1.990057081032517439e-01 -6.278646750249791686e-02 -6.571573638885809532e-02
9.092837954023053060e-02 -4.889773688656443018e-02 -1.620326341127495753e-02
-4.283064372685160270e-01 -9.753200134240029850e-01 -5.476727999375238243e-01
-2.548189182696873889e-01 -7.984473072926566717e-01 -4.728662487105989576e-01
-1.860040323988136624e-01 3.987443991502402918e-01 4.298630459488841926e-01
3.093532162409734498e-01 4.570724817350384495e-01 2.974253496414014930e-01
7.994827094380124732e-02 -4.698310636221900705e-01 -3.383420538787784704e-01
-2.019002192001099205e-01 2.648840489849590418e-01 3.318680771024584142e-01
-1.949943476613566207e-01 1.968218170830416947e-01 2.766674200760410596e-01
-1.404501244918341107e-01 -9.376996224205412789e-01 -6.217475561198090306e-01
1.771729529416871951e-01 6.022422194895933334e-01 4.572772928890984079e-01
-1.639173566573897678e-01 -3.166922062734579130e-02 8.852350447598028582e-02
8.435806932410196482e-03 -6.467988339212715765e-01 -4.497877077069438179e-01
2.629522354678283658e-01 2.804615097714087124e-01 1.772517996352082903e-01
2.412026480791051586e-01 -1.533481879274159465e-01 -1.510000301547066437e-01
1.262098471862995418e-02 4.906461756321702228e-01 4.298332574009202101e-01
-1.744113286680878949e-01 6.299297339773830551e-01 6.047939149096379641e-01
2.237612225565229762e-01 6.062978512655298191e-01 4.437137103939086669e-01
-2.233066895027906729e-01 5.182186703615779821e-01 5.357894883335811986e-01
1.770010823200500460e-01 -4.655317706628339658e-01 -3.698120864845476641e-01
7.488142922968295256e-02 -7.260090439297990639e-02 -2.881092280767484984e-02
-1.160408204294843676e-01 -7.907865970475720652e-02 3.463057322302114105e-02
-2.840880508740602495e-01 9.933489895755862054e-02 2.330957506451293848e-01
-3.221906779440503188e-01 -4.830681650651486581e-01 -2.044001624580341070e-01
-1.845007409306045065e-01 -5.741272556584097186e-01 -3.243109167180356356e-01
-1.339034355859670261e-02 2.523218490177165929e-01 2.545422929844164961e-01
2.564020413013047284e-01 3.031974674576569662e-01 1.972129270176897764e-01
4.768955113920473887e-01 8.905382162228335785e-01 5.731334572942329286e-01
5.699718866972935949e-02 7.490763006356953024e-01 6.141140350744705989e-01
1.803578660364097974e-01 -1.661115831356667072e-01 -1.390699208673282783e-01
-1.607231335382684062e-02 3.417948256974627785e-01 3.248142057138733163e-01
-1.719667614032431222e-02 -6.977721691551024286e-01 -4.800830901650779969e-01
-3.408740966322151150e-02 -6.082162734336801213e-01 -4.046520707793297422e-01
2.895567414563915976e-01 -1.178967195242821980e-01 -1.408760071858275176e-01
-5.309456868931883983e-02 7.253561844710194606e-01 6.352151378905870338e-01
3.245880800829276797e-02 -9.895282472694117981e-01 -7.238970012510203000e-01
1.622765210762885935e-01 -8.366524820231417969e-01 -6.520208816282310194e-01
4.620249293916647293e-01 8.967062442012392331e-01 5.832437028410392132e-01
4.404601966600962815e-02 4.391628323509385035e-01 3.786835343685170385e-01
1.762656094332462897e-01 -5.896180488748228310e-01 -4.656717882241103723e-01
1.471667226126282257e-01 6.920997956554633124e-01 5.376448668599841385e-01
-2.756327390180823289e-01 -2.260972216660230016e-01 -2.203205005279833262e-02
-3.826878052568066096e-02 2.215724206350921655e-01 2.396429775326518186e-01
1.302031276818701455e-01 8.011613883258784652e-01 6.282120984095863614e-01
-7.793053744213135348e-02 7.465606128812506403e-01 6.605466441182941129e-01
-9.103570345010587872e-03 8.457578672451403490e-01 7.127103217058401441e-01
-3.120125414605550707e-01 -3.289113830323840970e-01 -8.863222863209008207e-02
-2.511114364302476365e-01 -8.665863462550228435e-01 -5.269795493905875539e-01
3.934883819766185620e-02 -7.713575131022347708e-01 -5.573616413978742523e-01
2.861881281605595517e-01 7.630011533126845880e-01 5.427193284040093824e-01
-1.163519722158513764e-01 -7.024488580906834700e-01 -4.481515138955399213e-01
2.169225303169629582e-01 -1.273607136307335248e-02 -3.336868398497428584e-02
1.911832678476227121e-01 -4.268368372510500386e-01 -3.449224036634448431e-01
1.986289734311126320e-01 6.299671511673684554e-01 4.710608670845613521e-01
-7.034882938986830592e-02 7.427442913404085356e-01 6.548717382343606230e-01
2.228189743228926600e-01 -4.698713557585000866e-01 -3.896027865255221601e-01
-1.005147475972461846e-01 -5.618469583555625591e-02 4.679815550274546432e-02
3.455197740095217185e-02 -8.206299530865760979e-05 4.182682655558314644e-02
6.829032769303509942e-02 1.693896371385649469e-01 1.610104128040441285e-01
-1.600691612779375217e-01 7.676444457302916691e-01 7.063318933375217767e-01
-2.832239930187210875e-02 -2.787390704607788372e-01 -1.514897654586383480e-01
1.644927547727390860e-01 6.977948216513308877e-01 5.358438776465520581e-01
-6.979400655790027330e-02 -1.563373120505336389e-01 -4.180067411000926159e-02
-3.625037769230056717e-01 -4.525318932656540172e-01 -1.662900698356669371e-01
-4.632661029391419993e-01 -7.329587192730161460e-01 -3.473920708954263414e-01
4.556285273272991931e-01 7.210135254593222909e-01 4.494369315790009423e-01
1.899966054498729573e-01 -8.201026872071573437e-02 -7.737703453926920993e-02
-1.018824090102698893e-01 3.335703963911708647e-01 3.492123020000029165e-01
3.112402042417924397e-01 8.438964627831082588e-01 5.964018830570299023e-01
1.101006735336239328e-01 5.386329697144142115e-01 4.320526763202795495e-01
-5.292423832310927390e-01 -9.626367177825744248e-01 -5.016548211995258688e-01
-1.435571068249828428e-02 -6.466735873515069288e-01 -4.415182716125817253e-01
-1.040931157142763741e-01 -6.238292388938053712e-01 -3.916445243936736986e-01
-4.484894869604882234e-02 4.202150636225632230e-01 3.958809477596277882e-01
2.691799021046693552e-01 5.307481428956641878e-01 3.689032426113474372e-01
1.791966382434764249e-01 -1.122859337278445807e-01 -9.695750282508822093e-02
3.619248390925874220e-02 6.890573020187312769e-01 5.750803213945776537e-01
1.163919210540607097e-01 8.145692209588011323e-01 6.435507948716009397e-01
1.193456915617660818e-01 -9.246817414923865774e-01 -7.048189186860899236e-01
1.495208440695495744e-01 8.541194789713619784e-01 6.623092737782815265e-01
1.551604036093072736e-01 9.190259616686264899e-01 7.105668821124040413e-01
-2.017692866825353537e-01 -4.482937834950848077e-01 -2.206420034994371893e-01
6.624160483451776993e-02 5.169391045979487842e-01 4.309741865583365250e-01
1.866620504370565259e-01 -1.365305986090275259e-01 -1.184155221875296121e-01
-3.120484873243880020e-01 -3.215482442368763905e-01 -8.291548474823026704e-02
6.583549558135735891e-02 4.245179336044287988e-01 3.595257559685788307e-01
4.133929947257848347e-01 3.326833890801930149e-01 1.637615378590169257e-01
1.587138220386082876e-01 5.872891191173459369e-01 4.523128139437648243e-01
4.315574946797700040e-01 3.831797218727417409e-01 1.963652245910001981e-01
-2.496043791271051748e-01 2.031529810063287533e-01 3.011535167975581961e-01
-2.012177858575684430e-01 1.874963774069592637e-01 2.716750236752331071e-01
5.020147899844842332e-01 8.358520165003343605e-01 5.217637133468396859e-01
3.245365603730272080e-02 -6.310283570271119080e-01 -4.461832521945527374e-01
-9.896663126842916713e-02 1.945977546703814842e-01 2.405116419067722944e-01
1.670267388201378544e-01 -7.227386265010384836e-01 -5.654808235627795110e-01
-9.982569415652457756e-02 -2.193607336128410579e-01 -7.985322042737764969e-02
5.654022595823480352e-02 8.195054564221854188e-01 6.688358273951134914e-01
1.926123647427046559e-01 -2.586133415382146916e-01 -2.151205256670044030e-01
4.601488922597366527e-01 6.498353681966421158e-01 3.926779006235953662e-01
-1.388890936102874299e-02 -1.188234116782211774e-01 -3.278657154946516133e-02
-1.636463991664169615e-01 -3.623211676080540511e-01 -1.677131488839255780e-01
-3.763885941814305025e-01 -4.510134446519050155e-01 -1.601350886791244321e-01
5.274899431136788330e-02 -5.913424412562902077e-01 -4.227179141024138831e-01
-1.042448121709650850e-02 -5.741521912271838612e-01 -3.867492110395326921e-01
-3.866072350918818290e-01 -9.486266721767593335e-01 -5.419469975583401933e-01
-1.562528374798273501e-01 -2.513380975332674822e-02 9.083787320105624064e-02
3.066342595178679978e-02 -7.384696120648244211e-01 -5.287706814724560944e-01
-3.719546231217524951e-02 5.973620522703377844e-01 5.303635130493048466e-01
-1.699531224006758101e-01 8.050899292495954096e-02 1.775866058757448185e-01
5.479879661638622362e-02 -6.428572643129674136e-01 -4.633588692363567185e-01
5.250300938346195156e-01 8.606123254846539394e-01 5.326916265921115556e-01
3.061573024100380791e-01 -1.946746164829167292e-01 -2.063045032600553386e-01
-4.712885902058869259e-01 -7.822226988076124155e-01 -3.826777632210922597e-01
-5.409421344203504262e-02 7.041532515826834926e-01 6.191487334158451983e-01
6.962746035184741444e-02 2.866721264198606733e-01 2.513838214628342227e-01
-1.407851786984973541e-01 -7.611786556604472898e-01 -4.848854668055999073e-01
2.141058456730154380e-01 8.334733311444126880e-01 6.231573252729518675e-01
6.487377485587166037e-02 -2.735969534754064680e-01 -1.809240200670711174e-01
-3.414358211079710631e-02 5.448752028306865780e-01 4.886102600994468026e-01
-6.703400025439941803e-03 -7.960069482327055690e-01 -5.599432526452851056e-01
-2.569568100909016065e-02 -8.302602616344112452e-01 -5.796674665398271475e-01
-3.541407358104802783e-01 -9.144108043410258402e-01 -5.270832764283921446e-01
1.218637898650444251e-01 -8.878280938615662476e-01 -6.771731655528595573e-01
2.237716291750445896e-01 6.814604660512213474e-01 5.019346903845598451e-01
-1.640317843359049843e-01 1.304848257097538100e-01 2.141771497893862064e-01
-1.568715216103896692e-01 -1.906876778782530812e-01 -3.718656988586718087e-02
6.455306509271237225e-02 4.406887508160646227e-01 3.725123222366613640e-01
1.274586235280943114e-01 -6.170371730265229449e-01 -4.694111617225046884e-01
-2.641388625851679994e-01 3.266785525557619474e-01 4.020542552119391044e-01
-3.595029873983879212e-04 5.928837516343151703e-01 5.136860320318101802e-01
6.618460448102670042e-03 -7.787673893486328769e-01 -5.513654844152570123e-01
-8.434236348413172435e-02 6.762696743535555333e-02 1.369098733295938120e-01
3.614400164448811625e-01 4.547357605346897258e-01 2.769383091563548671e-01
9.868810890739973529e-03 7.688118281512554830e-01 6.463011045663697995e-01
3.742842714905338930e-01 3.579250623814367871e-01 1.973383141716793243e-01
-1.379061850655285970e-01 3.356904549110835134e-01 3.637717443430086295e-01
5.169239035258759163e-01 7.570451654375797146e-01 4.553699948980066137e-01
-2.148453066364481301e-01 4.808787202112644321e-01 5.038300798364852007e-01
-6.830123295968362762e-02 3.776939100032484370e-02 1.080287949660523189e-01
-2.160199380111728906e-01 -4.777180310922974349e-01 -2.383256005834015478e-01
1.777808759583074383e-01 1.226075072604613202e-02 3.022656107601344775e-05
-1.524224465852797583e-01 8.453141692145821340e-02 1.744165560934210768e-01
1.311368556897591631e-01 5.610072725241956881e-01 4.418419289594328059e-01
2.261068226222678612e-01 6.432441622548593640e-01 4.714930983303762813e-01
2.844415170228783291e-02 2.686623080305130529e-01 2.521997238523015494e-01
7.239727670375582791e-02 -6.690258768296242220e-01 -4.899407149846972676e-01
3.783725541630249267e-02 -7.988554725673049361e-01 -5.781209205854520583e-01
-1.390563805883518467e-01 4.972540620592077465e-01 4.893394039762483660e-01
2.191101116503919866e-02 -2.859693156417962290e-01 -1.751029989860125591e-01
2.798441700054586367e-01 6.610969779949257830e-02 5.147206398921299296e-03
-1.057447166488801465e-01 -1.421179892435128211e-01 -1.789473743195667960e-02
-2.488092981021041983e-01 -6.856753945754054946e-01 -3.876623837253462268e-01
2.817972094425424956e-01 8.048993831114871211e-01 5.767502508092403612e-01
-3.067098836290970687e-01 -6.938148028314876370e-02 1.105111949895532103e-01
3.352023961645224093e-01 8.765849060762560541e-01 6.131317965749615295e-01
3.422846524992354533e-01 5.299600143112996875e-01 3.420793580706576464e-01
3.639893422342130314e-01 3.912781583099901872e-01 2.268667659777447165e-01
2.137288308724539232e-01 -4.343310838212371405e-01 -3.588120422432028445e-01
1.698438141342532848e-01 5.241281498971513964e-01 3.993942656168007477e-01
-4.146762751689387905e-01 -5.973587507441544542e-01 -2.597725508920019077e-01
5.391530637295009754e-02 -4.105398704021989698e-01 -2.830774294483990872e-01
-9.801959336463471339e-02 -3.488221298784219826e-01 -1.807880954890938308e-01
1.021349971912705601e-01 4.610513493668300100e-01 3.748103557210021863e-01
-1.659018019309669578e-01 1.254410298910881016e-01 2.109405109781870014e-01
1.865181993422266593e-01 4.125262922978490537e-02 1.935581733857008255e-02
1.269037694569585262e-01 -4.201128424918077475e-01 -3.166647946285858217e-01
-9.985945447749100534e-02 -5.665508215745425069e-01 -3.487918794727658534e-01
3.992657843434986586e-02 1.623463643797765088e-01 1.657248057843595523e-01
-1.712502159906662824e-01 -3.731226149254333047e-01 -1.733539684853674656e-01
3.178930702535199826e-01 -1.030357394519019337e-01 -1.395245818039878571e-01
2.383336324186783040e-01 3.663021743216041126e-01 2.525758179011344806e-01
7.299982323363127246e-02 -2.602954047212815980e-01 -1.735337550833490616e-01
-1.482669952089122889e-01 2.640334203539402846e-01 3.119777328611006983e-01
2.091870049623172079e-01 5.431595254536759620e-01 4.000295282193383484e-01
-3.542015084433084993e-01 -3.817487723515611830e-01 -1.144348988163475384e-01
3.809484266939713870e-01 1.896026478871144227e-01 6.455779026050068037e-02
1.517175036057202553e-01 1.831126927050272801e-01 1.417262765042988371e-01
-1.011224061216409783e-03 -8.758591424655692848e-02 -1.320603266873751451e-02
3.735386650021407795e-01 4.214680130480874531e-01 2.468292081825655127e-01
-8.073025313931783686e-02 1.716661030523591869e-01 2.162085748101490457e-01
2.858809622248201787e-01 -3.395365917943898859e-01 -3.112512768404095964e-01
-1.198246968882595576e-01 1.838359093420134649e-01 2.396541105052971687e-01
1.416289058318438709e-01 -7.305876318198614161e-01 -5.624540875485778413e-01
1.833663069762543063e-01 -4.177124673778231240e-02 -4.382843705798276229e-02
1.181558772118393996e-01 -5.671043724356358284e-01 -4.273950130917661405e-01
1.200646965118020576e-01 -9.132799308347442357e-01 -6.962443227557048031e-01
-2.290790385582569255e-01 -2.939904102822585852e-01 -9.131838303115918931e-02
2.605002871895000793e-01 -4.378680411334668343e-01 -3.783229087980028993e-01
-2.441768511074589310e-01 -3.510832006501904412e-01 -1.301316450123560509e-01
1.328375394313599245e-01 1.582816127036991982e-01 1.292607209764519705e-01
4.134932092841229201e-01 4.398346195414070681e-01 2.467302929004668299e-01
1.177653801040452197e-01 -7.340128312158068491e-01 -5.565506113004267119e-01
1.340929548480584987e-01 1.366235296103552634e-02 1.678126928029371329e-02
-7.404692639062908366e-02 7.537125819274399785e-02 1.392173256355121180e-01
2.665989326824376171e-01 5.998986739206954022e-01 4.233961590172202194e-01
-2.324304044130843516e-01 -7.612655322944935632e-01 -4.520912984228591669e-01
4.711987470437295489e-02 -3.495630267771701050e-01 -2.334050684061893810e-01
1.271823267375885025e-01 9.043667260523043927e-01 7.092432787256222060e-01
