-7.929040000880500649e-01 -1.685970741753523017e-01 -4.065081929938498262e-01
-6.218337179214729060e-01 3.884771715557169824e-01 2.423396295098930939e-02
-5.445973397068677724e-02 2.959730830125970602e-01 6.562483373866598857e-01
-7.469559553683049469e-01 -2.647866646201537666e-01 -3.917441128648102011e-01
9.469739964407021537e-02 -3.141596090900938831e-01 5.818682625758238025e-01
8.288050185277616444e-02 -3.173512235132460169e-01 5.666035733935331775e-01
-4.490799354250959441e-01 -3.068835085399832519e-01 -5.727541492795563960e-02
2.207724798398956467e-02 -2.976559064111288788e-01 5.028894767447147363e-01
-4.100681255514327522e-02 -6.111605775183386324e-01 2.996728519098362797e-01
-1.590301239713552417e-01 -4.638825439239493420e-01 2.207736365208105844e-01
-6.315809314691740450e-01 -1.316725348368845694e-01 -2.008454571184632165e-01
-3.182220582111042195e-01 5.019450370250790883e-01 4.293493113528040750e-01
9.979588373394178424e-02 -9.123111720339553976e-01 3.422927805096714349e-01
-7.221539040008057020e-01 4.868846887004201623e-02 -2.337457514645445711e-01
-7.438324216142475631e-01 1.318442782250395795e-01 -2.252022013429850478e-01
-7.550611672413245490e-01 -4.312501381688018526e-02 -3.103028670856839422e-01
1.334745700876691366e-01 7.976588222133883244e-02 7.894017030797497725e-01
9.320165421711348874e-02 -7.366755916862058884e-01 4.066203744837154077e-01
-4.427625740632168405e-01 3.576187625725464891e-01 2.230237720632500253e-01
9.028447518281253192e-02 -7.956656677524666099e-01 3.789547182559513394e-01
-5.667954975656617211e-01 4.730812298001674243e-01 1.239647655381857227e-01
1.631218325798692442e-02 -5.522205014752401206e-03 6.160293829921689168e-01
-7.598739775644640648e-01 5.822335136449693915e-02 -2.743733684973693188e-01
-1.164383837203483707e-01 -6.604772066388795437e-01 1.903488511602710320e-01
-7.583066950011131402e-01 -2.426291644322470520e-01 -3.960501901202785335e-01
-3.202624099334539509e-01 -2.868427533088385717e-01 1.030701062424568826e-01
2.632925710545217513e-01 -1.482977269012984434e-01 8.490590355896636687e-01
-3.012095432266777006e-01 -4.949097895734854147e-01 4.013847208283645440e-02
-1.105654363572197707e-02 -1.796588675540095048e-01 5.122113434045258984e-01
-1.068729849621983391e-01 -7.980492937538455900e-01 1.451583852509716333e-01
-2.219678208680612441e-01 2.839659228727114959e-01 4.535127613782725664e-01
-5.096791881528708323e-01 3.237866559561884405e-01 1.301126601042406350e-01
-3.848558197507097045e-01 4.245956484428751732e-01 3.189043720638310986e-01
8.961338758970517626e-02 -1.018997025079520086e-01 6.630168780297772679e-01
-1.299787010724169356e-01 -2.587130964676940259e-01 3.393205314850554211e-01
-1.981045025994131875e-02 -2.557940041224243122e-01 4.706136400785279617e-01
-1.971872733161286750e-01 -2.359001913769758207e-01 2.693226327106196250e-01
-2.981627444802366633e-01 5.242740100347433041e-02 2.684685214584422441e-01
-6.345202974921061445e-01 6.169961651056777852e-01 1.030807707691023534e-01
-5.694881081583111904e-01 7.012757110184233422e-01 2.144799248922191481e-01
-1.046614571710927366e-01 -5.737959447891546327e-01 2.398465054508443495e-01
-2.752622757450239876e-01 -6.719977487235397895e-01 -1.932004791712020131e-03
-7.333927560924866085e-02 -1.804094209440515739e-01 4.383552660430974912e-01
9.518351718972357933e-02 -2.384641218405639251e-02 7.016425278795607179e-01
-4.025023031115516625e-01 -1.861222931177409223e-01 4.731035279035202684e-02
-2.056816534088455328e-01 -5.890926721630831420e-01 1.142739185954251974e-01
3.316394127694410887e-02 -7.653956379352341854e-02 6.067699982576455486e-01
-1.682418229920777941e-01 -2.308225965065782981e-01 3.055883104199438871e-01
-9.804774151136343152e-02 -4.953488786650005471e-01 2.798661775103411520e-01
-6.191287632026795107e-01 6.509474931502097217e-01 1.351963331921504918e-01
1.357771569751601848e-01 -2.049554418323380200e-01 6.752165167372535803e-01
-4.788167408210109582e-02 -2.169188112107881539e-01 4.534269665576470820e-01
-5.955324826973331653e-01 -3.195108410861601800e-01 -2.354017409253355564e-01
-5.993299087310185458e-01 3.742965558857344610e-01 4.498562625466188958e-02
-4.688097670991387966e-01 -2.770834313822077566e-01 -6.833814403264400206e-02
-1.722265988154412786e-01 -2.016479258363971516e-01 3.128616830461053433e-01
-5.178969641020138015e-01 8.059794338967760097e-02 2.055722698790045030e-02
-2.488175746616359263e-01 -3.300267684509565758e-01 1.697062764238710386e-01
-5.601929221148660432e-01 4.266347741796557291e-01 1.126910244571812381e-01
-1.250071826697674304e-01 -1.091296578885559282e-01 4.066089919215011839e-01
-4.917506140408795523e-01 6.057240698388184352e-01 2.670451981721315704e-01
-4.926441815499473242e-01 -1.174797988861791820e-01 -3.095158056766358218e-02
-6.305349945004374845e-01 -4.166506698294508149e-01 -3.166200300690287794e-01
-7.758318235360164294e-01 8.972103821026279624e-02 -2.802848423508920161e-01
2.702912807130065653e-01 3.047937680653153500e-02 9.307280285084974514e-01
-2.004578292049659718e-02 -7.485102366163876031e-01 2.680304894273345950e-01
-5.589425563290169041e-01 1.637818067589411411e-02 -5.428045419011245931e-02
6.655795700087943634e-02 -2.834583256396555062e-01 5.612448910549205916e-01
-7.615899718299078414e-01 2.555842229700335255e-01 -1.953649784923701394e-01
-6.479219680803627313e-01 -1.545547748824021295e-01 -2.295373828700077723e-01
-7.056872544669001712e-01 -2.317097466446338752e-02 -2.438056529626176638e-01
-4.317270465410527613e-01 -2.630056617850023981e-01 -1.876799731284512981e-02
-9.500541735803869070e-02 -1.170219644046093799e-01 4.387967065758288099e-01
-7.619407826699582387e-01 2.054155526575519031e-01 -2.163780865170505940e-01
-9.540426305078648916e-02 -7.321004674080030528e-01 1.857795210952109810e-01
-2.292749723272698159e-01 -3.104828952081056248e-01 2.008081339650570341e-01
-5.577162056707757332e-01 2.780323140238402397e-03 -5.841546061525023509e-02
7.339026541610664534e-02 -3.173416918937905229e-01 5.554007367819031593e-01
-4.912040139501635538e-01 -5.253936074420898494e-01 -1.967369993247997939e-01
-8.151402392762158167e-01 -1.834346825988138474e-01 -4.388585358413787940e-01
-3.869829825820176317e-01 7.058243205591169245e-02 1.710375363477863175e-01
-3.106065815951748396e-02 -1.460511381549021159e-01 5.023881123367999191e-01
-8.915522201311233685e-02 3.341441853484646285e-01 6.309501648757642744e-01
-6.257898924444870170e-01 7.091082661643280938e-01 1.512107326269761798e-01
-6.754803662324400104e-01 4.069712244436355930e-01 -3.152233105171863004e-02
-1.848156844626528961e-01 3.127285152206407681e-02 3.936309550753084863e-01
-6.441054858194157351e-01 6.521005329548273943e-01 1.061754607347759061e-01
9.231919548737679837e-02 -3.591971610623069244e-01 5.605678586625636450e-01
-4.463437033648874896e-01 8.635148614332482930e-02 1.074147945169626472e-01
-7.364517992153108983e-01 3.632547973148421705e-01 -1.214713688943816206e-01
-2.273680801644054894e-01 3.567322100595805012e-01 4.770129908584436196e-01
-6.881719909738529539e-01 3.116729758459810262e-01 -8.563819065794028851e-02
-5.867856945086004083e-01 3.368629288244960329e-01 4.442879101461540831e-02
-4.680563475493070835e-01 4.432096879886675625e-03 4.813951985218171276e-02
-2.382449064483442291e-01 -4.092590435195015974e-01 1.496591157708509479e-01
3.789099693006762332e-02 -1.008326637204427639e-01 6.023774957647635153e-01
6.720710224063489169e-02 -2.596959735433038707e-01 5.717680755165890361e-01
-3.681259508567890082e-01 4.673614887650848898e-02 1.835141799092686321e-01
-1.585284729542992543e-01 -4.130980846339881718e-01 2.422177053341601216e-01
1.222691844841175129e-01 -7.362204495762334489e-01 4.411322716481521078e-01
-7.017639449002612828e-01 -1.160555984599828255e-01 -2.773103947369967015e-01
-3.397659106826987352e-01 1.593790244275318513e-01 2.632539874334199337e-01
1.185497252349087746e-02 4.679856869873343789e-02 6.322484711698739268e-01
-4.877017609228196937e-01 5.839604652448896621e-02 4.709796621932971911e-02
1.416581885310350640e-02 2.173257901185939034e-01 7.049943654945046712e-01
-8.239553714441236187e-02 -6.039211863246222167e-01 2.537705193084268673e-01
-4.888971456220242984e-01 -3.153021488945660367e-01 -1.077510505111322903e-01
-1.642992863163991457e-01 4.121316539776599674e-02 4.219395974996991150e-01
-5.899256963486433358e-01 4.408590014808993485e-01 8.342078857243791223e-02
-3.037630657932202660e-01 1.918853694660651310e-01 3.191155619672484955e-01
-5.754423307119660436e-01 4.107488713890209420e-01 8.816080999490542858e-02
1.108996870712389976e-01 4.401885288059664142e-02 7.480662282494826565e-01
-1.495055896484102642e-01 -6.247616292315725239e-01 1.659652522332658031e-01
-5.355694334583598337e-01 -3.135295763923738321e-01 -1.621372236548380419e-01
-5.799970563520225747e-02 9.441438468383452076e-02 5.693097334436254542e-01
-7.046703458842225043e-01 3.905493761779443851e-01 -7.273462409790143468e-02
5.529745740732536219e-02 -2.265601187702464547e-01 5.713096255636376242e-01
1.850937357359807092e-02 2.544451726090163901e-01 7.253644603832146709e-01
-1.822285240442839960e-01 -6.400723723246061203e-01 1.210372041315745245e-01
-4.025733675767550479e-01 4.681678335802747504e-01 3.158726065418518414e-01
2.200469855482794224e-01 -3.356971939160131591e-01 7.210468663696518732e-01
-3.695581792475033378e-01 -1.224196889907321201e-01 1.123688993767694155e-01
-5.403958769649243148e-03 1.232887410918444421e-01 6.432741290530108458e-01
-3.804481837743796113e-01 -5.686910486320423397e-01 -8.372616544235236824e-02
-7.782961529318244143e-01 5.028505691151177043e-02 -2.993869900297336240e-01
-2.482312448455743781e-01 4.203037875369809995e-01 4.784782427165221175e-01
-1.377597302346540986e-01 -9.379346146599626399e-02 3.978467880544890312e-01
-8.743727140159461564e-02 2.212297840854191011e-02 5.048654896781048507e-01
-6.736433427868353530e-01 8.571220296474145461e-02 -1.612593675808640381e-01
-6.401113744331360378e-01 -4.193799398872581352e-01 -3.290491206405827262e-01
5.372066653973953804e-02 -6.834353988006257596e-01 3.818583868630001654e-01
-2.075817162083484491e-01 -2.589004550456375786e-01 2.476044107709741426e-01
-2.022133903225110663e-01 -6.026811881542933902e-01 1.127901583372750705e-01
-2.381604432656796722e-01 -3.876521850211090414e-01 1.586304552239355403e-01
-6.331604144017388691e-01 3.367952650165473849e-01 -1.036157858029776793e-02
-5.837366483996028199e-01 -2.345916398193021168e-01 -1.866052466683219280e-01
-5.808114986835589688e-01 5.450921126344628886e-01 1.369807477684757413e-01
8.449363639715212759e-02 -3.901586770000157189e-01 5.386143334893086498e-01
-6.321886734188316703e-01 9.824680282385354901e-02 -1.071601237569412141e-01
-6.547250210483844812e-01 7.140221182733221816e-01 1.190596499098645067e-01
1.461310860345464979e-01 -6.233510806985709252e-01 5.156533515473948892e-01
-5.415638005893232965e-01 4.665225094371432957e-01 1.510672017620804664e-01
-4.642523267779871121e-01 3.972887109816518603e-01 2.139352906377366137e-01
-7.806114364040633857e-01 1.265367380495382998e-01 -2.708127261303212574e-01
8.230275929089797549e-02 -8.985089881200062356e-01 3.273027112910673608e-01
-4.697387762244590315e-01 -5.017111126607562976e-01 -1.616654722117595033e-01
-3.869831209471264466e-01 6.821388805889093410e-02 1.700648681737424728e-01
2.205895198578422534e-01 -4.445008670600419376e-01 6.770136318833793743e-01
-7.388951944501379598e-01 -3.592053274226889720e-02 -2.882548287560556255e-01
1.394978199773455330e-01 -5.480615367412101646e-01 5.387335870033128638e-01
1.283488586777774276e-01 -5.648840170402229521e-01 5.186609230388214975e-01
-2.975120702605102418e-01 2.332897460079912666e-01 3.434974829376366001e-01
-3.234329809767827468e-01 5.196228984848394461e-02 2.384366472685245375e-01
-3.218858333236829239e-01 4.405131685317129620e-01 3.997994410678079036e-01
-8.106659907654564234e-01 1.516664155616310843e-02 -3.520309445848428531e-01
-4.757128268118425707e-01 4.323874761220219964e-02 5.503189453670333242e-02
-8.737298726827205653e-02 -5.899455568247202741e-01 2.536310691682166496e-01
-2.369504618510681268e-02 4.041877470417862273e-02 5.876489742471461275e-01
-5.143820904914574443e-01 -3.110836951915871285e-01 -1.361134343066969232e-01
-2.287497995847533050e-01 2.915692797986964568e-01 4.486259917880286441e-01
9.378869815205663485e-02 -8.849025283747178339e-01 3.464528307495994275e-01
-5.452901858471509433e-01 -2.082163246094285158e-01 -1.303754242312008260e-01
-7.477044263478922759e-02 -4.629219126161724929e-01 3.206679244280266072e-01
-5.377499983002799189e-01 5.225820718821947569e-02 -1.452272006120892099e-02
-5.104970571562137405e-01 5.696266999054570845e-02 1.959111673464261280e-02
-5.727790568061986720e-01 9.244281803697385058e-02 -3.938806632435911531e-02
-3.279879040233006915e-01 4.272824774405779014e-01 3.871612658878079150e-01
-2.166757257769959255e-01 -8.335054620727323435e-03 3.397456565480408974e-01
-2.545230084612831734e-01 4.256284184634617773e-01 4.732347279448539390e-01
-7.236539426161290312e-01 1.276320150993383029e-01 -2.031035303287416494e-01
-4.693943294615266493e-01 -3.309103785409861498e-01 -9.112934111620273059e-02
-1.743266976255687106e-01 -2.792546406483019036e-02 3.817107572846737407e-01
-6.784341513697130788e-01 2.582762497636367227e-01 -9.606331167196990872e-02
-3.312959350958960547e-01 1.207198152621260928e-01 2.573827857155587817e-01
2.026523994695881570e-01 -6.140433551750430485e-01 5.862194385175291123e-01
-5.820338382587461057e-01 -4.501949630643476419e-01 -2.731194067903285339e-01
1.723091592967492813e-01 -5.641217183834247306e-01 5.708853849861573737e-01
-5.476370883941431567e-01 3.015339908703999483e-01 7.615249340507307396e-02
-6.690517271024597479e-01 8.244192856431059591e-02 -1.571800071549880051e-01
1.306334193781397701e-01 -4.441458848906996160e-01 5.709327847973306724e-01
-5.328630835124299470e-01 3.092140979317782243e-02 -1.751261582256897001e-02
-7.640880435919658728e-04 -5.834602921772105016e-02 5.741754700782401022e-01
-6.297553086175170511e-01 6.903682016978461844e-01 1.388335683679430277e-01
-6.276771059986423380e-03 -5.266164493270272251e-01 3.753976970464953933e-01
-3.457327039970764515e-01 4.966613599884103225e-01 3.946933378521412239e-01
-3.014418483904079404e-01 -5.850148256359344323e-01 2.867759075032066170e-03
-3.957575829025779535e-01 5.250041981379051093e-01 3.472577189358409533e-01
-4.432429935370452156e-01 -5.131176619276933693e-01 -1.350607920107408655e-01
-3.274324583920961707e-01 -6.051907527698581202e-01 -3.610788343395287397e-02
-1.137968669256176485e-01 -4.764051997003069805e-01 2.690466029224536926e-01
-7.495166777273443159e-02 3.304502625079371869e-01 6.462060435059340247e-01
-7.568799667088579319e-01 8.062847953779440566e-03 -2.914333184767706197e-01
8.894038935787795808e-02 9.320126197015615732e-02 7.423290130052890845e-01
-4.902418693226162638e-01 -5.214663092638665010e-01 -1.939883136129211538e-01
1.306878376331981895e-01 -1.076570201205059168e-02 7.489394023678125345e-01
-5.899376134794637183e-01 -1.041763367597308143e-01 -1.403803337113244953e-01
8.674562005480200566e-02 1.200666563916700375e-01 7.507679834764994231e-01
-2.920740570570038441e-01 -6.457792083427201790e-01 -1.101944093236398477e-02
-4.044106306766023784e-01 3.577766663847148920e-01 2.683773249320166032e-01
-8.569593438154149423e-02 2.426092993757572591e-01 5.974516641041166531e-01
-3.917433724560313579e-01 2.272494784438547355e-01 2.297423345660886129e-01
-5.870479093147952243e-01 6.603370874213509989e-01 1.769349914371458055e-01
-4.043907674536560415e-01 -2.422659511402001087e-01 2.202819243192746454e-02
-2.165430251599101061e-02 2.805068646297776414e-01 6.886370353938622291e-01
-6.547469939163597097e-01 -1.194989381914440263e-01 -2.232032220397035804e-01
2.367427195337196422e-01 -1.931451815431767804e-01 7.992930733810788002e-01
1.932419374647556809e-01 -3.073278311796761586e-01 7.010417758591850346e-01
-5.638289109188784343e-01 -3.204934234877427901e-01 -1.983673352528975420e-01
-5.290167072711536578e-02 -3.198511608464089662e-01 4.052358149033878365e-01
-2.173879887403373790e-01 3.331589973181249276e-01 4.791192286490647545e-01
-4.572721592716498251e-01 4.881345802454687410e-01 2.594785423633311772e-01
-6.993566179104573344e-01 3.354140212129655407e-01 -8.909791946439475641e-02
-3.247901969848342452e-01 -2.390006354944335665e-01 1.173669533935186304e-01
-3.340329666279006626e-01 2.492305422270836013e-01 3.069161558937134049e-01
-4.749918837640001446e-01 -1.003287139931895305e-01 -3.064389205185201991e-03
-7.074099614131126312e-01 -2.939921997913139129e-01 -3.570369274057632603e-01
-5.300881463658952963e-01 6.600482430634618813e-01 2.440785579030646246e-01
-1.614522983892519858e-01 -4.294324590545984810e-01 2.320582825913995451e-01
-2.380992701705632875e-01 2.254729474748788653e-01 4.104468547953066815e-01
-1.124361952572065365e-01 -4.134420563430175610e-01 2.965055328003466384e-01
9.483525283239693446e-03 -6.105259154709811176e-01 3.595560424866215410e-01
-6.151371444066142669e-01 6.399609712528812056e-01 1.353989462844657210e-01
-2.144428237270173399e-01 -1.138242012519372487e-01 2.990694466988181865e-01
-2.778211312777867370e-01 -5.737764905486917311e-01 3.537516033814517430e-02
2.149555531730536484e-01 -5.167232873544552740e-01 6.407067061545472786e-01
-3.597968364457196366e-01 -4.086650723887400583e-01 6.365779401451402732e-03
-6.250024222580270461e-01 3.365393025010969819e-01 -8.331338619498279262e-04
9.190459225434591262e-02 -7.529431830362998124e-01 3.984093710270686373e-01
-3.330350653998813693e-01 5.227445435418337505e-01 4.203971597514309932e-01
-3.369479375288161327e-01 -6.341727572712807515e-01 -5.924421591614782018e-02
-3.815937198489546822e-01 -4.937675057902140424e-02 1.281473046624725665e-01
-4.227942894518696426e-01 -5.296831730528646087e-01 -1.177151624169329169e-01
-5.491355689029805975e-02 -6.361767898270925814e-01 2.729793211046109280e-01
-2.150854614724346525e-01 2.210851101812842945e-01 4.358215966723201218e-01
-1.590317525065839954e-01 -3.609768606196293028e-01 2.630239448845060335e-01
-4.992238427276857182e-02 -5.166146842367671521e-01 3.279644769932264503e-01
-4.430348624408694813e-01 2.380713176588078461e-01 1.736170318779369504e-01
-1.930633213740493848e-01 7.352847760013672684e-02 4.012413695632666144e-01
-3.732083165208106568e-01 2.370147735755472398e-02 1.680547112612596483e-01
-3.673415711558301600e-01 3.836487752422709785e-01 3.227739989049472902e-01
-2.569189649993535718e-01 3.813271704800084705e-01 4.522156811418437949e-01
-3.342311711273789343e-01 2.578335188988742366e-01 3.102144136596036716e-01
-1.294253994213523939e-01 1.307818890489713670e-01 4.998973633547335038e-01
9.116196663745627926e-02 -1.129162007343065960e-01 6.603222669509187792e-01
-7.205418423479830192e-01 -2.011125213187275051e-01 -3.344083560909717479e-01
-8.549622468080103621e-02 -8.152815252053710049e-01 1.633261800942454045e-01
5.334274907190618593e-03 -8.374004720264305313e-02 5.709502774148496052e-01
1.696613223128529691e-01 -5.506693067703087863e-01 5.732820797441905425e-01
-3.340240189910074209e-01 1.582285204905013454e-01 2.695620364771907918e-01
1.762765646000511444e-01 1.409615764696431073e-01 8.650718119829784447e-01
2.403886416696551231e-01 -2.279299579138328868e-01 7.893160945842913057e-01
-7.862144777317793543e-02 -6.850509551650911799e-01 2.249160149013227361e-01
-6.067191697323757182e-01 -1.707453381476568277e-01 -1.875298832797073767e-01
-2.118841468611848688e-01 -7.064739421234758066e-01 5.875378165750203691e-02
-1.817338957515109710e-01 -2.923694354257225791e-01 2.643852771369142318e-01
-1.737899644581036018e-01 9.230754030294117951e-02 4.317112579006555650e-01
-4.676283088692150813e-01 -2.373895141027367595e-01 -5.064499601377570048e-02
-1.070672783298694426e-02 -4.211255693542080847e-01 4.134801791740593813e-01
-7.365388583386713872e-01 9.948826996603088446e-02 -2.298745521798987168e-01
-2.326511866026681474e-02 -1.430448370905180663e-02 5.656877413435149604e-01
-7.406564036621638980e-01 6.928008925176644406e-02 -2.471400761088049514e-01
-1.386154254367869265e-01 -1.264966877934176059e-01 3.834086448252284063e-01
-3.801710571938321515e-01 -2.580790118805366684e-01 4.413584590500444632e-02
1.799075439000060728e-01 -1.116171672323058583e-01 7.656527669077988207e-01
-1.335818139275836078e-02 -1.694845592412092816e-01 5.136708925910581369e-01
-2.280565101264942218e-01 -5.624066540703631656e-01 9.880914749733496483e-02
-3.444024983892803315e-01 -6.144048094140980298e-01 -5.993053713580781539e-02
-4.086944151019011318e-01 -5.859110611090712073e-02 9.236152565927921443e-02
-2.794800718175244336e-02 -4.735231276269643574e-01 3.716064342542617083e-01
-2.857439920650287624e-01 4.268360384646591177e-02 2.791327495035113571e-01
8.252841427871146843e-03 1.605968321786835351e-02 6.153736822052003896e-01
-2.264817625086442687e-01 4.083680904389774269e-01 4.992608880937780547e-01
1.612200371168393542e-01 -5.559699758135769887e-01 5.611375948735798369e-01
-4.082386631515791953e-01 -2.148662669761284560e-01 2.873440796993856350e-02
2.061392405502326108e-01 8.210307052137153991e-03 8.458292115607765060e-01
2.550883252928476744e-02 -4.534886103184749273e-01 4.429581043122779449e-01
6.024358115354018495e-02 -6.416230673382730121e-01 4.067289122922163047e-01
-5.596717854130807135e-01 1.951176360214484972e-03 -6.106518998058214215e-02
-1.796946507030979800e-01 2.043141510139159789e-01 4.707275796706801851e-01
-3.708324874427222362e-01 2.532111442249521671e-01 2.650950512933779035e-01
8.120022728342010665e-02 -2.487060208509310200e-01 5.928045434248613299e-01
-7.537209399454178893e-01 -1.404272469862357653e-01 -3.486717314846289884e-01
-4.248822288425616600e-01 -2.072440578390039589e-01 1.221011144155829606e-02
-5.898786498327306393e-01 1.793818232855807215e-01 -2.388404515093843494e-02
-1.579889132933109397e-01 -6.652260582784844112e-02 3.851559114474247258e-01
3.664640348476867759e-02 2.605901690543185323e-01 7.493050482717570349e-01
-6.396326007325275897e-01 1.548131200332604762e-01 -9.272477880054971755e-02
-1.896680165307281299e-02 -8.886036469072584876e-02 5.401514669963496384e-01
5.505540218651066436e-02 -9.174538737516717557e-01 2.873484674490204838e-01
-8.120604207891858606e-02 -1.741757910742865734e-01 4.316251027365481385e-01
-2.574164645063823920e-01 3.766866011165524442e-01 4.497228183221824716e-01
-4.266217541952202486e-01 5.543305669569837946e-01 3.228522641734120069e-01
-4.100355741616905636e-01 5.592864730825229946e-01 3.444732668076010973e-01
-2.760807024749550309e-01 2.725182904186247979e-01 3.849120947614254051e-01
-2.353685783193162212e-02 -1.721109531182872521e-02 5.641734213481437443e-01
-2.482069637340798274e-01 1.506002132450193209e-01 3.677688350566804543e-01
1.588065682632867071e-01 -4.463873902778515701e-01 6.032813110377517329e-01
-7.169995438275797994e-01 2.913366486323343829e-01 -1.280297572317188881e-01
-3.792988522748982905e-02 -2.035332879400077455e-01 4.706747372106476757e-01
2.361141906308629190e-01 1.112030623304753885e-01 9.235137598364089317e-01
-2.429843856794553641e-02 2.412569383403207202e-01 6.693989518144364270e-01
-4.828306368287001993e-01 -3.018223024192165926e-01 -9.505256821271956813e-02
-2.308988565973499052e-01 -5.138913614031130894e-01 1.153726835659464184e-01
-1.890871282049590152e-01 -5.209929387662748379e-01 1.618311145553112673e-01
-6.834940004251995743e-03 -2.816927796542101348e-01 4.753022256986720873e-01
2.025874724057820930e-01 -4.882199508125759091e-01 6.378048281730624991e-01
-3.901400473963591575e-01 5.192562417603413527e-01 3.515312429483871126e-01
-5.120664744852621020e-01 -3.809884863305884051e-01 -1.620813244312527823e-01
1.464891994239541917e-01 -9.113534903384493679e-01 3.978248048785854585e-01
-4.795162165907707053e-01 6.808346544859381622e-01 2.299384650224895743e-01
-6.215495798486367351e-02 6.681747827184961741e-01 1.354502805406019861e-01
-2.639373596401520805e-01 8.316858029195941526e-01 -7.717888887524219921e-02
5.188260011295218188e-01 4.890655256383898419e-01 2.689534352617213298e-01
2.427195691621383822e-01 3.013553617217779035e-01 6.532807504978607183e-01
-1.562975708789422769e-01 6.772499079780430753e-01 1.465561059883577766e-01
6.528924203727416442e-01 3.589126255751027839e-01 4.455363483660984558e-01
-3.254523750954440436e-02 8.523219536022972331e-01 -1.749525589010323123e-01
1.497639649661316463e-01 3.383826774923889835e-01 6.181831657176509731e-01
-2.607077943417566157e-01 7.942769762840492520e-01 -1.667485332001222495e-02
6.996216187343228254e-01 3.702500810101144180e-01 4.140235828951763231e-01
-2.045693591655081602e-03 6.169415381927990660e-01 2.029342828623025008e-01
-1.860504009031582057e-02 6.208440728063807645e-01 2.011026983705764826e-01
-2.467691504982238160e-01 6.604466088329746798e-01 1.991201616712634237e-01
-5.636927683481549739e-02 7.116183304844780899e-01 6.255215567424372847e-02
1.311125383103539654e-01 6.049371818017105218e-01 1.858607243853426516e-01
3.388032368808673034e-02 7.391876533793122483e-01 -7.619965932915675512e-03
1.579187142077870254e-01 5.507974280239880116e-01 2.673124986940892955e-01
-1.363082781686773826e-01 9.424208029713785351e-01 -2.941672289576793831e-01
-4.876412126083862209e-01 6.970301054666923068e-01 2.056021707893264383e-01
1.285434230664230792e-01 4.573363715137084284e-01 4.288150827889742334e-01
-4.415761137863232766e-01 7.858975847044117335e-01 4.702929108897896393e-02
2.283865255198951061e-01 3.334637285300720566e-01 6.045424453476758719e-01
1.376544829493369093e-01 6.119061851060600965e-01 1.726163463226720318e-01
-1.919118805196371180e-01 8.209057378558679563e-01 -7.937828596111161372e-02
-1.665559355708526312e-01 7.282925417334995544e-01 6.561724256217783824e-02
6.736176973679784685e-02 2.902781002534655652e-01 7.198908010222571097e-01
-3.912738543872563285e-02 8.054559938960408338e-01 -9.621755027894289547e-02
-1.898584202325180603e-01 4.710802530247470976e-01 4.941938136330868980e-01
-2.361124457326335135e-01 6.026386962824061833e-01 2.910522970514277663e-01
-2.299000517030732604e-01 8.633688925838739481e-01 -1.385780228872034447e-01
5.402058650904442011e-02 8.253390141126256685e-01 -1.545752529976836820e-01
-2.785241076308142549e-01 6.388185623637058219e-01 2.433864630379779792e-01
5.978469596008634257e-01 3.364468656153156156e-01 4.976098306059385523e-01
6.718747416212336732e-02 8.335178277361869892e-01 -1.716348511340919647e-01
6.293769717818224751e-02 8.064549467454373843e-01 -1.260451224635766865e-01
3.874085447589408759e-01 5.115887069307094581e-01 2.682825659689797582e-01
3.192481799503233408e-01 4.108717730823482905e-01 4.524051757013922703e-01
7.355259465164635168e-04 8.038851335045387181e-01 -1.046486662926157524e-01
-5.642812536321748645e-02 7.128971527447997003e-01 6.046958462418045716e-02
1.587300128708561686e-01 5.264964012763226897e-01 3.069716727182497662e-01
5.144884015507277253e-01 3.988562094227276478e-01 4.182043649062450741e-01
3.773670441214680427e-01 5.135643967601650761e-01 2.678132680884688366e-01
-1.933532884284220321e-01 8.724691719969469572e-01 -1.636069400450745892e-01
-1.008096191575459932e-01 5.114721471915475437e-01 4.033087153039890960e-01
3.098813211546428414e-01 3.221806061597056181e-01 6.005534622862188643e-01
5.564434932764750208e-01 3.393518424543037759e-01 5.042768397635781774e-01
-1.352369221823015166e-01 9.450942504740033057e-01 -2.988508184190344918e-01
3.582742074870166049e-01 3.340469415675790255e-01 5.677132173787660108e-01
-3.131563977227348472e-01 7.460271911979394766e-01 7.699859270030835756e-02
6.005765142961996816e-02 2.796694887830582510e-01 7.393190577999012580e-01
-2.147892999981642626e-01 5.591308364518832175e-01 3.565691251179042842e-01
-5.109976660017863104e-01 7.162196401901675946e-01 1.805585232252547578e-01
2.521090066363863569e-01 4.648583338011788024e-01 3.823438888553301052e-01
2.529064033967261607e-02 3.089126590510958836e-01 7.009265604598418076e-01
3.970633076043899035e-01 4.651548738616195777e-01 3.418240927133883722e-01
-2.546134503755117379e-02 5.857608017589110982e-01 2.605754846137026126e-01
-2.714577181466447664e-01 7.559850414818853892e-01 4.913937329100812740e-02
-1.284095583190371925e-01 5.751568939942623970e-01 3.064107642548303811e-01
-2.610389818533066508e-01 8.176916635115418774e-01 -5.501194852629602561e-02
-2.241708772277583028e-01 9.306933886100446918e-01 -2.506543387292546887e-01
4.685805830874623101e-01 1.573458338927510858e-01 8.272537867575728843e-01
9.493853087238807165e-02 2.681925133777822712e-01 7.485219421660954664e-01
1.419405951186092640e-01 4.366170848530394610e-01 4.591199128330019086e-01
-1.130773115128102108e-01 9.070839000400177099e-01 -2.425876040581676496e-01
-3.552682406988735275e-01 7.607330871639989001e-01 6.449338101387239175e-02
2.178698229966340993e-01 6.833380708171671314e-01 3.322751680518847006e-02
1.346736159737460525e-01 4.093868394745907024e-01 5.058176058433867528e-01
4.428196169952300920e-01 1.872038306965114474e-01 7.853649596263319044e-01
6.621275608762769438e-02 6.099776066592706991e-01 1.955121545756065837e-01
-1.457676036905041772e-01 6.299007548148612967e-01 2.213581591034407547e-01
-2.282837206277556485e-01 4.716613870156937671e-01 5.038522488097760821e-01
-2.130643632295938228e-01 8.401486752671017966e-01 -1.051182658888166893e-01
4.048892306869480984e-02 5.821345927297338907e-01 2.483129001154356363e-01
1.495824329925524998e-01 3.252514514657360856e-01 6.397844803662027235e-01
-4.247335937148235402e-02 8.377877165283563743e-01 -1.483568115459604486e-01
7.643671626692825072e-01 2.857361250193854452e-01 5.348479889196867676e-01
1.538434797066058068e-01 4.225345772054414639e-01 4.789450427948627742e-01
1.551106581145522134e-01 5.556559552085300613e-01 2.601141274239235357e-01
-6.165151456076291281e-02 8.108755350500399528e-01 -9.889153185362643816e-02
-1.541331388348364251e-01 9.227285491815115925e-01 -2.569251602880628926e-01
-1.937972796413398868e-01 5.168188639046492616e-01 4.202146930812117320e-01
-2.296725874356517205e-01 5.876658700021837323e-01 3.138473969835528510e-01
1.141616966501711322e-01 3.517269706194635082e-01 6.061148407790758474e-01
2.988929371220997444e-01 3.487706638849425445e-01 5.599481752895667519e-01
-1.282226765610523511e-01 5.209035499750279685e-01 3.954006135856664716e-01
4.507849553885282523e-01 4.737485581224310516e-01 3.128832917968902838e-01
-3.474670090892787444e-01 8.503238672608333104e-01 -8.469897426861471013e-02
4.790253906060413791e-01 2.082327805408897003e-01 7.408526901236318629e-01
8.593495451397752394e-01 2.629644383489850301e-01 5.459892551946969874e-01
2.336637018492011553e-01 4.452866446909258813e-01 4.195594375091125650e-01
4.948594835674633985e-01 3.415466965622128148e-01 5.176827248794703129e-01
1.410163395093933791e-01 5.875041996565629754e-01 2.117368088072118515e-01
3.922782495353469567e-01 4.076350510388446202e-01 4.375480773414481828e-01
6.671496082075990541e-01 3.193764930359737630e-01 5.064861719085964609e-01
2.754022598520969312e-01 6.224776231490204426e-01 1.172235016227786281e-01
-2.752954825303395303e-01 8.801334636460318439e-01 -1.535551123592654443e-01
-5.302800467953392438e-01 7.867588884539412630e-01 7.011373190314480752e-02
5.500655693972477112e-01 4.333153247711034606e-01 3.518238982488933186e-01
-3.339741743750640479e-01 7.296198287051072207e-01 1.096760207935909004e-01
-2.589764496375471792e-01 8.089647100449562922e-01 -4.125875686130187764e-02
2.071648830839099842e-01 2.117824078563100010e-01 8.101087274833093099e-01
-3.061814442519767976e-01 7.152405699542773165e-01 1.255997663569100586e-01
-2.719001657645455650e-01 9.164345871748755812e-01 -2.140708108011596666e-01
4.240013971857831687e-01 1.390794397893205525e-01 8.695446529817517645e-01
7.252796624622508126e-02 5.338755629852716122e-01 3.186679354783988893e-01
-1.344868852814260773e-01 7.880234515756960878e-01 -4.127083720018850932e-02
-2.202953343661815111e-01 7.254490304527440037e-01 8.512566941647189966e-02
2.009791669855338636e-01 5.509445889981953171e-01 2.551786495077604244e-01
3.535428368842654101e-01 4.974574955175966040e-01 3.008278826846365051e-01
-1.243396848874912114e-01 4.084029025202224328e-01 5.789660930582796183e-01
4.297974903129360147e-01 5.389467134353297384e-01 2.116752940709021591e-01
2.123639816245005696e-01 5.789685993587465607e-01 2.060409633029051946e-01
-1.005816362477358755e-01 7.914379881303145181e-01 -5.623869494152853449e-02
2.547254864490005599e-01 2.386830796281605160e-01 7.528237454248623006e-01
-2.971591605388215068e-02 5.647108902057949020e-01 2.962979550185440569e-01
-2.501701914569814944e-01 5.303952640779958649e-01 4.135018137648592829e-01
1.950105201748547346e-01 4.321550818213788503e-01 4.517863072636234545e-01
-5.874448161131280016e-02 7.284677108589178163e-01 3.555465928251704683e-02
-5.713488257478152033e-01 7.936787468208826857e-01 7.009901973817207754e-02
-8.078431234829083762e-02 8.168291872809840815e-01 -1.033787143830905281e-01
4.998240397244071986e-01 1.401226166503052317e-01 8.468920699304743893e-01
-2.669712893185166927e-02 4.619465769757958862e-01 4.641226797878426624e-01
2.920394104833424764e-01 5.107646030040414731e-01 2.959739033195101787e-01
-1.894622140996994053e-01 5.871097437375647488e-01 3.036549218233466907e-01
2.659980792788625981e-01 2.226643916236773213e-01 7.760006381403975473e-01
-2.663238884352840952e-01 8.612760001354100581e-01 -1.250836915968308594e-01
-1.602658437834068861e-02 3.481966732584403923e-01 6.478638896808626146e-01
5.680435176850846422e-04 4.562446631361763427e-01 4.659507266847493501e-01
3.329505132965177583e-01 2.653531985499963941e-01 6.874483280040262212e-01
1.107839264099626381e-01 2.864879680196160683e-01 7.141190063911514452e-01
-2.517845592320362424e-01 6.830913149886709279e-01 1.633404480913668577e-01
-1.790661027454340248e-01 4.446644581770126115e-01 5.345672467483675305e-01
4.828694182268458701e-01 1.992972575570888250e-01 7.544561805732559190e-01
5.787022102482188846e-01 2.854203969353977799e-01 5.866426408327811703e-01
3.479464856027515429e-01 2.009248789631213616e-01 7.890475741596300052e-01
-5.271328566209445565e-01 6.859593342838550267e-01 2.346784004362118814e-01
5.977755980174243727e-02 3.145303696222946921e-01 6.821821737861450963e-01
3.335357142906673900e-02 7.258095136118977164e-01 1.448192958266328323e-02
4.641162796582082306e-02 5.935788974616771352e-01 2.278946053384019454e-01
-3.461487421204547110e-01 7.116661047390171468e-01 1.425043028060101746e-01
6.330530837016871137e-01 2.233013096930573926e-01 6.735830012685135593e-01
2.313052097091782278e-01 2.113371674205068163e-01 8.041724493049725586e-01
3.391640144807431256e-01 5.947141483094459113e-01 1.451798045414924854e-01
-3.203342108098600205e-01 5.912255433448848629e-01 3.330439001101205276e-01
-2.133320540328927095e-01 4.586773607790541885e-01 5.210325285377358506e-01
4.618665535687018764e-01 1.303071017859340763e-01 8.734844528825229659e-01
3.688379698071624357e-01 1.841575708904426290e-01 8.107965932540609488e-01
7.594948367490086394e-01 3.145288062944275875e-01 4.889386033244140783e-01
4.173543294335450571e-01 1.171070417370799199e-01 9.074418767417290477e-01
3.412798818031587827e-02 3.724825480048380433e-01 5.941539587990909421e-01
8.226510176746177905e-01 2.785697509271216066e-01 5.305128707842893254e-01
5.872780062167164833e-02 7.137207069145116156e-01 2.731448378217875630e-02
-8.153380267829747619e-02 4.104049138659757734e-01 5.638583402246106768e-01
5.983762408128401322e-01 1.673870436842745391e-01 7.749273572323891468e-01
-4.331977324390554607e-01 7.549379935836972866e-01 9.552675055505953361e-02
-5.610799658764129005e-02 8.031472023806039973e-01 -8.773866250658717003e-02
1.473445864085952406e-01 6.568825302515797215e-01 9.612425630045690061e-02
3.358104002712789526e-01 5.953565070073340015e-01 1.450517477372658681e-01
6.454253624741610462e-01 2.142846699999523541e-01 6.849643110756779008e-01
1.129745277608568965e-01 3.797549199718319723e-01 5.604427882427479579e-01
-1.852654911178169828e-01 6.486475252061452146e-01 2.014990836502376925e-01
-7.048740976846740169e-02 8.330079858292930295e-01 -1.327753914324941165e-01
2.700721434887115580e-01 3.100889797532715986e-01 6.313928316011656605e-01
1.781973032562495785e-01 6.090683618435157598e-01 1.660768146600730133e-01
-1.345767693762233430e-01 7.970956113120597486e-01 -5.613538789019981157e-02
7.420228367264736224e-01 3.479463042981054688e-01 4.389186399571261554e-01
2.351561741158650909e-01 5.861652114833005855e-01 1.879350778969708646e-01
7.384402312803551860e-01 3.483859971563778024e-01 4.391864438092312750e-01
-4.452717758057430641e-01 8.056023354795456282e-01 1.571019533467363921e-02
-2.843255282199306788e-01 5.045583990559640020e-01 4.653386266514571434e-01
-3.854739438377935978e-01 7.806220330695171628e-01 4.019345691307606161e-02
6.058008983382476981e-02 3.322540401880458849e-01 6.528721595439154202e-01
-2.245767035645554188e-01 6.784458672282280833e-01 1.634504354495538714e-01
7.102100917261958690e-01 2.998078201781549379e-01 5.267102582062667127e-01
2.553563224797143483e-01 6.193116971730817655e-01 1.279557062671007328e-01
2.891253727936226592e-01 3.704569097013419299e-01 5.270539404870298039e-01
8.210815763209635687e-01 2.797128139331510055e-01 5.290703016893746335e-01
2.771883745228458373e-01 5.841510444299291560e-01 1.796324151959418358e-01
4.604596710247974567e-01 2.580491765542272109e-01 6.642206519508514484e-01
-3.515764699076147359e-02 3.429748155201952087e-01 6.617176548585095297e-01
-5.305428288229981776e-02 5.046515501886470467e-01 4.013138417409739533e-01
2.001133486089440999e-02 4.466049591221404880e-01 4.764017654382409761e-01
7.170859951121969500e-01 2.902011825281121116e-01 5.405778571229061802e-01
3.735356723772298992e-01 1.909081085571427694e-01 7.984201025934622997e-01
-4.040402054842185536e-02 6.861483097334221126e-01 9.994472004360230311e-02
-6.570805607115470792e-02 7.927841878672141629e-01 -6.807939622058889473e-02
2.722133958710641899e-01 4.941626959558457211e-01 3.286967187544405089e-01
-8.305569650989563790e-02 6.175447048097371106e-01 2.243174924699098682e-01
5.527135762605841496e-01 2.176816088337616140e-01 7.049941054525038497e-01
-1.442037920892179359e-01 7.524686157091067251e-01 1.976592255718184060e-02
-1.649855389293194419e-01 7.363355191491368634e-01 5.198327036306347321e-02
-4.393175419678824190e-01 8.479639098327340641e-01 -5.545872779555228310e-02
-8.317061442132259175e-02 8.987705929131211136e-01 -2.372032259971603996e-01
3.004743663585851543e-01 4.968243407371183418e-01 3.165233415952986573e-01
-4.663302234684016390e-01 8.082364582142163023e-01 1.720289914990581065e-02
5.197986180428204595e-01 3.940458083984583193e-01 4.246327104581791301e-01
4.316768794193740488e-01 5.410371348572042827e-01 2.077254158718598032e-01
-2.100882961782168379e-01 7.199903225283802444e-01 9.126563494295068801e-02
-1.215616030439948397e-01 6.458438617672074278e-01 1.885069236021846562e-01
5.452991110580737710e-02 6.062999460836628884e-01 2.047745287196642283e-01
-2.958028615041168319e-01 9.051105224933529980e-01 -1.888841878333767654e-01
5.448778803165817974e-01 3.791395628298925291e-01 4.421707539156946587e-01
2.592719758093188220e-01 3.404665079183730736e-01 5.845195060148061783e-01
2.430888581516624236e-02 7.479547579657338519e-01 -1.936526381397953370e-02
-4.073189686610308446e-01 8.283161662721155727e-01 -3.204981918606997909e-02
1.967958377061528319e-01 4.796895034679024561e-01 3.732789845483736046e-01
1.052146136398174614e-01 7.454078349852591989e-01 -3.752955074708902439e-02
-5.496443043967924602e-01 7.629260588548645305e-01 1.145765269941460274e-01
-5.278376466016603263e-01 7.739330341493924070e-01 9.048919465790786210e-02
7.303836121789472136e-04 8.553418844622613371e-01 -1.890988943880431150e-01
7.366428480820765845e-01 2.572710613780128108e-01 5.892221403703350457e-01
4.121046482350958218e-02 5.456760531494500022e-01 3.079499688102591004e-01
3.970011550852892146e-01 4.193552639273986915e-01 4.170083151840487390e-01
-1.212252866123123864e-02 5.353504957662361674e-01 3.396258102290335423e-01
5.311237402497849258e-01 3.720793990779101001e-01 4.575565917455851617e-01
4.001553253148278366e-01 4.987630152768767200e-01 2.858119242430255391e-01
4.722292397364078465e-01 5.178424861669772561e-01 2.345931991763141322e-01
-2.091319965420625204e-01 7.146142054604155414e-01 9.982489644881469004e-02
2.993829569432831517e-01 1.169430623318775814e-01 9.402920357072714896e-01
-7.932182664035725139e-02 5.327966465162786713e-01 3.623761597845150950e-01
-3.695723372272969875e-01 7.224130721627974872e-01 1.313352756743771388e-01
-4.786845572794967002e-02 4.685336515925075940e-01 4.591589099906434601e-01
4.047440251607478112e-01 5.727924780719770848e-01 1.630462823478645851e-01
5.909707845463845199e-01 4.612361214077858595e-01 2.947027390092921140e-01
3.026754419388317241e-01 3.055023884231963804e-01 6.299161231859585763e-01
-2.843820895619676437e-01 7.486252497554481966e-01 6.478780198379989474e-02
5.451494822516913530e-01 1.980766322385402456e-01 7.392591409710798089e-01
-1.723401512161912563e-01 5.636832782665289754e-01 3.373740864582595034e-01
3.036570068584426574e-01 3.566486618740618564e-01 5.457029494770236910e-01
4.866554731640013176e-01 2.812249698837674394e-01 6.189494767870045155e-01
-6.004928390880676092e-01 8.089400404916854415e-01 5.310085821941932377e-02
-2.857148930322175318e-01 7.341543165715853636e-01 8.890582082345648007e-02
8.641656952840234829e-02 7.907421307755163609e-01 -1.067413310601184329e-01
-1.345428751696678138e-01 6.150812149400042284e-01 2.425802096414780284e-01
-1.603213105988984810e-02 3.411843307564363381e-01 6.593741909849768490e-01
1.353383526877098009e-01 3.365572382331930568e-01 6.251631348999402427e-01
-5.216895709554630889e-01 7.758180719000685732e-01 8.569748046596752100e-02
2.347455950418907700e-01 5.686759899423565745e-01 2.167520626065092271e-01
2.058545453278389503e-01 2.351926946904478177e-01 7.720492734952901781e-01
7.382706531473103018e-02 3.936428209785772236e-01 5.484613879877914266e-01
7.188009719461307956e-01 2.231757266461521783e-01 6.501074767073513616e-01
-1.548750393240511392e-01 5.938001913858309555e-01 2.831222535269483642e-01
-1.137050100747008796e-01 8.254209564048657910e-01 -1.083877097353216634e-01
1.391815702826264822e-01 3.087575855846455553e-01 6.697269624398446419e-01
-5.457001828107346242e-01 8.036020350235987264e-01 4.672918243223705276e-02
1.555247322629262907e-01 6.633084428807509703e-01 8.331877315825458874e-02
1.245668464542109971e-01 4.398600962348178656e-01 4.585956680066165525e-01
1.891189588871873273e-01 4.094835499995977957e-01 4.906223067724578280e-01
5.996817559899374483e-01 2.588530848089301006e-01 6.244512637809210842e-01
1.502409325247035243e-01 5.156489214538699795e-01 3.271192238810959330e-01
1.174959624273834435e-01 3.143222157621788360e-01 6.665832777545611654e-01
-4.285762381161329904e-01 8.085239683342524408e-01 6.304233349833246805e-03
-2.058003162501789440e-01 4.761194816949544384e-01 4.903261426492204755e-01
5.062791172354076386e-01 4.198601458740056080e-01 3.859995854141425320e-01
-1.156681521026676623e-01 8.703010846243205423e-01 -1.815035233170196882e-01
3.265751221394455062e-01 1.385865621779711898e-01 8.972605122707980607e-01
-1.159890895930020815e-01 8.698511511409428021e-01 -1.806764495396689929e-01
-1.234211285848390294e-01 9.010146970965229318e-01 -2.297700013876075587e-01
6.620185881899859348e-01 3.262874442723092128e-01 4.965608794968281448e-01
2.539273379512106410e-01 4.198559282224683664e-01 4.557003794621996007e-01
-4.592376630374601920e-02 4.309176842545705544e-01 5.203577619501982277e-01
-2.155689164656030277e-01 9.297717875312137004e-01 -2.515174598225009550e-01
5.283328026836299207e-01 3.103025163426512134e-01 5.597166005305777015e-01
6.744974738801747145e-03 7.066043728318074368e-01 5.335041039020910203e-02
5.190308139997499293e-01 2.906734945499389045e-01 5.945010667415205896e-01
-3.103413267689792421e-01 8.803404597348539751e-01 -1.442159656307523408e-01
-2.931700817905564249e-01 8.902851072412413247e-01 -1.652795919832003024e-01
2.989147614954952292e-01 4.332374155412146988e-01 4.213139548830200920e-01
5.368069981328036366e-01 4.448159264297440463e-01 3.366106440681819190e-01
3.464931333611337427e-01 4.102592372372781959e-01 4.458860375208104632e-01
-4.862757412627366493e-01 6.855187194126125538e-01 2.241177305518455287e-01
2.331372663715340354e-01 2.953677813664502549e-01 6.657540797867370630e-01
2.678282930874409384e-01 6.977092889062398440e-01 -4.156160832147505306e-03
3.932991342816792302e-01 4.055085771254783866e-01 4.407561352208916872e-01
-2.354022751359926557e-01 7.094526846961092259e-01 1.155513261081076298e-01
1.597126023933081729e-01 4.410947301321583303e-01 4.468629015708202035e-01
-2.245451878144270330e-01 5.280654030840621349e-01 4.102485708760517658e-01
-1.750178687515224485e-01 9.352343564847360735e-01 -2.716820010776841432e-01
4.011399283028482254e-01 1.386909462759395861e-01 8.764960770677210355e-01
7.079002471586743894e-01 3.141861925376844833e-01 5.037501689437239305e-01
7.637319702233087704e-02 4.728691345520060763e-01 4.177307021776125451e-01
9.634801550676927451e-02 7.515398067618838107e-01 -4.514468707152820282e-02
3.167298023084718639e-01 6.461135560368767017e-01 6.701809248738062330e-02
4.327874054598450093e-01 5.594147737051189395e-01 1.772570368004283969e-01
2.762335302023944880e-02 2.853699588588259339e-01 7.389209764796065283e-01
-4.822861446885231551e-01 7.149290008704152211e-01 1.747472663972453044e-01
-7.111929664404703644e-02 5.734227024940953266e-01 2.934346686500469148e-01
-1.985529961896392304e-01 7.647874170899434665e-01 1.455813218563823015e-02
-1.043232032235938411e-02 7.829003166923549362e-01 -6.712373966526323510e-02
3.294849513034448507e-01 3.611225840192846537e-01 5.312271804631013561e-01
-1.886353641279581439e-01 4.535355919025346183e-01 5.226506134714290486e-01
3.211709369772492995e-01 7.689634756876183308e-02 1.000000000000000000e+00
3.958831742491086825e-01 2.203117555068650757e-01 7.439904875504514958e-01
-3.230924115471103808e-01 5.568981662163117186e-01 3.901442970933727827e-01
2.606174612049195760e-01 -9.010338200615022330e-01 1.949640880851516989e-01
9.416031293044960226e-02 -7.088099704763629605e-01 -7.454507783373724716e-02
2.315146630281816054e-01 -5.950196927332295216e-01 -2.992336887938863987e-01
1.127783157446475143e-01 -6.867415393679627833e-01 -1.159060149619640517e-01
-7.046238064720235228e-02 -7.525824810338936910e-01 4.276014779154292678e-02
-7.870546322900437430e-02 -5.461210800651876696e-01 -2.938110746134613427e-01
-3.164112921612723395e-01 -1.899055078421477971e-01 -8.127888172832093971e-01
-3.712886656066709534e-01 -5.745261422138550067e-01 -1.663873452215179904e-01
-2.936375567353505800e-01 -3.233010897499314362e-01 -6.001474324280580142e-01
-1.967726333359909874e-01 -2.528298390767360626e-01 -7.425578917959698710e-01
-2.069593066447651397e-01 -6.565257253394395365e-01 -7.719237294842676289e-02
-1.563855177355972029e-02 -6.368366256027077066e-01 -1.623449195143091273e-01
-7.377969405045427254e-02 -3.732315459771634591e-01 -5.789205484322212936e-01
-5.431198089509933769e-02 -2.777918007612178442e-01 -7.409343386284891197e-01
-3.911861108531560771e-01 -1.483336623696779322e-01 -8.603660804480000035e-01
-3.849535664880010533e-01 -2.830275301543586641e-01 -6.410256238681570906e-01
-3.088107108801694256e-01 -5.952898122292145100e-01 -1.495646781111425183e-01
-7.567017103575911230e-02 -2.695901038390050575e-01 -7.484964451113395034e-01
2.450714930973295069e-01 -8.930588730848511014e-01 1.861689225799148528e-01
8.253908965243896001e-02 -7.095233441379658057e-01 -7.016475763285166811e-02
-3.265987017258948355e-01 -3.742578574167155780e-01 -5.074132396526199740e-01
1.948822266207477227e-01 -5.516558901197853304e-01 -3.602860069119412922e-01
1.119781770051970771e-01 -5.827511994018861330e-01 -2.863556552156253376e-01
-8.522343889521140081e-01 -2.739967511725805993e-01 -5.267946558041851635e-01
2.052393018117052159e-01 -7.210016455248207112e-01 -8.521341678522302565e-02
2.602036198189391913e-01 -5.110352626852805447e-01 -4.449935308607086415e-01
