-1.296886069225139659e-01 4.234396490742705077e-01 8.613158184259770422e-01
5.252631095851002102e-02 -5.701195551322409821e-02 2.210214331860227699e-01
1.035740438076049041e-01 -2.237990159330733586e-01 -3.237826935694038122e-01
1.533636908330486548e-01 -3.577387380087128643e-01 -5.289152428145299512e-01
2.872152106437032004e-01 -6.913214052684770738e-01 -7.796115682605671005e-01
-1.690349659025157381e-01 5.068052274589173178e-01 7.682041999347073435e-01
2.360143580866024826e-01 -5.598320996245728098e-01 -6.395828908571140614e-01
1.778043386530421266e-01 -4.040048615604543425e-01 -4.084347050140220148e-01
-1.795962488746280158e-02 9.460379098432937506e-02 8.002208026560043985e-02
-2.431977434218627887e-01 6.740467607907616454e-01 7.074582134239348896e-01
1.580688186872491185e-01 -3.711940325808256169e-01 -5.573595713709563748e-01
2.949224738393825818e-01 -7.066299650650024189e-01 -7.497779910398870706e-01
-6.610371179942743647e-02 1.960165000716871109e-01 -4.064310208412352105e-02
-6.923209203359986796e-02 2.644323994759947283e-01 6.534188533544268429e-01
2.139713571467868614e-01 -5.229724281392370555e-01 -8.035065384324058257e-01
-2.283253496648531000e-01 6.266751158140401179e-01 5.625904452074632633e-01
-5.374232567842129882e-02 1.931859342761560183e-01 2.538151943060535931e-01
1.992546876537573952e-01 -4.458456452367797751e-01 -3.167189805321218854e-01
-4.767688778373782577e-02 1.776394394776725227e-01 2.375697836858323975e-01
2.669373409555903520e-01 -6.371996953923911855e-01 -7.009264135611578128e-01
5.763228857503588376e-02 -8.546738971245615435e-02 3.287346332682268557e-02
-1.320908014906104211e-01 4.122250722210547558e-01 6.705314193441426207e-01
-1.792127994664525492e-01 5.008331091723622341e-01 4.315008120259270497e-01
2.586391341620108419e-01 -6.145975488860855318e-01 -6.635700176388298344e-01
-3.599740429375888201e-02 1.773166701225286357e-01 5.424825375643018699e-01
1.879877547198000598e-01 -4.732547170221472199e-01 -9.255672767810834145e-01
1.906731714861205074e-01 -4.831331118453905393e-01 -9.667652724947632947e-01
2.520828274893882961e-02 -3.794668335294885952e-02 -2.842878288228138373e-01
-1.174031491663941884e-01 3.659851226626149034e-01 5.336306643237077596e-01
-2.623134395851051681e-01 7.128051116415943245e-01 6.424306626380195118e-01
7.095665553920885160e-02 -1.308465629068323588e-01 -1.302736309861469433e-01
2.960626010444369349e-01 -7.012591062652719920e-01 -6.586807969175976218e-01
-1.127950231543262960e-01 3.320779801621815963e-01 2.704368330521015884e-01
1.755039223959701383e-02 3.171797353382270479e-02 3.042794184658306200e-01
-9.500189925219817977e-02 3.144072944127320191e-01 5.399264468853004484e-01
1.447266029215543148e-01 -3.111923182557865819e-01 -2.286765988850603115e-01
-2.803085846629241873e-01 7.598622708597496667e-01 7.012236555548384542e-01
1.008728507894311316e-01 -1.941608530523699916e-01 -5.867191801935646434e-02
-2.271000283103199319e-03 5.825835115531113884e-02 8.189829532629265552e-02
-9.502218876938310632e-02 3.142971763365895455e-01 5.381402353799455973e-01
-1.886327182054930718e-01 5.503974445217033606e-01 7.453186499853298175e-01
1.122349244687821518e-01 -2.763349250984355465e-01 -6.913904709361139433e-01
3.989002652259943799e-02 -6.944337021205664040e-02 -2.539667056473191020e-01
-1.654045301147492042e-01 4.562031190879076714e-01 2.896439923500728209e-01
5.934531257063873494e-02 -9.169942777343562113e-02 7.380947015880334056e-03
-6.277231279010068998e-02 2.107625265970095307e-01 2.147832909052052597e-01
1.961203849592633996e-01 -4.382590642582936402e-01 -3.133993576697903793e-01
-3.330707165401887090e-03 8.967693997512185544e-02 4.105907592365289349e-01
8.568178682051147410e-02 -1.496302106494791784e-01 4.552297916224571500e-02
4.161803296228739485e-02 -6.429502402235756642e-02 -1.498636341882482181e-01
7.047451996811131270e-02 -1.474528528635604685e-01 -3.315405108629044251e-01
-9.459055078162478813e-02 3.331241459447016884e-01 7.632839799903926581e-01
9.559244934842818509e-02 -2.191845003411211912e-01 -4.822720561874315193e-01
-1.078921475213055065e-01 3.327012742181489902e-01 4.070491306382310603e-01
7.676349140973694196e-02 -1.223552211840505249e-01 1.195464248700320725e-01
2.115671574721853798e-01 -5.109711836840531429e-01 -7.307782790853463162e-01
-2.011279954144036819e-01 5.595958004227999938e-01 5.196154297328625660e-01
-1.527687256893943690e-01 4.235878777320827848e-01 2.532117192032041775e-01
-1.986687541884631369e-01 5.491103079786142649e-01 4.655494909577172491e-01
-7.767182294724268854e-02 2.438220542618045050e-01 1.964513741682678005e-01
-2.428972680546681584e-01 6.611514927218351545e-01 5.689989180929476698e-01
-8.690715580639882254e-02 2.603436359259643784e-01 1.400167724942929515e-01
4.170290342224958202e-02 -7.577136793710088913e-02 -2.779104794452549321e-01
-4.857438536060547374e-02 1.976720068308051859e-01 4.412841455481237296e-01
1.737747196586183762e-01 -3.976802343557973018e-01 -4.430964999533590354e-01
-7.335923042672833072e-02 2.329271795062215211e-01 1.867041397715292483e-01
1.701010662616539992e-01 -4.153871937868002240e-01 -7.411804188383720460e-01
1.160585617495478866e-01 -2.300632351612153237e-01 -6.505293734910200243e-02
-4.341262539648302332e-02 1.838398070040750398e-01 4.206252915608599818e-01
-2.035392242120336870e-01 5.631274785798870974e-01 4.960042982742837725e-01
-1.319925392007163245e-01 3.916368130514614188e-01 4.393922253527445809e-01
-2.157662013467920581e-01 6.174343414601033420e-01 7.894995981865540191e-01
-1.915539888778995392e-01 5.631128486698588897e-01 8.124934102498164723e-01
1.576347373920923556e-01 -3.548670632473533426e-01 -3.834706290594228628e-01
-1.410850484236047808e-01 4.127369477860119429e-01 4.387106931032346835e-01
-1.734877333727961879e-01 4.980942314972603424e-01 5.516655277109533406e-01
-1.297393648587133186e-01 3.733415638430575556e-01 2.912189460994510370e-01
-1.277223552935989881e-01 4.170214300566330023e-01 8.404000042118967562e-01
1.437679854313992089e-01 -3.460150819552091916e-01 -6.493411545289379250e-01
1.192364521060196858e-01 -2.847213372679614496e-01 -6.016166653414287691e-01
2.107163602720598938e-01 -5.271149685190619216e-01 -9.365346125580553682e-01
-4.617086593173633235e-02 1.924198109915223609e-01 4.451588205279559118e-01
-1.548989910589133323e-01 4.844777754261555547e-01 8.882027743215802351e-01
-4.529137131680020106e-02 1.503652540373674185e-01 -9.043434737779916521e-03
-1.302889782594113255e-01 4.117782863563680396e-01 7.130640927995414158e-01
-2.245668427836511050e-01 6.197045492202751804e-01 5.827560884177007683e-01
1.660811319469602809e-01 -4.170499698999259319e-01 -8.662660966857653744e-01
7.841754763408981255e-02 -1.795188469611501414e-01 -4.857224962281603275e-01
-1.331796826096571518e-01 4.027251591207306469e-01 5.339116535657207896e-01
7.698224111554791138e-02 -1.252922274782455048e-01 9.198250965460570694e-02
1.013905721033466628e-01 -2.413487337903344743e-01 -5.807102156497372381e-01
1.493138207060738243e-01 -3.183496618567524528e-01 -1.887364986627888264e-01
1.531032524498165612e-02 8.559182390461893969e-03 -1.782231898438842513e-02
1.429943827255546196e-01 -3.041202487075418404e-01 -1.941545069005986002e-01
-6.046180939110197550e-02 2.223702966463311503e-01 4.076090304999507863e-01
-1.542079195459965073e-02 8.962917743576359619e-02 9.062314657603698365e-02
1.754018892618167680e-01 -3.799996435875990786e-01 -1.993809447675120583e-01
-1.144033623231722162e-02 5.950419759628114424e-02 -1.462157019259661128e-01
-5.152896524331436467e-02 1.575203057441204313e-01 -9.261321997790410154e-02
1.099373759394364422e-02 3.206277202165472295e-03 -1.926391743485781904e-01
-8.303606800172698768e-03 6.393413785005762351e-02 -1.304949940251616536e-02
-1.868757858236048675e-01 5.356292337860435460e-01 6.240763624208441884e-01
4.322375842508614091e-02 -6.921831611986298260e-02 -1.633330342340131025e-01
-1.885379198369473985e-01 5.421013609078034756e-01 6.536391085373283172e-01
-1.360696613992244952e-01 4.392672461830028907e-01 8.724138108795564950e-01
8.731812302222401179e-02 -2.106484006885462057e-01 -6.039743855764168057e-01
-7.153809296660799955e-02 2.591408232880373363e-01 5.324188444309405632e-01
-2.103445930897998861e-01 6.126557599523215769e-01 8.784903813677238382e-01
1.427735295351444111e-01 -3.531736719709753225e-01 -7.568854848573560723e-01
-1.280171125520268849e-01 3.632851388015930216e-01 2.225525710259570744e-01
1.530954767952521223e-01 -3.315961131712252263e-01 -2.392083932538978386e-01
-1.582416637656093028e-01 4.718811286762492063e-01 6.568801019497978455e-01
-1.580072451088181118e-01 4.502595259021379692e-01 4.176068288488377078e-01
1.605246828773329026e-01 -3.956132785477639580e-01 -7.697024849562335014e-01
-1.408812348207547638e-01 4.334293769417760234e-01 6.790134911647384142e-01
1.213503234169204387e-01 -2.864217344306210222e-01 -5.650715994831548850e-01
4.644076679518679279e-02 -8.650788319910968083e-02 -2.746240394981220301e-01
-8.234517746469281751e-02 2.439015531446093177e-01 7.388182538119945908e-02
6.057855316934424722e-02 -9.369466032866261007e-02 1.731214041273098844e-02
-1.949346195812295679e-01 5.643564733531413191e-01 7.372943351738604489e-01
6.267619994054562937e-02 -1.361966931199688480e-01 -4.097861217504685238e-01
-2.159639039305147890e-01 6.066142191796883854e-01 6.614370313770248089e-01
-1.154130793080557910e-01 3.277273226815232698e-01 1.518742923622691254e-01
1.197943827003484091e-01 -2.669196990381201284e-01 -3.847766431710474277e-01
1.148840219531543083e-01 -2.582727848231645140e-01 -4.163434578203620284e-01
2.595860167491212955e-01 -6.081867567423803189e-01 -5.657722288814430733e-01
-1.004683496265969256e-01 2.930314868527329475e-01 1.528241749736505561e-01
-2.162679891656297537e-01 6.046203234834014451e-01 6.307665754279930814e-01
3.065665447385655384e-01 -7.319941095269374420e-01 -7.300917180176705878e-01
9.684883319066606155e-02 -2.109861746251609493e-01 -3.560035151705914225e-01
-7.283385851446322334e-02 2.174868021788168293e-01 2.529247795720379263e-02
-1.405050821641787850e-01 4.486419785295819307e-01 8.616579268677615477e-01
3.065957525204313083e-02 -8.548701247513725357e-03 1.934884742400778124e-01
2.016915049058788934e-01 -4.744455681822302151e-01 -5.770277027570508421e-01
-2.207766007660675114e-02 1.002761054308383970e-01 3.561868445940423455e-02
2.627657008487468970e-01 -6.315756822725827613e-01 -7.472944324361832091e-01
-2.326200411444953597e-02 9.516005686765810490e-02 -5.375391661837287255e-02
-1.738411006315924642e-02 7.477213468566841492e-02 -1.299182957397960470e-01
9.511097195373717506e-02 -1.954450251496496760e-01 -2.254823053927964005e-01
6.033365990310381871e-02 -1.104228280625444980e-01 -1.790703527276285290e-01
7.014217993737374701e-02 -1.515076915488712261e-01 -3.863550384674948601e-01
-1.550582934997930991e-02 1.131410179314291387e-01 3.553027154356216410e-01
-7.421742207965882632e-02 2.389029806294077074e-01 2.318726851762524799e-01
2.009400434240456168e-01 -4.753261914831920509e-01 -6.068792268520510902e-01
-1.314825562005208781e-01 3.855239618892414843e-01 3.834679458514703154e-01
-6.131032574626107262e-02 1.892616216201450929e-01 9.313179408184461480e-03
2.423626646172160337e-01 -5.837618694600354985e-01 -7.435288142827235491e-01
-6.865626853185326228e-02 2.112201404574640118e-01 6.452180484114307391e-02
9.891946141506233192e-02 -2.372454559289514930e-01 -5.994141698936782392e-01
2.007174977985321795e-01 -5.023584105764264951e-01 -9.196515893556519439e-01
-7.873871152191601330e-02 2.437242804599810686e-01 1.671536966480111353e-01
1.042004994442824739e-01 -2.304920638324171323e-01 -3.832165986098094446e-01
-2.802205639556518135e-02 1.025002746830206701e-01 -9.618423774589199282e-02
1.290188122268655369e-01 -2.571173666992712659e-01 -2.977878172998594739e-02
-1.595356050921503954e-01 4.627529922200922519e-01 5.190632778865320596e-01
-1.637892283842780350e-02 1.002398549660502569e-01 1.857702895388841646e-01
-8.825438780795449856e-02 2.573342383506891928e-01 7.025708292825758039e-02
2.919318780306222050e-01 -6.889288571351674939e-01 -6.278329063311233194e-01
-1.075821763547924054e-01 3.512946892503995278e-01 6.263268751423665126e-01
-2.200987149710913748e-01 5.988434467417773632e-01 4.639731207183601103e-01
3.896078162793450983e-02 -5.796544324276513283e-02 -1.482106331552701106e-01
1.309974856351345529e-01 -2.706378855465524924e-01 -1.309977202536353469e-01
-2.332167028296357192e-01 6.571864204750934579e-01 7.797488676090009729e-01
-1.112255423758753553e-01 3.232170045299344041e-01 2.113059193659035662e-01
2.173664408637595302e-01 -5.241041508258410531e-01 -7.266552022742504002e-01
2.662264394609645257e-01 -6.339758231587517834e-01 -6.831086209365259121e-01
-1.318706206166581907e-01 4.071520046172520391e-01 6.187549420339835127e-01
-1.565356615969124288e-01 4.553616949816972070e-01 5.144108518713800260e-01
3.004785996627428180e-01 -7.109573879678762198e-01 -6.521112604605987517e-01
1.504328850455877442e-01 -3.661956621379346966e-01 -7.023585779056550349e-01
-4.084200529149854125e-02 1.329838975178531946e-01 -8.881707861556900618e-02
2.351779845276276149e-01 -5.658157397444125714e-01 -7.296115913917624596e-01
2.832035582918839348e-02 -3.814648268138924603e-02 -2.043337765225766989e-01
1.888715051052936300e-01 -4.609880405711613838e-01 -7.629565183824245089e-01
-4.469263607088506257e-02 1.901987258129912428e-01 4.589986683171216053e-01
4.816188504136950654e-02 -9.043628369289676006e-02 -2.737498605764455140e-01
2.054489764808673236e-01 -4.764664288050111662e-01 -5.006961652599115631e-01
2.870990558209789989e-01 -6.728180148675922956e-01 -5.726142960539717386e-01
-1.873074864121940242e-02 9.542397178533472413e-02 6.896003659934116237e-02
-1.571458188096807596e-01 4.586067455627717004e-01 5.351307873594702835e-01
1.002301134572388397e-01 -2.394040778648195145e-01 -5.892926664285611515e-01
1.243956280994666236e-01 -3.061538647747015784e-01 -7.086291354492636474e-01
3.073227704498398549e-01 -7.327868409212239253e-01 -7.191116583282921582e-01
1.556488269383547174e-01 -3.513361563375007601e-01 -3.958534181553067799e-01
2.670417262492310040e-01 -6.240266278513633136e-01 -5.486167065172715684e-01
9.074545846692337603e-03 7.808539734916421747e-03 -1.910962908523540782e-01
-9.503380766762785370e-02 3.086369476924501476e-01 4.735735572443202646e-01
2.253735148832000101e-01 -5.252992151196959059e-01 -5.286721558965380430e-01
3.403394264406614522e-02 -5.824489742246595492e-02 -2.815524920207482240e-01
-4.412285074377725325e-02 1.809992778926207413e-01 3.696127363163370094e-01
-1.411299485130266262e-01 4.093797073739691150e-01 3.994101809811336223e-01
-1.827856586743828449e-01 5.237007202240703263e-01 5.967167530560799626e-01
-6.154056819296951225e-03 5.385143829726679598e-02 -7.072477195288416618e-02
-2.251111147348055785e-01 6.357107936250657731e-01 7.500926044154715422e-01
-2.553279148514317476e-03 8.621175961842215962e-02 3.917910928113636504e-01
-2.781490221373719152e-01 7.607631545416777552e-01 7.685078431818874733e-01
-1.901860210279660290e-01 5.527913489379502332e-01 7.314573315608112747e-01
1.305490097316868991e-01 -3.235679381935990251e-01 -7.437533654180877862e-01
7.385691562401908161e-02 -1.598119755236797335e-01 -3.824873369893885822e-01
2.410848600673077824e-01 -5.528033820832674028e-01 -4.258220475650593695e-01
-1.428971874731429781e-01 4.537294393623396704e-01 8.562146068795200016e-01
-2.045601140351734071e-01 5.687180387436132634e-01 5.325007051490796561e-01
3.008513819017785001e-02 -1.241018022605842354e-02 1.344728191983992349e-01
1.617796344892146188e-01 -3.910835662931511636e-01 -6.851209862005913642e-01
-1.130619242627659143e-01 3.752213699548204162e-01 7.531854299897464688e-01
-8.706615933604200386e-02 2.826962527525411217e-01 3.895816361643020809e-01
3.671062004285361585e-02 -4.242838103165337549e-02 -3.127102658457773382e-02
1.626365307120180292e-01 -3.896856877340410530e-01 -6.466115106828683734e-01
2.713250714989217660e-01 -6.450165649751717911e-01 -6.737443508507811041e-01
-4.486977093342751216e-02 1.860625667686166829e-01 4.073615122239992448e-01
-2.587713574470079658e-01 7.103524031848972298e-01 7.081688144538789143e-01
2.276980379189789960e-01 -5.343745617715981444e-01 -5.702882412482392915e-01
4.602462785863491168e-02 -1.022254082656733482e-01 -4.640572486341612013e-01
2.168804832933262650e-01 -5.209690393800688879e-01 -7.039019794887305670e-01
-1.856435671793104369e-01 5.264103236582160505e-01 5.519712593611753038e-01
-1.616243842984390333e-01 4.494669467121126805e-01 3.130423871292081772e-01
1.628114416055028990e-01 -3.849161335661591132e-01 -5.878422758074561827e-01
-1.380921165825564345e-01 4.156884845514715598e-01 5.512936133529481308e-01
2.947571683891432592e-02 -4.143415953975940202e-02 -2.111331168006706505e-01
2.447349919963498210e-01 -6.000079424712378984e-01 -8.652900368236526862e-01
1.999821662077568840e-01 -4.479531626175819459e-01 -3.214249956855954604e-01
1.328407635934257813e-01 -2.698900556614533541e-01 -7.380750649708781030e-02
1.070656494838411327e-01 -2.392034495950181583e-01 -4.064170883302372084e-01
2.438824633151727150e-01 -5.841773205458276053e-01 -7.080916144640768684e-01
6.126260729479745398e-03 6.781896873419460126e-02 4.122978494999355314e-01
2.609744613521700618e-01 -6.294891276956268156e-01 -7.709314379851375243e-01
-1.199542249358975243e-01 3.741697939799012440e-01 5.591494270073972261e-01
-2.589696354344108720e-01 7.056061486182859666e-01 6.490467274273310494e-01
9.954700232482538436e-02 -2.193386217122491322e-01 -3.795407386969608665e-01
2.669194376789148504e-01 -6.433764916160423786e-01 -7.715236397059738183e-01
1.332666436415190503e-01 -3.000969533285061663e-01 -4.054898123455881187e-01
1.899040149299517088e-01 -4.374473213011944583e-01 -4.684230028596934603e-01
-1.057408509192793999e-01 3.065514850185480089e-01 1.670128169779594163e-01
-1.370057196690377954e-01 4.055098582428025011e-01 4.644403262603846172e-01
2.507285363535081621e-02 -2.147076130059506760e-02 -1.008173269513794185e-01
-1.711979822034060683e-01 4.949034495333748951e-01 5.759373084978647306e-01
-9.709891864510954151e-02 3.303576713598279646e-01 6.656044360814764582e-01
-1.691038705609620718e-01 5.186020917699694088e-01 9.003116872719242325e-01
-1.324788357430970176e-01 4.300694687272176298e-01 8.628640611939398797e-01
-2.825593565857118915e-03 7.914537695149266583e-02 3.043728746165913490e-01
8.031055084409824407e-02 -1.527642624866680232e-01 -1.319678506140545826e-01
3.261659287427964848e-02 -5.809077237419104506e-02 -3.172497401254186222e-01
-5.352222632913491290e-02 1.783950438414982631e-01 9.171162114768052764e-02
-1.318788566594765732e-01 3.680136150654682026e-01 1.742052494880700075e-01
2.286829552125225207e-01 -5.297154767093933403e-01 -4.913724187634788132e-01
3.726965268700422468e-02 -3.982047694826771483e-02 1.310599474534391087e-02
1.363960959506511639e-01 -2.840751507680235877e-01 -1.409152519187101549e-01
6.030582948196223231e-02 -1.170055385325040748e-01 -2.545381401624767781e-01
-1.131847266069448549e-01 3.485130412224828889e-01 4.467254062170757378e-01
-1.353983331137342538e-01 4.107222033883709544e-01 5.660831374429531326e-01
5.279087495779011263e-02 -8.736117011714189529e-02 -1.165386160204501947e-01
1.302445550143846720e-01 -2.642379101528011254e-01 -7.823254696707854228e-02
8.682866136669438462e-02 -1.720604383452289110e-01 -1.788230008067550614e-01
1.918067518081486567e-01 -4.491999186682372192e-01 -5.515772784412007468e-01
-1.396829685934532495e-01 4.271431437066496306e-01 6.393055781611300947e-01
-2.157443129332468623e-01 6.210049420933142494e-01 8.306143773266285724e-01
-2.510229613008839733e-01 6.852661333730013515e-01 6.280843104768153440e-01
8.520970067203351150e-02 -1.609179417224003983e-01 -9.509761284398804415e-02
-1.610201378372280168e-01 4.970391174358860797e-01 8.690863530377848090e-01
-6.292602697394227007e-02 1.944862495698520544e-01 2.594003474284908156e-02
7.403968455287750217e-02 -1.118685382105949339e-01 1.666359388963029320e-01
1.892948838234579378e-01 -4.660620242578127903e-01 -8.093748191842086159e-01
1.585826510375007992e-01 -3.555509492164541929e-01 -3.661903843109962642e-01
2.357578169008031285e-02 -3.280516784073239656e-02 -2.690483951049240652e-01
-2.045140502643893465e-01 5.792350922599974750e-01 6.531162147703337695e-01
2.898405626349676023e-01 -6.813284997524911013e-01 -5.968006976807576081e-01
5.887425120606853968e-02 -1.287236047972180053e-01 -4.253944662947337640e-01
-7.675206613559608371e-02 2.577250568095274530e-01 3.785903957126550701e-01
1.426213343409171441e-01 -2.918520100299084041e-01 -6.473119054633218183e-02
2.223014875277468105e-01 -5.248183122939837908e-01 -6.043768578919503920e-01
1.350328792747292894e-01 -2.844622644395231603e-01 -1.813268794156563946e-01
-1.600230326250998980e-01 4.784590865477095778e-01 6.844940910063116446e-01
7.552025720964758437e-02 -1.468423163915986429e-01 -1.912985814581464883e-01
-2.063299605798626229e-02 7.764521629757215049e-02 -1.831376446340624020e-01
1.458900722313344889e-01 -3.131711235002735405e-01 -2.204022969890984951e-01
-8.945534936019695557e-03 9.294516531120372571e-02 2.993481909128681284e-01
8.570624151983248507e-02 -1.947107718770506868e-01 -4.656235669789846598e-01
1.700456314401882219e-01 -3.912582012112247321e-01 -4.687123046611461064e-01
-9.993676401961484879e-02 2.885594556359378782e-01 1.160986213284682378e-01
1.515218209150697992e-01 -3.478427262812323062e-01 -4.652303653653738769e-01
-2.562051394172961682e-01 6.978892484887432301e-01 6.344771558642875453e-01
1.149647429898353473e-01 -2.378558990639141890e-01 -1.824210212715862700e-01
1.204606089646346884e-01 -2.398248658035973535e-01 -5.957119384848003768e-02
1.992622656514990986e-01 -4.690588178958661203e-01 -5.800543310102288519e-01
-1.700419517395672375e-01 5.072196188630702096e-01 7.463037116525570447e-01
4.991890145119404903e-03 2.815362977739003722e-02 -6.798718948666387929e-02
-4.452249813684081015e-02 1.398045037533131030e-01 -1.086240333840697986e-01
-2.343784963994924031e-01 6.480659326321143165e-01 6.455102790795261836e-01
-2.211408977327150582e-01 6.352799318996813493e-01 8.500959818662480183e-01
-9.517051554327705942e-02 2.932755920639464886e-01 2.955665765970932335e-01
2.230233333050807842e-01 -5.392812192426251761e-01 -7.495005232801537076e-01
-5.228906145171598012e-03 9.100177846999932263e-02 3.754801919195227544e-01
2.030472616510826597e-02 -2.184762984197664588e-03 -7.842396827526286820e-03
-9.735031799992291401e-02 2.917599179387583286e-01 2.207680201008845322e-01
-1.937648511642049987e-01 5.590987850018676042e-01 7.085104086890818831e-01
-1.009688982685433140e-01 3.338706258438057795e-01 6.032398975183204115e-01
-2.609003338917796899e-01 7.138428135561944998e-01 6.915464078333891651e-01
-1.298912417928682617e-01 3.660841998008280695e-01 2.048145572625038324e-01
3.082666924129855435e-01 -7.302432139988612736e-01 -6.652954201352759833e-01
1.947389766549577628e-01 -4.811016250756509072e-01 -8.362817513049398688e-01
1.250100668682874727e-01 -3.046368727930413578e-01 -6.751732164986745666e-01
-8.627698439560065047e-02 3.043882653714114483e-01 6.566980556093082733e-01
-1.294510941653246594e-01 4.238090582246376026e-01 8.717848552537601492e-01
-6.701592967145002244e-02 2.092439381426973721e-01 8.542476122591399768e-02
-1.566866643795249425e-01 4.548868281787200596e-01 5.050302022784501910e-01
-1.325466532671624731e-01 4.205975708719175699e-01 7.535392986403068871e-01
6.173659730006989671e-02 -1.240874871082840863e-01 -2.971368919871072434e-01
2.902096392179630002e-01 -6.964883733057790627e-01 -7.591572349905700845e-01
-1.659781506717354855e-03 5.409978544595534650e-02 5.083541063470180255e-02
-1.789100306176150401e-01 5.057292645836415357e-01 4.950853948338223010e-01
-3.247372896682915525e-03 7.122954999601478765e-02 2.033621176596806246e-01
-1.907338378678462287e-01 5.312653983829267457e-01 4.726029765397583016e-01
1.333381639085666759e-01 -3.195702099344831515e-01 -6.246770904527414459e-01
-1.742458338130113138e-01 4.949133048651204736e-01 4.955236109115805920e-01
2.878035681429764667e-02 -1.937453863069952056e-02 2.093463432999326246e-02
1.773610079189998912e-01 -4.016144435528158918e-01 -3.930096520167348784e-01
-2.287185718235726709e-02 9.015506519187330148e-02 -1.002669602182630210e-01
-2.565397626898658929e-03 2.738877729641890982e-02 -2.763373173349772949e-01
1.520423705612428955e-01 -3.235606156078736362e-01 -1.758061614217242274e-01
-1.216985573231082335e-01 3.393981071434610253e-01 1.183058050164957353e-01
1.333822195756363335e-02 2.344384097565699668e-02 9.905707281779944917e-02
-1.141762439167468973e-01 3.707245268445791275e-01 6.726926479015898908e-01
-6.766693454205138791e-02 2.024505235404238934e-01 -8.899661463462113856e-03
2.030461687119146375e-01 -4.872338367847360852e-01 -6.864201262117975988e-01
1.541153117704881226e-01 -3.431970457076338188e-01 -3.439674990749480021e-01
-1.714935139409266562e-01 5.133325147471472505e-01 7.773515611376264900e-01
1.179202507512902565e-01 -2.620106834587098144e-01 -3.785607399663371564e-01
1.496156366809206495e-01 -3.513538124976045007e-01 -5.554534130870973918e-01
-3.383630418611176943e-02 1.201941233109706103e-01 -4.892369737581393069e-02
2.358707718792793506e-01 -5.507405506950081575e-01 -5.401615507357688806e-01
1.231783998511761374e-01 -2.902586734296117577e-01 -5.603331898368759667e-01
4.807919289939337204e-03 6.882369813804957437e-02 3.888732250385124600e-01
-1.277384601026625432e-01 3.941041184123985075e-01 5.797978079472219104e-01
2.691073807502725734e-01 -6.475188165672067786e-01 -7.607443943602369973e-01
3.114406412129033241e-01 -7.429981707509087929e-01 -7.262433474425205038e-01
1.032988464028408993e-01 -2.450853702830194381e-01 -5.727142241711966619e-01
-1.290911723291537916e-01 4.158448598766684712e-01 7.908778349143333886e-01
2.014666102712260876e-01 -4.962272024403364123e-01 -8.302530483027806829e-01
1.877534889691076514e-01 -4.203078943120226452e-01 -3.306595792755498975e-01
-1.756515031129731452e-01 5.008282164151721672e-01 5.255362855200099714e-01
1.394156680133761851e-02 8.500293073253508205e-03 -5.465408202005766353e-02
1.988665140109070750e-02 2.913648870635587515e-02 3.366972172138783526e-01
1.293268499167719576e-01 -2.775737066686845833e-01 -2.538779588327999548e-01
-1.344998372205434556e-01 4.083382281238462364e-01 5.627568921484523701e-01
-1.618804387187816329e-01 4.949925915049400715e-01 8.231229314888772741e-01
-2.523949687021413424e-01 6.998627123426290897e-01 7.575479768480319898e-01
1.622417882543978340e-01 -4.050124652549926263e-01 -8.310433188651493719e-01
9.250770703195627942e-02 -1.893122974533071323e-01 -2.246378021865855779e-01
-1.827493691010706467e-01 5.515988105782242412e-01 9.143982512341890523e-01
2.345693197630638882e-01 -5.367088417044446613e-01 -4.152466642611212233e-01
2.237955690316117685e-01 -5.308519433523591902e-01 -6.334014473277955748e-01
-1.102709127390946037e-01 3.744706777860759561e-01 8.184026930304868497e-01
9.758042760512086744e-02 -2.178902483538323609e-01 -4.150553509881607650e-01
-6.617033990712468949e-02 2.217247607233501783e-01 2.494584671249988617e-01
8.831803301891809344e-02 -2.118636440417977773e-01 -5.913527926241008981e-01
-2.263602637432214348e-01 6.267679348125948513e-01 6.155626416281368973e-01
-1.192859355589802189e-01 3.607407681954624135e-01 4.243482711023122134e-01
-2.833697968809788248e-02 1.154683866452263785e-01 4.272032249757792138e-02
-3.709865411590848594e-02 1.799901871526935482e-01 5.437390575930991510e-01
-1.171250633353892318e-01 3.696187328009923889e-01 5.822296293995466998e-01
1.183432752422803463e-01 -2.882412730138426138e-01 -6.651760789368373894e-01
2.038784933046252149e-02 -6.723221913129414674e-03 -5.717066951284067305e-02
2.692600244155233039e-02 -2.447632727918768944e-02 -8.597804466486015651e-02
2.150557042043497735e-01 -5.317969561327859918e-01 -8.750411145574596983e-01
7.361857860658900521e-02 -1.326016044085145951e-01 -7.986916477025121641e-02
-1.208053006841564164e-01 3.715562425214046227e-01 5.069923842967201111e-01
-1.335194095322622676e-01 4.023435672761656590e-01 5.206037651646971964e-01
4.662344678804126313e-02 -9.508326144441228700e-02 -3.671524984960213289e-01
2.218445044368650698e-01 -5.366901417826117626e-01 -7.512295995704794116e-01
2.096464060381837136e-01 -5.046379999059725785e-01 -7.096257215989920653e-01
1.707828089019483853e-01 -4.198178342774367966e-01 -7.734688549209933761e-01
1.696856925834538607e-02 -4.883346368976912606e-03 -1.266217340089135224e-01
9.741527970085835098e-02 -1.944833268554747585e-01 -1.536834662768448989e-01
1.875310566333787954e-01 -4.181188124823820851e-01 -3.116840317149799922e-01
9.548575775969768420e-02 -2.030963550947199048e-01 -3.024446664316626787e-01
-7.234818718575734831e-02 2.475689803930174737e-01 3.796424524915709697e-01
-8.286089032431684376e-02 2.551980491472593537e-01 1.885038388620833560e-01
-6.657499529100856760e-03 6.719638169842666320e-02 6.747713128265447891e-02
-9.335189525303880242e-02 2.660915747566181544e-01 3.499937607017487157e-02
-1.312973373476092331e-01 3.897036383595366971e-01 4.358127311515624380e-01
2.457060357920810567e-01 -5.789838947443007866e-01 -6.009518642847845316e-01
-1.566982343107779230e-01 4.522839229116472626e-01 4.751741380471197207e-01
1.743613830022616162e-01 -4.372013882307856925e-01 -8.762741526081624377e-01
3.489739538548980446e-02 -1.088880777985874737e-02 2.788866829761832422e-01
1.286805614373807416e-01 -3.192003737479327530e-01 -7.435343086564828452e-01
-2.219557568678519610e-01 6.239569888873843784e-01 7.000194206774921213e-01
-3.095008558172268609e-02 1.395357628532902239e-01 2.469141178955572558e-01
-1.373382606896541847e-01 4.344494959729877093e-01 7.842016840103539499e-01
-6.821879033021352456e-02 2.213557280318503850e-01 1.911479324097107579e-01
-7.249668406703697887e-02 2.109498538944138968e-01 -4.001218885502538097e-02
-3.632198329920731383e-02 1.688692649196774920e-01 4.380049303159344043e-01
-9.568861147297422209e-02 3.046544594933283112e-01 4.110607784032322964e-01
1.339154742651436636e-01 -3.134749607413499506e-01 -5.402258733998452911e-01
-1.830117020773436645e-02 8.157135622290712096e-02 -7.695691704105689368e-02
2.464076884956475089e-01 -5.927578311341690220e-01 -7.387872632272400875e-01
1.795983836229990693e-01 -4.177184605932750538e-01 -5.167236178302236915e-01
-2.555910159340460952e-01 6.922691056809187060e-01 5.868979557131644986e-01
1.875241201178690365e-01 -4.150729583891213381e-01 -2.772881863469247588e-01
2.382248075408064103e-01 -5.867786704184556612e-01 -8.871020984735352721e-01
7.631601435882936525e-03 5.432629725879227489e-02 2.988893991632038949e-01
7.601216107589138515e-02 -1.656878660227313060e-01 -3.922528791307863805e-01
2.640051446889679077e-01 -6.290368293046278980e-01 -6.857245738911822430e-01
-1.552725788591717559e-01 4.374342451681957344e-01 3.442544855305970097e-01
-1.899507972392616151e-01 5.268463189328143059e-01 4.431221286885200783e-01
1.564124426108004159e-02 1.821663083377670148e-02 1.005602281902199802e-01
1.992568908825051721e-01 -5.013346907776805583e-01 -9.466193354251160041e-01
1.301016361367994534e-01 -3.198404489890611102e-01 -7.132555637651550873e-01
1.798198140561325931e-01 -4.386652022831355469e-01 -7.486784518535581912e-01
-4.824313410422601499e-03 3.971009262835627912e-02 -1.961368782775679276e-01
-2.029053438513216470e-02 8.665375671836214599e-02 -7.181708795013973246e-02
-1.403505797957208256e-01 3.894072087128269688e-01 1.932567531378207581e-01
-3.383469907741076810e-02 1.379358150146197393e-01 1.525373964669162474e-01
2.073695483960810715e-01 -4.774455441750084517e-01 -4.610695538731729437e-01
-1.306806963846098291e-01 4.282287497085469630e-01 8.894742972676686898e-01
1.341310000161375637e-01 -3.118424130925153137e-01 -5.159975266583326503e-01
2.519580093403203658e-01 -5.990364765685249893e-01 -6.634258308286162809e-01
4.121547464062052385e-02 -6.557083653846712545e-02 -1.749835050561204808e-01
-1.729979956863083868e-01 5.309214100944759096e-01 9.372865026647774211e-01
3.140137548113461352e-02 -1.584532746266078401e-02 1.302496927867218823e-01
-9.056937337343726191e-02 2.661679135726826573e-01 1.093814940274545205e-01
-9.057715817706668560e-02 2.983959484636840020e-01 4.750557194078356416e-01
-5.981600028642922173e-02 1.793136845564218540e-01 -6.414347621812900579e-02
-2.120561277588954574e-02 8.153890620357272245e-02 -1.540619706258629096e-01
2.271025114910556753e-01 -5.601234502671861293e-01 -8.783454669405325044e-01
1.029838886628874489e-01 -2.054579295587470600e-01 -1.311513314565426747e-01
-2.048273124275903079e-01 5.716598386482435457e-01 5.588390058172536534e-01
2.568548203481808567e-01 -5.950466386286114018e-01 -4.887539104755419528e-01
-2.131157120379695569e-01 5.811694950279912009e-01 4.478174932367280925e-01
2.770728582947590835e-01 -6.499773654064460171e-01 -5.782044901261069736e-01
1.750962638914902725e-01 -3.925975329655207458e-01 -3.504775945212070254e-01
2.126675974656427326e-01 -5.138036258604725681e-01 -7.338604477888517330e-01
1.185269672015022702e-01 -2.883046761943514613e-01 -6.610426628823186102e-01
7.271406195686551388e-02 -1.307925801304976321e-01 -8.322932028194378329e-02
-1.796806364296397313e-02 1.293177352643490319e-01 4.739011733578099017e-01
1.311362213769978226e-02 3.287150814526521719e-02 2.001538960427396152e-01
2.037586524018172029e-01 -4.919012436242626851e-01 -7.205843420032607138e-01
-3.291706667022872845e-02 1.674755481452076256e-01 5.121416779243725959e-01
1.071297648367559689e-02 -9.259685821374714909e-03 -3.415811598575927976e-01
-2.084812030769860394e-02 1.089043507241620606e-01 1.660588037922558213e-01
1.741352408202029578e-01 -4.043573075595795485e-01 -5.093751528525112260e-01
-6.477246097888640641e-02 2.416148913856308034e-01 5.122006267707451821e-01
5.648118471153463355e-02 -8.034596246959573029e-02 6.060356422507402058e-02
6.193592191888774856e-02 -9.069490614363981407e-02 8.723016741060622692e-02
2.058539508671592133e-01 -4.887090784209245919e-01 -6.289854739047858745e-01
-1.954795107419629238e-02 7.182892596359752302e-02 -2.205017236362923905e-01
2.228992824909755144e-01 -5.372046465552984262e-01 -7.292029914500207655e-01
-1.160355120215155883e-01 3.589477523088009381e-01 4.898700619413972057e-01
7.188080736763290124e-02 -1.263325439489232371e-01 -5.461017196809495045e-02
1.291703346601983105e-01 -2.909609668346112565e-01 -4.099966582809159155e-01
-3.809153699080047167e-02 1.832621638014188536e-01 5.546528997916845283e-01
5.248534228377490368e-02 -7.144256562299523827e-02 5.611053459291349965e-02
1.961715741615897568e-01 -4.712441551016499641e-01 -6.865215590142513813e-01
1.114166242733478571e-02 5.151002206590035715e-02 3.596540211507085472e-01
1.020644134959064198e-01 -2.195176871277635944e-01 -3.150625273746179844e-01
5.543632517810707233e-02 -7.587130190567546728e-02 8.379804494871899434e-02
1.909978012501430122e-03 6.033281440506764459e-02 2.159126466583326520e-01
-1.149990501820982447e-01 3.299239388948568275e-01 1.877509691182976670e-01
2.136669490450894271e-01 -5.270893194944563653e-01 -8.582875665326459291e-01
2.310153064191566297e-01 -5.520969707072136412e-01 -6.838443164144745179e-01
1.703025921807960197e-01 -3.985596179929936644e-01 -5.448151457802947739e-01
-9.064363145890104445e-02 3.033250227504051821e-01 5.292584851949146962e-01
-2.287265276233607647e-01 6.326597654642505120e-01 6.199339499253585517e-01
1.470643142384749358e-01 -3.536503603419181574e-01 -6.489328301979131464e-01
3.672297034130488948e-03 1.827183112308492993e-02 -2.150379555594325864e-01
2.699583163186754578e-02 -3.146039495303936534e-02 -1.634221684530517138e-01
-6.418009427017193347e-02 2.376615675227997104e-01 4.829697411266717921e-01
1.148336244755175928e-01 -2.372752690092368721e-01 -1.792934268965185596e-01
-2.281786743639440951e-01 6.302178131336235722e-01 6.066853669327567644e-01
6.882205438231321637e-02 -1.130464176314924379e-01 1.541156561314348597e-02
-1.762881485135299742e-01 4.846496509737072689e-01 3.250430781799427127e-01
1.759874534733674722e-01 -4.144531011985499447e-01 -5.750548638668158130e-01
-4.294461271909474388e-03 7.029156903261564449e-02 1.650488279838528138e-01
4.242926950060368907e-02 -7.400014415590533412e-02 -2.386111372556629917e-01
-1.276395356411927362e-01 3.943833426631884742e-01 5.855814256457104738e-01
-8.228402164181208844e-02 2.531495632780208505e-01 1.804888201187905550e-01
-1.059487460549697752e-01 3.120429274711655765e-01 2.238636339624240912e-01
1.209418623640505369e-01 -2.668218834328576206e-01 -3.533492389495329622e-01
6.002078377289035704e-02 -1.223083094207454563e-01 -3.222707125203934653e-01
-1.005071624321160345e-01 3.476083014518430159e-01 7.714008716918004938e-01
2.303985294380615501e-01 -5.373613994912376235e-01 -5.328491717726456800e-01
1.779011863479892930e-01 -4.409390674364003226e-01 -8.251842819734034329e-01
1.848348932075418449e-01 -4.186876969210205357e-01 -3.893763156312925466e-01
1.304662820735419393e-01 -3.095403153636867577e-01 -5.866856308476606774e-01
5.516500801701673673e-02 -8.064970973710793023e-02 2.238119969238968124e-02
8.688895612322364292e-02 -1.787102690938860150e-01 -2.527244883428844680e-01
8.694449033831519458e-02 -1.449565791336381027e-01 1.319431798390737764e-01
2.230343517874784909e-01 -5.199477548575212049e-01 -5.297195745088513208e-01
6.975001204650543851e-02 -1.273708862392564645e-01 -1.226948637220138666e-01
-7.454561632651755809e-02 2.714546374084896851e-01 5.927555810844171713e-01
2.428008698320850978e-01 -5.749737508944813280e-01 -6.321810862793174612e-01
-1.785917097787478591e-01 5.094575637948164371e-01 5.458223769824236404e-01
-6.779538410958399486e-02 2.603320545676013342e-01 6.448267277512556017e-01
-3.366250833862779318e-02 1.143093822108279950e-01 -1.111404914031503682e-01
1.318798895396866289e-01 -3.255497926321937463e-01 -7.310906213600170123e-01
-3.938033808049586776e-02 1.716454397019183120e-01 3.887193318363125760e-01
-2.418714840264842708e-02 1.385893836676765911e-01 4.148498039101959911e-01
6.726228026415188854e-02 -1.478415742664358767e-01 -4.208223945163260260e-01
1.688302949439055289e-01 -4.218274680817145628e-01 -8.478701970059073778e-01
-1.150129352657090903e-01 3.831944101098807010e-01 7.921555525341809068e-01
-1.196606047051416988e-01 3.518799139840375623e-01 3.138534374985105235e-01
-3.487074408939441067e-02 1.171710081957968164e-01 -1.105750148745255762e-01
2.094375722451886634e-01 -5.094529729930808992e-01 -7.698068484158473446e-01
2.749773223013003698e-02 -1.905680351388992083e-02 -9.345675113349088264e-03
2.337944071717093231e-01 -5.505209414919352007e-01 -5.925268326289446774e-01
-1.959538956850501445e-01 5.481123812235125792e-01 5.259479415394355817e-01
-9.260916945148126023e-02 2.728804987979730479e-01 1.316961255602091263e-01
-1.369875989864531574e-01 3.909489936997516124e-01 2.996118360798327163e-01
-2.002432955207717746e-01 5.570791296828455641e-01 5.144182168047563009e-01
-2.380492125031369588e-01 6.659112341017251469e-01 7.511232926506151708e-01
-7.907206769816203795e-02 2.691451318619167421e-01 4.469452798282982919e-01
1.852021112794147162e-01 -4.323278681566032344e-01 -5.345290098906578802e-01
-5.562571158649273068e-02 1.926896274392524422e-01 1.984208131533695962e-01
-2.599294105907908742e-02 1.525829401660002416e-01 5.260066515425813050e-01
1.978404052837854088e-01 -4.892076139712673299e-01 -8.463666793537967248e-01
-1.028110018783920526e-01 3.372927470604425992e-01 5.934215214816953576e-01
-2.096531964195779141e-01 5.721917365531562494e-01 4.373755772831216526e-01
5.747906435727234004e-02 -8.786604459837416004e-02 1.593653411561236043e-03
5.877423631344180777e-02 -7.698622415046434131e-02 1.593295891080969140e-01
2.739604898442318803e-01 -6.471410674858026901e-01 -6.282345848615427109e-01
8.349681508543575770e-02 -1.667363688798904342e-01 -2.064085104465724629e-01
1.450200578356559411e-01 -3.165809714059852342e-01 -2.820999377143549314e-01
1.533950823692739884e-01 -3.415489195933653632e-01 -3.442853562157447422e-01
-6.425105764281040244e-02 2.094974793092950482e-01 1.613523132583478958e-01
-2.701456287539012457e-01 7.308630193507272832e-01 6.405094084002012078e-01
-1.460899962058774815e-01 4.461431638481581086e-01 6.857333777067159408e-01
6.240691087296416917e-02 -1.182574967799186749e-01 -2.132399318734521099e-01
-2.050453947994720916e-01 5.713028243194072653e-01 5.490240448329828382e-01
-1.531582064069306193e-01 4.263250208453978618e-01 2.739958299667040187e-01
-1.325867522258418821e-02 7.683272699325464916e-02 2.471098350934440493e-03
-8.426942138857022868e-02 2.717183635094584382e-01 3.388424047901488212e-01
9.647791838815085452e-02 -1.792232827069936973e-01 -5.204040844373197285e-03
-2.037077311351618569e-01 5.795236134738624978e-01 6.776950585421726014e-01
2.325320128189762858e-01 -5.640416075061486234e-01 -7.793778814910636843e-01
2.755131950739817537e-01 -6.440843892865522058e-01 -5.525094323690380449e-01
-1.158890820796387895e-02 7.527338855178085375e-02 2.888415072768069775e-02
-1.142144703598596961e-01 3.644566180397276756e-01 6.005240876724994292e-01
4.396438467327268285e-02 -8.015888900192656707e-02 -2.679719965761556133e-01
1.387437384865388215e-02 2.658246507115150786e-02 1.488547569027229844e-01
9.630232046075355712e-02 -1.992658099369514491e-01 -2.373831321141206818e-01
1.678263776140164198e-01 -3.832501105625683580e-01 -4.364313529618787380e-01
3.189857093115160830e-02 -4.510880790521920591e-02 -1.888379586293259527e-01
1.619071661022322972e-01 -3.664376587386802275e-01 -4.019503622039136137e-01
5.139944955221859013e-02 -8.103087787302364065e-02 -8.143385856573051584e-02
2.176653057007948422e-01 -5.380530178568997401e-01 -8.771183948380928408e-01
1.090428049931403826e-01 -2.203956815576243455e-01 -1.406580816858241656e-01
-7.567400875156994611e-02 2.216965012905725840e-01 -1.953479893713542560e-03
2.634749625242515103e-01 -6.097241819538298246e-01 -4.804787174650202997e-01
2.309887955568530882e-01 -5.665152623963767287e-01 -8.482333841002654973e-01
2.632198216300694615e-01 -6.191052531585722329e-01 -5.937215051298678770e-01
-4.013808055285587872e-02 1.740400145428617207e-01 3.958846799364723057e-01
2.792499417368631276e-01 -6.584189390220046567e-01 -6.165208671527587780e-01
-6.316229998844824500e-02 2.301576959530550470e-01 4.246700197517822017e-01
-1.419492600936198001e-01 4.115137778922663414e-01 4.019913807426449548e-01
-2.561569628030879731e-01 7.099185344156027089e-01 7.723166287712583955e-01
2.207700829737146292e-02 6.135284972007717767e-03 1.334382983224972063e-01
-2.214946631517192288e-01 6.365563493244852378e-01 8.552403133975089444e-01
-1.581453597631467811e-01 4.613544672683417280e-01 5.399169347739463110e-01
6.068019815565798419e-02 -1.314644160339601686e-01 -4.087965581765336531e-01
-1.131780026618385143e-01 3.660424547181975186e-01 6.459117802613070225e-01
-1.787530947836660222e-01 5.411534734378848910e-01 9.013972815394860616e-01
-8.506738714645432908e-02 2.992166208354224421e-01 6.299432665815970500e-01
-7.014657457143699815e-02 2.194498220442975267e-01 1.185775662342908737e-01
-2.756494089407463682e-02 1.263523969068009178e-01 1.866824156530330903e-01
4.675039456325613685e-02 -5.579407941696856721e-02 8.224553406249948684e-02
-5.741258697214705192e-02 1.973448451784637903e-01 2.040607455566287309e-01
8.199307363838284624e-02 -1.750632547167312036e-01 -3.406718716682870518e-01
-5.638703547704572785e-03 9.135195726265722682e-02 3.686286895785389484e-01
-4.887303195522702676e-02 1.690633204039584669e-01 1.086037716861105035e-01
-2.558952936865380723e-01 7.009415044033662223e-01 6.773152067708423374e-01
-7.176052438736499339e-02 2.311555574806405944e-01 2.088297070950695944e-01
2.042319794948428691e-01 -4.680325095392807722e-01 -4.371007793116254425e-01
-4.905840538083670183e-02 1.729357511739816333e-01 1.476692325653806426e-01
-3.718197724358187489e-02 1.193201420063798035e-01 -1.472400298021049603e-01
-2.213447744761960212e-01 6.202405906903946109e-01 6.739701500835685311e-01
-2.669399150491174599e-01 7.276039845650865701e-01 6.882064595714161293e-01
-1.608372324578360157e-01 4.804850195034977012e-01 6.859826763524180526e-01
7.346173599701751045e-02 -1.353745477649440365e-01 -1.154938133992866739e-01
-6.520828801432643207e-02 2.155191887249683635e-01 2.044254017966525838e-01
1.079157221114069032e-01 -2.158918724705339576e-01 -1.193050594030772710e-01
-4.262177286889860806e-02 1.478339475757670940e-01 3.275100220061089723e-02
1.507322129533130717e-01 -3.150579461016493332e-01 -1.138916093249240924e-01
-1.700668790430794330e-01 5.245480125161513518e-01 9.423716985188396178e-01
2.528960968363987427e-01 -5.965096755580334698e-01 -6.099547638076974199e-01
-4.439566444826250485e-02 1.770027992867068967e-01 3.170334734719602587e-01
1.801293689236958817e-01 -4.480250043792895487e-01 -8.467602635537102573e-01
1.563056424712068460e-01 -3.628288948380843926e-01 -5.089753475568494778e-01
1.759605914894960266e-01 -4.169532077157414030e-01 -6.041478925394322408e-01
-4.695835569677617172e-02 1.869737041513524212e-01 3.625241837029866687e-01
5.575091842621709981e-02 -1.107299699611488664e-01 -3.036353381067464774e-01
-4.081534540370897884e-02 1.666804262050891050e-01 2.944387739999121401e-01
-5.815879262492979623e-02 2.192167592211775318e-01 4.326541257008091890e-01
8.245865359020089491e-02 -1.744624989769470447e-01 -3.215507568753657730e-01
-1.065630315044906878e-01 3.515085900937445218e-01 6.556815147790265863e-01
-2.762646926890371946e-02 9.669504657712918450e-02 -1.516385096211479433e-01
-2.569190497526514516e-01 7.150913336012580945e-01 8.109079458278933838e-01
9.485150105386333519e-02 -1.845402477010528453e-01 -1.085373865844469904e-01
-2.191668178836385372e-01 6.227183991459964707e-01 7.596429005127809386e-01
-3.256425397016111944e-02 1.324491828723002029e-01 1.238142290316216060e-01
1.897486848832265205e-01 -4.409289146508410528e-01 -5.120528828514872011e-01
-1.586395000775973063e-01 4.571607008243381287e-01 4.792503469281954587e-01
-1.848434121111566242e-01 5.070908839224136377e-01 3.537810932053724877e-01
-2.894501750957862579e-02 1.477992129541636224e-01 3.937025735256587944e-01
7.900975217137300166e-02 -1.652903625443986890e-01 -3.085424048281071863e-01
-9.075593614333828107e-02 2.791869962999991017e-01 2.522560591117518625e-01
2.486384214506760226e-01 -5.719847967271601830e-01 -4.440172630282281929e-01
1.339396341210240537e-01 -2.975603667911126959e-01 -3.589116318360348057e-01
-9.268254150996506346e-02 3.070347025834498367e-01 5.175050047546564391e-01
-2.606911502283467130e-01 7.069990996154187357e-01 6.193775049386661680e-01
-7.177864103360138970e-02 2.645050944544230509e-01 5.869632005959982690e-01
1.620786510604977915e-01 -3.547334450432582664e-01 -2.645435233117211515e-01
-1.793608884244581037e-01 4.923099403743130820e-01 3.308260172675751565e-01
6.449726677772597838e-02 -9.178330474500202840e-02 1.425456069027233597e-01
-4.116539613951721716e-02 1.324451187673579278e-01 -1.034778793912634054e-01
5.628355778922774361e-02 -1.044869471111569137e-01 -2.186866968975642311e-01
-1.837936950359206623e-01 5.226454846537142984e-01 5.581040613582496368e-01
6.139373030902425116e-02 -9.919036828029965946e-02 -2.354244376317585555e-02
1.465022945605818083e-01 -3.631869981493063282e-01 -7.720496142802708572e-01
1.671461567072619614e-01 -3.880296128568236913e-01 -5.086640407749503101e-01
-1.481948579156004142e-01 4.536782440721009446e-01 7.156666052626743380e-01
1.021771585929314857e-01 -2.422650014998484758e-01 -5.703304995178862802e-01
-9.810766251612598743e-02 3.200695377150895027e-01 5.221533856166764576e-01
2.304299088980631405e-01 -5.224889429955260622e-01 -3.631754106739363830e-01
-1.986721320728312701e-01 5.604462049927877443e-01 5.941549340268560409e-01
8.900414481042168147e-02 -2.113359124122644317e-01 -5.672341608178710359e-01
1.869889372209540546e-01 -4.488215440111128496e-01 -6.745704354664677771e-01
2.381859216466229445e-01 -5.823139987297873965e-01 -8.374427527191666831e-01
-1.131927328473589928e-01 3.547724230140624768e-01 5.175756726936102670e-01
