1.018622342745033743e-01 3.923079283189316313e-01 3.156328693821447984e-01
-9.385293575919220199e-01 -5.062672392729404836e-01 4.319503415069843311e-02
-7.247694893469340816e-01 -4.979712554990507467e-01 -7.807318145880533244e-02
-4.779229776932283902e-01 -2.039203954082644266e-01 6.783907655720583518e-02
-9.086917739790282278e-01 -4.535096520505914053e-01 7.813592524107942916e-02
4.186234465453522735e-01 6.962704609600738337e-01 4.291175316450273058e-01
2.322331498850305209e-01 3.759917600161994944e-01 2.201850230146945864e-01
2.122711784189681705e-01 -8.509597806997644398e-02 -2.311983390888990852e-01
-1.188467397452833002e-01 -5.421426529155719543e-01 -4.898588408724640630e-01
5.760267261109339731e-01 7.086311367569202435e-01 3.461054096858113827e-01
-2.560566341038784666e-01 -1.745997390319337372e-01 -3.721021267986707182e-02
-2.922568736251067445e-02 1.635081946656302687e-01 1.651242274283465095e-01
-4.207002842606933357e-01 -5.321605333796201043e-01 -2.968042666652169204e-01
-8.514048054823025735e-01 -3.898245949184241388e-01 1.074179685749274415e-01
-3.398314762375412856e-01 -5.914512268803822082e-01 -4.054360031313276602e-01
3.457229265349193170e-01 -8.427082432837543213e-02 -3.112836554367756081e-01
1.943691455698675630e-01 4.781810024902148626e-02 -8.673831621801915415e-02
4.355641374672506450e-01 6.728664300129375553e-01 3.953202132283721304e-01
-1.194208240862319886e-01 -3.086427160001318226e-01 -2.547959379403680891e-01
-3.012878537195032291e-01 -2.157221038689656478e-01 -5.112184011697291919e-02
5.457273133728481745e-02 2.169435144408048688e-01 1.680287226826857883e-01
1.189902247319652717e-01 -8.426588130164583412e-02 -1.738056062643161537e-01
-3.181165264230508272e-01 3.419257016360357365e-02 2.102967232898226846e-01
5.673088827725342176e-01 4.021144710335624040e-01 4.327977880199648797e-02
1.626083078983347752e-01 4.686451667030235857e-01 3.555355901131578289e-01
-6.621755595464722255e-01 -5.107063957394515352e-01 -1.288266738009466728e-01
8.251487655169311708e-01 5.726714716979862674e-01 5.839012096013923570e-02
-3.850660061608765505e-02 1.027278363370828368e-01 1.096548567529394141e-01
-4.846704347537070801e-01 -4.614841886633470613e-01 -1.869736720811575881e-01
2.023996041537407531e-01 7.545504046653522812e-01 6.188020275508041568e-01
3.031491835615687247e-01 7.934367017762730123e-01 5.968039366744423146e-01
5.095694215575298225e-01 2.873542863537067449e-01 -3.706877644872715039e-02
-2.784827803372583732e-01 -2.040831500229618456e-01 -5.324955276079047783e-02
-6.599750493834316556e-01 -3.869200143348074938e-01 -5.730457672781325007e-03
2.050512639149040806e-01 -1.642805835563292405e-01 -3.064173424816755142e-01
3.425361790216661095e-01 8.266828504586372084e-01 6.063418515866356717e-01
6.746144148654612538e-01 6.002149066908996078e-01 1.773491879709598595e-01
8.597383560979547645e-02 9.476697705950250239e-02 2.617732024888102735e-02
-4.955735615822361440e-01 -5.396982294047588669e-01 -2.589838473801179264e-01
8.370880479498496451e-02 5.323426550524346101e-01 4.674030163353054546e-01
-2.375960427021561738e-02 7.341331645028777164e-02 7.124638330049316848e-02
1.508736608238051558e-01 6.310730434120991328e-01 5.259235466853822150e-01
7.334038723364845191e-01 3.060404228568608942e-01 -1.540012234829993831e-01
5.220023285626390619e-01 2.895290652409812648e-01 -4.242103038804040382e-02
3.859828543926651090e-01 2.344363256630623005e-01 -1.532878138955770173e-02
-7.256182968290064705e-01 -6.084418122155484943e-01 -1.886038588782592562e-01
-1.739365537807803785e-01 -5.863197972871999619e-01 -5.008636565893014314e-01
5.988176263034168390e-01 6.289662801956114047e-01 2.522074320055916474e-01
1.200464311931146028e-01 -2.723808623058456280e-01 -3.635397394969367424e-01
2.377932888565136293e-01 2.017661979890990609e-01 4.168174009368694199e-02
1.523598320889755775e-01 -6.688679331896434099e-02 -1.765688311450144266e-01
2.803416279325129587e-02 1.021663104425255125e-01 6.874526432022050326e-02
-1.089982990482681324e-01 3.419210693718167660e-01 3.928332823108973693e-01
-8.456662936151518872e-01 -5.483690896554759275e-01 -5.543081087489674930e-02
5.182601144463069298e-01 2.928505746586607117e-01 -3.681325170111986178e-02
-6.487597846540993363e-01 -3.251199091467938396e-01 4.959112521626324321e-02
-6.590765982507384990e-01 -3.444753160398655867e-01 3.639032688870975918e-02
7.244014128953727427e-01 3.960602236267473097e-01 -5.805466378236123076e-02
2.892370972152552011e-01 4.607280438657744281e-01 2.707994233415133567e-01
-3.596149153197299442e-01 -2.602412089028995901e-01 -6.050758049040994707e-02
2.699290924172139672e-01 1.873703816750298679e-01 7.726370715580528625e-03
7.059916418357006229e-01 3.840205404259666722e-01 -5.899473502867471492e-02
2.719124370930619400e-02 -2.524945800938651064e-01 -2.872498245791880178e-01
1.928218201074294591e-01 1.204325583806167416e-01 -1.280787164980732619e-02
-2.340362767781383191e-01 -5.882841973924378687e-01 -4.663984784680254014e-01
4.052616679742775396e-01 3.065441168693529977e-02 -2.318601337208584245e-01
-5.236447751496213776e-01 -3.580036301670981858e-01 -5.932370105196943522e-02
1.910378031738230453e-01 5.205942224397571705e-01 3.905174982577372389e-01
-2.603834069349966196e-01 -6.074672633452667947e-01 -4.697065016754617961e-01
-2.660961889459423357e-01 -7.808542720354494371e-02 6.589346263387625691e-02
-1.966298465716283805e-01 1.412832185718546907e-01 2.442844815208789766e-01
3.228007568459484999e-01 2.063430409466346371e-01 -5.259522618307325460e-03
6.903220479740578286e-01 4.946001436466914147e-01 6.166103041873309543e-02
8.022915120818264745e-01 5.470108971597374969e-01 4.645489720231504166e-02
-1.227263567207857869e-01 -3.754078994119620649e-01 -3.199042785610251016e-01
9.140394187618132438e-02 -3.331174960520260631e-01 -4.072258038576010430e-01
-1.302591191271482707e-01 -3.399476881281675994e-02 2.785248510714974021e-02
-1.137654401387652309e-01 1.777097040529315441e-01 2.306579589682022646e-01
-2.582963197478958528e-01 9.741486553892986233e-02 2.375776384900568083e-01
5.126570698464004705e-01 1.758319889929969571e-01 -1.510434273491294555e-01
-8.105261723702843202e-02 1.991037742920686582e-01 2.323288290758350472e-01
-3.785804865366177580e-02 -1.073463693679198652e-02 -4.791186320696839106e-03
5.600626127078234262e-01 6.788117946394583990e-01 3.258103164062289836e-01
-7.889966520730512523e-01 -4.868342631416537891e-01 -2.793588661388975158e-02
2.303175474299717918e-01 5.073353523222947636e-01 3.533734603881085734e-01
7.151679437356841529e-01 6.394064660896165986e-01 1.921561520540343848e-01
-6.272015065944520906e-02 4.444291850137546129e-01 4.678152706627730639e-01
1.197104897534058965e-01 2.744359314303789210e-01 1.863257973884666074e-01
-6.635956054092555234e-02 -4.734302695398081018e-01 -4.526130954116304173e-01
3.322781750189257588e-02 5.648741143964850497e-01 5.307114803441486117e-01
4.898176389871596870e-01 4.476046310377214676e-01 1.359912861124212280e-01
-3.169315937160829821e-01 -6.264756395922262966e-01 -4.545273538692873871e-01
3.594294148952997259e-01 7.180578899496230516e-01 4.869089773676638089e-01
-4.499301768694173864e-01 -3.733735176742366546e-01 -1.194683577515992662e-01
-1.084072098724626065e-01 2.084548698667913202e-01 2.583142758059283062e-01
-9.464745046216594959e-01 -5.112336288010597141e-01 4.302012417302880642e-02
-7.997475885148851438e-01 -4.143151565157532357e-01 5.147906439771170184e-02
-3.178244674515222634e-01 -6.644216850267364860e-02 1.089613063735380971e-01
-8.911231902819161110e-02 4.249087830394153442e-02 7.978786222658276750e-02
1.099827274314470610e-01 -8.367854353543252577e-02 -1.677537666441852315e-01
2.043055111377756194e-01 -2.529005808804608568e-01 -3.950462577426382960e-01
6.343070633971090166e-02 5.334999342623379937e-01 4.808613789471702926e-01
5.063223390307696192e-01 5.648007548590256999e-01 2.437900074499796121e-01
-2.790556514462630422e-01 -1.879409545719839258e-01 -3.667602595670542420e-02
-8.587124590180381656e-01 -3.955816538179214858e-01 1.060617489359422932e-01
-2.895426675829658736e-01 -7.008168511552828051e-01 -5.458618733553673996e-01
4.245694007447264884e-01 7.704664915312734452e-01 5.000944353420809785e-01
-9.501012172180434145e-02 3.679118412307256364e-03 4.435013607939761182e-02
-1.942023502132031454e-01 1.329967670538096669e-01 2.344830710635883719e-01
-2.925991456798944790e-01 -4.633126673128629136e-01 -3.052687590927573580e-01
-1.295357867277174280e-01 -2.686836855754713427e-01 -2.084960762793445777e-01
4.588981261494216035e-01 2.164032131627418032e-01 -7.766587022838676579e-02
3.091139776661673277e-01 7.897660959736724218e-02 -1.249900350728659765e-01
-8.541561128588885665e-02 -5.842828757103534221e-01 -5.524883534823649134e-01
-4.864496291099676406e-01 -6.727971442731868201e-01 -3.983073109797319877e-01
2.809798556615752396e-01 5.687274946163028977e-01 3.843673378621730863e-01
1.150825086946344611e-01 -4.397853193931110932e-02 -1.309393091291024547e-01
2.528286727094610220e-01 -1.656983870936320768e-01 -3.368110284521725339e-01
-2.809242846940852162e-02 -1.454488304344085658e-01 -1.461274022787005522e-01
-2.998386136675267877e-01 1.062850658864730388e-02 1.755277522631643050e-01
-1.375137373464344337e-01 1.087742826456982170e-01 1.757629916153021221e-01
4.761854827875565688e-01 2.888436112421840507e-01 -1.533027804260202014e-02
1.948661611963271589e-01 -2.687279860751942140e-01 -4.052327241264718771e-01
-5.194105385998182278e-01 -4.370619150816915099e-01 -1.413606331989065712e-01
-2.718140660864680758e-01 8.275957778547426980e-02 2.310422104562677714e-01
2.940340108789193385e-01 2.013944282940519637e-01 7.208035352058101211e-03
-7.437936040686686789e-01 -5.441898212347006103e-01 -1.129974756509425915e-01
-2.194431648035463644e-01 1.500909092778208997e-01 2.669702203952727393e-01
-5.273756410910277470e-01 -2.730179661638355015e-01 2.836624517844441723e-02
1.594039482829314458e-01 1.108622425324905930e-01 -2.165982249839376074e-03
-5.716988190714608065e-01 -1.617292900235737796e-01 1.671080782151337651e-01
-1.107146934509046221e-01 -1.457286352734766255e-01 -9.631294586027247528e-02
1.888053249048914084e-01 5.435575939823392849e-02 -7.679317379962218026e-02
-5.857215365553737341e-01 -5.532462703851248609e-01 -2.179436555593803893e-01
-3.620238110748184857e-02 -2.320915264524723576e-01 -2.283036502745371954e-01
5.953059604936127291e-01 5.893981386035309633e-01 2.145626208815265279e-01
-2.908419677998560493e-01 -1.015415948896493531e-01 5.731917009121855616e-02
2.901621675642548914e-01 -1.852496195420308411e-01 -3.791001131262476953e-01
-3.638578082941292813e-01 -3.117787574112889648e-01 -1.097407153290247545e-01
2.008807572292718169e-01 4.067837575894415747e-01 2.701468825242416272e-01
-3.197675492778992434e-01 -4.780979221776423538e-01 -3.036581333142964745e-01
-8.825039361826507722e-01 -5.140722008429168266e-01 1.380004641564631061e-03
8.213080713599457683e-02 4.314641839141439839e-01 3.669564557534922833e-01
-1.225219869577045956e-01 3.130161636501575528e-01 3.719776989234666598e-01
4.146915471447203405e-01 4.564982180964376468e-01 1.904817665112384373e-01
5.411154258775841691e-02 2.323155518226407423e-01 1.837603688334753516e-01
-4.375280352416040242e-02 1.429871968333719379e-01 1.533045737600836622e-01
-7.573234559274264477e-01 -3.246897612724464754e-01 1.158480798506061615e-01
1.458607365010885781e-01 -1.513532322696545529e-01 -2.575341976014622891e-01
2.608703858962445055e-01 3.125094650060978307e-01 1.390090403153559362e-01
-4.494471598638992149e-01 -5.887512070786982132e-02 1.963734912122309106e-01
1.550921877818138006e-01 2.656308009019937577e-01 1.560221437769842290e-01
-5.904352778066672691e-01 -6.716796095746927486e-01 -3.341351500089406179e-01
2.683277547087840609e-01 -1.473901796360066289e-02 -1.944636651138904881e-01
-3.482249778510852489e-01 -6.209348736164816973e-01 -4.299838847517470364e-01
-5.621966965338086597e-01 -4.024311125339024575e-01 -8.060744943205731816e-02
-2.493293139959495697e-01 -2.065288449061704057e-01 -7.338436756239211101e-02
-5.589743630959136400e-01 -3.178426680803987936e-01 2.467331092517491622e-03
-3.353730886142124168e-02 5.540742981247490095e-02 5.907525291801198758e-02
-1.066699126972397160e-01 -4.333045817607936723e-01 -3.878375729748315126e-01
-4.625248170840693951e-01 -1.646150771086704323e-01 9.801265074138641731e-02
5.166513371017515954e-01 5.315312604407217423e-01 2.040847126008036028e-01
2.297889227657599620e-01 1.233462694808249854e-01 -3.229297730745214062e-02
-9.152020053854349746e-02 -2.413177528561588903e-01 -2.040374557888574303e-01
-8.136023856520214759e-01 -4.410380046031786017e-01 3.301765064689581031e-02
3.834783364917414006e-01 1.953624450228116094e-01 -5.308741613187566155e-02
2.262615354820160518e-01 4.685678873714727577e-01 3.168635409486798005e-01
2.212567826719148700e-01 -2.396833288444079613e-01 -3.920381701378851669e-01
1.431470870616475544e-01 5.205841044508423554e-01 4.195445340605452045e-01
4.066477184450583704e-01 1.463301042827780674e-01 -1.164229807921831200e-01
-4.949731855418647297e-02 3.899345963812115845e-01 4.050198527865311870e-01
2.970619263044905686e-02 5.006369062591229380e-01 4.682752894287897094e-01
-8.054099916981690699e-01 -3.367372355753009971e-01 1.328938595244368581e-01
5.487790722094232354e-01 4.251239671586914404e-01 7.764402824207930487e-02
-3.528037471693829530e-01 4.358735547446594694e-02 2.407720225978891571e-01
-3.651309772996305658e-01 7.597218925865283079e-02 2.807996265228657196e-01
8.236764862220937733e-01 6.329017551214316528e-01 1.198264545548356902e-01
-7.988551366501956963e-01 -4.707696712963779784e-01 -5.810293192236576712e-03
4.979152984896902806e-02 -9.473862492774530464e-02 -1.423761310085440435e-01
7.901692743287443976e-01 5.096075105722319698e-01 1.620688546919904147e-02
-6.234517686847579343e-01 -4.092180192486150614e-01 -5.028935523680949649e-02
2.444160463869261557e-01 5.877023587942207250e-01 4.256103779691289835e-01
-2.495609378593862393e-01 -6.856382566068752737e-01 -5.548461175707493087e-01
-9.244551345077006710e-02 2.020425023395271691e-01 2.421906135378973368e-01
-6.066988123726758664e-01 -3.523995386845009681e-01 -3.332941644490710655e-03
2.343983487816279354e-01 2.940728948005078003e-01 1.365271306937945461e-01
-2.600550543218389521e-01 4.002704024762288038e-02 1.809575877411954969e-01
-2.908837545850896933e-01 -7.751487503372102017e-01 -6.197673859891968950e-01
1.215787430556324739e-01 3.571412294001888310e-01 2.683286424389136338e-01
-2.908062773179747595e-01 -4.627395274802273417e-01 -3.057796932160399273e-01
-4.043191210602907204e-01 -5.388419824738033270e-01 -3.134527425534587852e-01
-3.258577664164266641e-02 4.114682203510333647e-01 4.164116708536128586e-01
-8.856758988078053951e-01 -4.537089629340153585e-01 6.398054028582873809e-02
1.611296093880067448e-01 5.496458527445798881e-01 4.378542855754030128e-01
-4.658260083983263300e-01 -4.833002606631004450e-01 -2.203290466360304789e-01
5.436107166635014698e-01 4.542697210709736311e-01 1.100751146616388426e-01
-3.804813303215066611e-01 -4.973839805561192651e-01 -2.862324199441313444e-01
4.181856214931131133e-01 9.055099432873923992e-02 -1.794879933098375846e-01
5.129115167335180914e-01 1.190370453537696604e-01 -2.082881484188875698e-01
-8.600655420646639016e-01 -5.322481919058323907e-01 -3.049545245448687103e-02
-4.143806608916074108e-01 -1.528975398535144803e-01 8.060028083418126210e-02
3.133794429828500316e-01 5.811393030717213470e-01 3.771991337264883892e-01
-2.333617374007949594e-02 -1.210045941657107299e-01 -1.244398071796419952e-01
-3.198380196658009988e-01 -5.468639848547155458e-01 -3.727392538520006293e-01
4.939298583265696596e-01 5.363594841400829427e-01 2.227145952393487505e-01
-6.252375659295642540e-01 -2.824594726430877389e-01 7.821147693698576875e-02
1.966533697624633925e-01 1.953977223538296282e-01 6.022417771032540640e-02
-5.733607654234493811e-01 -5.166756041443726355e-01 -1.886773248595292329e-01
1.746216375707597690e-01 5.028334801656467734e-01 3.826178342840755864e-01
-1.105224432159186837e-01 1.015136941814230240e-02 6.026152738182821711e-02
-4.599104325561453321e-01 -6.261144117486286964e-01 -3.674729962435998032e-01
5.404815950737297259e-01 1.689878025483314561e-01 -1.747938522374699044e-01
-3.822209103528492052e-02 -4.616585992212681178e-01 -4.578405514478725569e-01
-4.342899865792152481e-01 -8.923048432882789427e-02 1.566700591774765339e-01
3.901556387235493584e-01 3.607935328310515888e-01 1.091558026531854880e-01
-3.246518536168422342e-01 -3.815184871337069517e-01 -2.036147390036473215e-01
4.650851880953579820e-01 5.084803197075806747e-01 2.121795423840142081e-01
1.033031976582506339e-01 -3.499652019925921231e-01 -4.313759508447543300e-01
-7.906914798772176622e-01 -3.702313396339432239e-01 9.030132658001362167e-02
7.194314827201662155e-01 5.068439134506864674e-01 5.631880602755111320e-02
-4.773105423639548706e-01 -3.623165221620492926e-01 -9.175250873309964694e-02
3.572887846519996469e-01 1.047661936743842503e-01 -1.282757264158262134e-01
2.599533175017236519e-02 2.406366806591225815e-01 2.091722760282963556e-01
-2.751409106170370489e-01 -5.916599193974120263e-01 -4.448691103417964920e-01
-9.356079647520285092e-02 -2.598052408452151685e-01 -2.213838743424729472e-01
-3.561856413160264800e-01 -5.497932143892794166e-01 -3.536453524848052199e-01
-3.740497131581867474e-01 -2.700585324382694941e-01 -6.162384395096149464e-02
-2.735089862144697848e-01 -6.525002940782483885e-01 -5.070155058413150506e-01
-1.428119669134071115e-03 -2.456235915506247980e-01 -2.629905300916056676e-01
-9.629594302087490440e-03 -3.967680962527478372e-01 -4.099486939214679881e-01
5.281935844971012012e-02 -3.165264555995586093e-01 -3.671537500480510641e-01
-9.392896986566108553e-02 4.002821631886520071e-01 4.423611558568055213e-01
8.677395193641174176e-01 4.335827341522345280e-01 -1.072460082165558048e-01
1.298892962441414722e-01 3.712349588651095988e-01 2.774568274636693976e-01
1.394888320460247605e-02 1.438317916930388352e-01 1.191677468452556482e-01
-2.441202992579259157e-01 -1.812338490085342937e-02 1.128430130424664390e-01
3.488995313725036240e-01 5.145044392898789898e-01 2.886809531369907145e-01
2.946650522296037078e-01 5.894642344781569898e-01 3.969143306294697360e-01
-8.303572042380235052e-01 -4.418311197232591692e-01 4.237922819144999964e-02
-7.740872159266026786e-01 -5.438509725287949959e-01 -9.428917323109793636e-02
3.989315105751594648e-01 5.754914966769815177e-01 3.196498205830811123e-01
4.570218762923349276e-01 4.361116323486844415e-01 1.443232904668891037e-01
-3.121831068246561092e-01 -5.433255734602879805e-01 -3.738237762466784520e-01
-5.862797597672899652e-01 -2.492821655962539629e-01 8.794041905275724880e-02
-2.625920122476395058e-01 -4.032789822520979062e-01 -2.631167148981409243e-01
4.479248762060538541e-02 1.182705111451729796e-01 7.477230908929442810e-02
1.436549496854780117e-01 5.684787594865140514e-01 4.673804536558112122e-01
-4.339451774272685136e-01 -3.743586023484563596e-01 -1.301506284850077189e-01
-3.973250199003865446e-01 -2.793863262334923547e-01 -5.688783348600227885e-02
4.275168732403425431e-02 2.363776567536381989e-01 1.947313415774516998e-01
-3.094614631540445471e-01 -5.128601769770135821e-01 -3.448500632624495466e-01
-3.412423755324702213e-01 -1.508744726031728545e-01 3.828850471663333005e-02
2.734275909176626662e-01 -1.593709154679827933e-01 -3.429402176793552859e-01
-5.939758333037204602e-02 1.455268156007512026e-01 1.653431839996600261e-01
-8.574781193856614641e-04 -4.832240355038577295e-01 -5.021731873082952990e-01
3.117554058939653872e-01 4.003144034240964655e-01 1.964181029808396428e-01
-2.924378763798411440e-01 1.107169558610087701e-01 2.716497239886586090e-01
-4.983794350530391104e-01 -2.404800300052924444e-01 4.349242953425024039e-02
-1.337878772255582938e-01 -5.115565852663710444e-01 -4.500544917840991199e-01
3.340153579912498172e-01 2.618372452400834494e-01 4.372375250470005720e-02
2.192418326979603815e-01 1.284841477404797816e-01 -2.073343166890617012e-02
-1.139808395058653639e-01 -2.153497329256199785e-02 3.050722516256060279e-02
2.416509823908795651e-01 5.023710034332751206e-01 3.415115685831765502e-01
-3.320929414854312811e-01 -5.763258964119454264e-01 -3.949240222443686776e-01
-1.435951501221439386e-01 -3.252301501088947222e-01 -2.229532381252345152e-01
2.619117625318322373e-01 5.969486443994966862e-01 4.581557353032343904e-01
-1.825628403750797768e-01 -1.757833385365587808e-01 -4.910188654213600706e-02
1.214952281559849440e-01 4.958591742735904417e-01 4.416779709826134659e-01
3.158324616536116181e-01 3.000389940274161837e-01 1.270079628920582626e-01
7.197369759189723437e-01 4.960350800965245832e-01 7.912751338571154258e-02
-1.524493460973886660e-01 -6.334080498845687801e-01 -5.273660727240061519e-01
5.788807149849855421e-02 -4.449497969776420869e-01 -4.654595379615574235e-01
9.034887104038942240e-01 4.946336437227184524e-01 -3.369397847220786946e-02
-2.344031356761983875e-01 1.126960848695934686e-01 2.723104018351844569e-01
-8.326875091621187275e-02 4.117820229069138471e-02 1.087842768464197113e-01
1.968669034997746758e-01 -2.377876631589208589e-01 -3.414855094279533043e-01
2.344163878887759733e-01 -4.565131281436320132e-02 -1.711165730032573329e-01
2.181685348424762250e-01 3.346607631842465208e-02 -8.173610621602311888e-02
-5.171650220511013751e-01 -1.795351687071237434e-01 1.500035082111887408e-01
6.452783226126008742e-01 5.405134345010241814e-01 1.689832236709510604e-01
7.542929993914593290e-01 5.125349586604679430e-01 7.476115413252913677e-02
1.192993512668596989e-01 4.206930995122454275e-02 -1.314152528745147694e-02
3.659234681344914475e-01 3.450030385955905610e-01 1.418346612103462689e-01
3.907217994144652345e-02 -4.312888433469454497e-01 -4.403190136414935063e-01
-2.180425083011682530e-01 -1.691219238379802203e-01 -2.089370105484323129e-02
6.849206122744391778e-02 -4.252896254570757706e-01 -4.521265106115793797e-01
-9.030339038765414772e-01 -5.450728671931353020e-01 1.652482552217763440e-02
-6.565878743059615497e-01 -4.055710949091178019e-01 7.326707461534543234e-03
6.105378242677163003e-01 4.915801968498483832e-01 1.408593262688878356e-01
-3.096133040070948028e-01 -6.531051550416202556e-01 -4.518736571621984055e-01
-1.140745146539299121e-01 -3.939511876761340181e-01 -3.099308449799444420e-01
1.330791754305693519e-01 -3.347135820009421447e-01 -4.002398095166846415e-01
6.703407369986840170e-01 5.784698234857822419e-01 1.919411981118691324e-01
-1.462630913501873908e-01 -3.577310486887125274e-01 -2.540056047845581921e-01
2.733122503286732896e-01 -1.828769932194722891e-01 -3.326396568193078496e-01
-5.473131931371550962e-01 -4.773661589344174172e-01 -1.310975717389499529e-01
-2.721515116666956557e-01 -1.104861390107777924e-01 7.085465449277765504e-02
4.361807857391115095e-01 7.033297884253741916e-01 4.594271888042895102e-01
2.623650401295872236e-01 6.276291200628257849e-01 4.887210073176848635e-01
6.267696206671117265e-01 7.117953149658583500e-01 3.523785109865472109e-01
-4.182000815438343677e-01 -4.042026839403077276e-01 -1.358375831367520381e-01
3.424255045490148808e-01 6.173758721882877110e-01 4.298719720198142524e-01
-1.787717883744928404e-01 1.801678179402002311e-01 3.064026629084317666e-01
-5.548426276401011714e-01 -5.649820713125698335e-01 -2.146040807382303683e-01
-1.325331778431088625e-01 -1.513015321638811195e-01 -5.482680005302680709e-02
4.063414401320556424e-01 6.947344909525456913e-01 4.688794294961020070e-01
-1.229664596841981566e-01 9.859357278632616128e-03 1.013720856377393759e-01
2.417816202558865368e-01 3.000507090045871350e-01 1.719184111093951250e-01
1.488814693505158826e-01 5.501800324206818082e-01 4.796765700355233308e-01
-3.853634165442860748e-01 7.857671519550404882e-02 3.295440873367908030e-01
-3.814518222436763528e-01 -1.385945573372885653e-01 1.088711993044972626e-01
6.432568874795272507e-01 2.784628888169040084e-01 -9.320511391307655102e-02
-1.166068789362736668e-01 2.549665750920708240e-01 3.438986260692231123e-01
-4.661373163060413272e-01 -6.171831166545095337e-01 -3.208607283076468364e-01
5.243875578551289163e-01 4.131222739980572878e-01 1.142280144438865552e-01
6.738963990561088746e-01 2.044227313588841688e-01 -1.862079151867029048e-01
-5.756121709091240879e-01 -3.476309083917367704e-01 1.647098307980691609e-02
7.923865983856061002e-01 5.947243361707523768e-01 1.342811615500430489e-01
5.858390387507942387e-01 2.577345619843762203e-01 -7.922757010715751613e-02
-3.261807491254646307e-01 1.265027005395085724e-01 3.418356609710166416e-01
-3.658046393008941577e-02 1.316603720665001642e-01 1.714290729158394477e-01
-3.139932995613718414e-01 -2.027991394651804391e-01 3.430961842408814313e-03
6.259729908816121791e-01 3.849158597290908701e-01 2.428133626663290384e-02
1.215411885868634134e-01 -4.105751352994508468e-02 -9.806012838772688867e-02
3.522300696783887131e-01 8.324276222435719186e-01 6.400978972710779091e-01
1.055220189234254841e-01 -2.752518116304122353e-01 -3.237601462291144205e-01
3.927865165736222353e-01 7.631396505112871820e-01 5.458591485844330737e-01
7.685391328864334959e-01 5.317794835180480462e-01 8.546805945602295451e-02
-1.591674087654182043e-02 3.899852057452156129e-01 4.185690800068975759e-01
-2.396065886075484652e-01 -3.768049734389218863e-01 -2.165825313289724274e-01
-3.077695267759092412e-01 -6.670801603100592336e-01 -4.670392966768359688e-01
5.601021183115444113e-02 -3.522568073925608223e-01 -3.711456843263083449e-01
8.699353408445729130e-01 5.009351471869876171e-01 -7.015534362745637700e-03
1.411609585644416076e-01 2.849545643261816030e-01 2.177522674494081767e-01
2.180956015248495805e-01 4.725991224616630793e-01 3.597259434396601896e-01
4.111276490203435996e-01 7.566554347662445001e-02 -1.563124808157203005e-01
3.691452508942519306e-01 -3.707676084999630625e-03 -2.106438125726354527e-01
-4.278059336033070981e-01 -1.001711639376640928e-01 1.756000360674236926e-01
-6.970967147849251033e-02 6.824874041486585219e-02 1.277744898629584736e-01
6.997809949857266565e-01 2.531329969442590588e-01 -1.529386193400161520e-01
7.907567353301218072e-01 5.446189122868574373e-01 8.490326443016196767e-02
4.539743904128948349e-01 2.608314996142006015e-01 3.837950115958973021e-03
6.504599707002955977e-01 5.458368342443806753e-01 1.711925722445982179e-01
3.520012802634265858e-01 6.001174342223615232e-01 4.067177336409611432e-01
-8.721250365665288440e-01 -5.604991583519014497e-01 -1.772246145818387811e-02
1.321620510631516532e-01 -9.074025190702181276e-02 -1.544410281825955855e-01
-8.916221685914361983e-02 -2.026168627396533473e-01 -1.327058995254604690e-01
-2.534391183037044692e-01 1.870319213509487044e-01 3.585749428273571349e-01
-4.214549662253890272e-01 -5.864303284461699906e-02 2.134935027014302489e-01
3.282390661564160705e-01 7.919499394261265701e-01 6.139558906208290034e-01
-3.434858245426356156e-03 -3.859399029284270588e-01 -3.689611626984399262e-01
5.256682496306440688e-01 7.382420632812594086e-01 4.402628702239785308e-01
2.350149683694091052e-01 -1.213920404449731760e-01 -2.476143076738965554e-01
3.274393721710571747e-01 6.123512250663539769e-01 4.339076073702705649e-01
-7.304387973113819488e-01 -5.906891209912085161e-01 -1.339770190847295039e-01
4.016131907000426438e-01 7.093261595676274567e-01 4.864138604751748196e-01
5.953911781901226608e-01 3.532123291888092931e-01 1.095528747398779625e-02
-7.799166970229670648e-01 -4.042910536699867996e-01 8.339041715258616039e-02
5.342282778471706406e-01 3.450241024533476364e-01 3.980888484859176901e-02
-1.001493402591105419e-01 -1.253780028589958073e-01 -4.840343326483361602e-02
1.618309392964348281e-01 5.623158030445606359e-01 4.840239306632965754e-01
-4.145119914374342240e-01 -7.220627289696002205e-01 -4.575876056349655885e-01
2.530382830359802493e-01 3.454450211241705260e-01 2.107237420316206977e-01
6.740817101231109110e-01 4.638312164750054700e-01 7.443789821259885753e-02
-1.425346479111594400e-01 1.537741977095985202e-01 2.579003339806913431e-01
-2.433219536472985278e-01 -6.687627068827197707e-01 -5.078065945627397992e-01
1.486034557131499512e-01 -1.435228405683474651e-01 -2.174670307824575488e-01
3.522881474133216645e-02 1.309489233937625174e-01 1.271743596723667324e-01
-6.959117537615381321e-01 -3.264138705149106645e-01 1.107387248736983326e-01
7.729200268472739832e-02 -2.900799866381720826e-01 -3.215489845465045460e-01
-6.707137519205956522e-02 -2.107004543494684912e-01 -1.542257182486772571e-01
1.507508856683265237e-02 -9.536544459816313768e-02 -8.809785568579767134e-02
-8.370291929082904203e-02 -2.268336281965347978e-01 -1.603587568834564103e-01
3.073139423101275414e-01 4.625281851805457256e-01 2.955075431424382670e-01
1.751110233725863552e-01 6.236647209815565640e-01 5.376400329028675484e-01
-4.763680083389824210e-02 3.080348380157457711e-01 3.554249074357961891e-01
1.605540712064220110e-01 6.503749526075313092e-01 5.733154401283249157e-01
6.761509452486925698e-01 4.650746405082794577e-01 7.443316842154720780e-02
-4.490719433286317064e-01 2.727112626863405567e-02 3.165994554528420157e-01
5.592930461998096847e-01 6.306683216460758912e-01 3.117419668885981210e-01
-2.550513232492463422e-01 -2.839376022880746309e-01 -1.138674907598571512e-01
5.345576943264879199e-01 1.633582103229898053e-01 -1.430019363623216133e-01
3.576562806843585629e-01 3.906499553807153968e-01 1.927316557577204714e-01
-7.101215653715677867e-01 -3.307081657610250192e-01 1.150378115265085072e-01
-2.431810230540554507e-01 -6.494035417366694762e-01 -4.884321542162373686e-01
3.869298073928633119e-01 4.413595329531775913e-01 2.259558817768050343e-01
-1.509961020871814774e-01 -9.886278377091441139e-02 9.079265594077493354e-03
-2.372730076685944378e-01 -3.727152849367544318e-01 -2.138864664575489127e-01
-5.415028624477766922e-02 -3.128176099574101476e-01 -2.647085268193131724e-01
5.691117283511923919e-01 3.238862711338674205e-01 -2.589537286205982353e-03
4.199058198196676805e-01 2.340580332895522697e-01 -2.418284764581996385e-03
-3.504769794136491368e-01 -3.828873883088900754e-01 -1.554734085429679558e-01
-5.238013334390447806e-01 -1.552579065802565383e-01 1.784308266593740699e-01
5.112764739350519339e-01 5.744697658932638173e-01 2.843645293022390441e-01
-4.440725308578349351e-01 -1.282481640541958678e-01 1.572397527751991375e-01
-4.995658481390808370e-01 -5.489141549437683842e-01 -2.319681049412978813e-01
2.018547910866011139e-02 -4.027413809311855553e-01 -4.001715937014069802e-01
5.345336351405725051e-01 7.361750284041732595e-01 4.328098002589724769e-01
-1.113010935573167104e-01 8.837678237795548730e-03 9.327211990218327309e-02
-1.592038878131312729e-01 9.523706287855034092e-02 2.091655649466577782e-01
5.099889284392171707e-01 2.214908849525842049e-01 -6.967021172469073376e-02
7.343331307462142021e-01 4.022792369718524164e-01 -2.396610900577343314e-02
-4.034367036098125414e-01 -4.148884250303582766e-01 -1.555302859153784023e-01
4.877651353249133626e-02 -3.376897689247517209e-01 -3.521169022659084158e-01
3.440807074369400115e-02 4.244967879603254168e-01 4.227471711922353714e-01
6.200468697080624425e-01 3.496568640616445345e-01 -7.567970716798450709e-03
-2.663595354050274366e-01 -7.855147993940382323e-01 -6.111979428252304336e-01
-1.104730093365379473e-01 3.896554081687312876e-01 4.755691353415328337e-01
-3.522468549635433543e-01 9.741486542922450642e-03 2.402714052795587862e-01
2.175024445218097791e-01 -1.343335198157945276e-01 -2.500048880232277893e-01
7.280346668809704706e-03 -1.920348050207703883e-01 -1.805440554917871476e-01
-1.970410609229993615e-01 -3.048965132351836443e-02 1.057262220160889998e-01
-2.392530044040998283e-01 -1.349514248730052102e-01 2.631498051178818645e-02
2.658144117024529018e-01 2.250777061183530936e-01 8.198371224103938315e-02
2.092983924058941791e-01 2.797641417234749198e-02 -8.187616607683712022e-02
-5.137506260279007808e-01 -9.381560501661649620e-02 2.340988412994648715e-01
-2.753440091494170905e-01 -1.031494249379005974e-02 1.734827178634626155e-01
-1.936913002854865617e-01 1.484029351451183198e-01 2.835185413016618750e-01
5.420126898309602925e-01 4.359044075445795419e-01 1.264421724786476686e-01
-3.203404212058957867e-01 -1.944749938836977388e-01 1.564681848011564846e-02
-1.673802264477530222e-01 1.258574960565143619e-01 2.449028103527453037e-01
-3.928257740408666043e-01 -6.489226168984899568e-01 -3.972157860121575679e-01
-6.375450547791016165e-01 -6.181551062913052119e-01 -2.179094506063296854e-01
-2.199556928971166669e-01 -1.245510515812109642e-01 2.506907710458439187e-02
-2.981726860517650568e-01 -1.983869548518467710e-02 1.777509479620161814e-01
2.171897743551087501e-01 -1.299538009092820467e-01 -2.454128028297862252e-01
6.338702849392765515e-01 5.041132063640419991e-01 1.393105543658578471e-01
8.737019882118611525e-02 -4.031502321165595926e-01 -4.413181620982066233e-01
-3.423308377848516826e-01 -6.681775454555465288e-01 -4.471870998216597171e-01
-4.902876572209972639e-01 -2.511323774840594214e-01 6.173743938706019452e-02
-8.094973459674422722e-01 -5.092043255540655844e-01 -4.133306646071067958e-03
-6.601827330686999007e-01 -3.122491534980914030e-01 1.033138400642395482e-01
4.565773887775546602e-01 2.329414498231274222e-01 -2.577546570906886006e-02
8.476693321400770031e-01 4.253760018945924037e-01 -6.946743292237680945e-02
-4.109112766434631636e-01 -3.026105953483838040e-01 -3.813628165195353387e-02
4.343839891303417078e-01 7.446587654865165495e-01 5.020606357598810243e-01
3.241938288861921924e-01 3.821324136776425573e-01 2.044588266519706821e-01
5.691023126195589033e-01 3.461624930782282172e-01 1.980829544797173616e-02
2.660494533794316996e-01 5.967839149599402093e-01 4.554813747889211450e-01
7.211520783595815054e-01 3.980460074346540145e-01 -2.022939852322425125e-02
-2.472971226973054437e-01 -6.349114835355890163e-01 -4.713690119513349597e-01
-3.483081587411061553e-01 -5.458503185352548970e-01 -3.205992291584611187e-01
1.958774554320905636e-01 -8.301033174065100551e-02 -1.853029566349072288e-01
4.925107085365771908e-01 4.428671400136756087e-01 1.634552839746603037e-01
-5.183428261833880057e-01 -7.082879539137918457e-01 -3.807862166002413673e-01
-3.927003251699219821e-01 -1.702264502513704814e-02 2.378958603816161699e-01
2.495301311563007801e-02 -4.418062861481632519e-01 -4.423304131493702718e-01
7.189873899269502155e-01 4.245211572275023881e-01 7.695998603973825715e-03
2.071296635949731180e-01 -5.145225676421612271e-02 -1.604031510191566978e-01
6.114335408046429887e-02 1.640908542131064574e-01 1.447761643028139811e-01
-1.447793633809310865e-01 -2.481127484727804200e-01 -1.447165845184129329e-01
-2.430502500634718066e-01 7.706258211150882054e-02 2.417344379334337712e-01
-2.071106904018696071e-01 1.001034404345096940e-01 2.431042219913943092e-01
-4.093027803286973798e-01 -4.265493206476546062e-01 -1.636951196637790040e-01
-6.077396851863478000e-01 -3.120421058273278869e-01 7.172457854442873537e-02
5.445216322613276594e-01 5.435293097905835591e-01 2.331058129148620983e-01
6.558471280971459594e-01 1.896289372094759063e-01 -1.901350060825433008e-01
-7.928042306213310964e-01 -5.835347293244502742e-01 -8.897185411497848806e-02
-6.564891830362830083e-01 -3.922747331769240176e-01 2.063241063972170997e-02
8.012614245655974576e-01 5.955060154891212987e-01 1.296859033782175319e-01
4.346150209777717710e-01 8.085932795867256662e-02 -1.653325894488933967e-01
-8.201231133410182006e-02 8.700823643404492769e-02 1.540909545921969603e-01
-4.301949541307973357e-01 -5.713697624824667365e-01 -2.966016637218971685e-01
-1.466332372147399477e-01 -5.388878037471265259e-01 -4.358804797046478274e-01
8.059451324257849159e-01 5.276443794776354279e-01 5.863135116151962228e-02
-2.072664925074537215e-02 3.602748962329589411e-01 3.916205440051427900e-01
-1.502212699663766637e-01 2.395786520453145607e-01 3.488117935812376502e-01
4.981228808742856895e-01 7.161142623888467895e-01 4.347213095167865027e-01
-1.394797896832005446e-01 3.447752120185070268e-01 4.480428864076529405e-01
-4.511804015312066429e-01 -6.901815635827623918e-01 -4.033076918188122084e-01
3.051781938598128741e-01 -1.863620106486195416e-01 -3.554638369537062026e-01
4.312514491668851813e-01 3.971278797143979467e-01 1.546208966724626210e-01
-4.671622774988552496e-01 -4.723930142695491052e-01 -1.746958350929133374e-01
-3.133613204011058695e-01 -1.011688793223718547e-01 1.052068149995364077e-01
5.092038646880846509e-01 2.483894128925992484e-01 -4.215573077173028621e-02
-1.148246998323463608e-01 -5.381477240001049100e-01 -4.544227731154141248e-01
-4.407656379023452281e-02 -3.555195857722809327e-01 -3.137406004052223363e-01
2.668775927270014559e-01 1.635350944213532776e-01 1.947626778997503874e-02
3.097126318400368339e-01 5.203876347167678551e-01 3.522136530437297575e-01
-4.016572601133754916e-01 -1.891068281092400383e-01 7.034712269233517334e-02
2.220334412008009850e-01 7.157540750416490072e-01 6.017584166008005386e-01
4.655650279537898450e-01 -1.544454323992438052e-02 -2.809032014731421278e-01
-2.334914880288144756e-01 -5.893474239614650001e-01 -4.339385487428705224e-01
2.148726109786974758e-01 1.071774436108761108e-01 -5.642831229936756329e-03
-5.073079546144818597e-01 -2.253501376410111667e-01 9.797360754971484731e-02
3.343412097679722417e-02 2.401786991379636638e-01 2.380606140183892383e-01
7.085044411508583106e-01 3.825806341222000584e-01 -2.810669346138297553e-02
6.485617155659150201e-01 5.743232036140393237e-01 2.009781087660991450e-01
-2.454401777787758587e-01 -9.977976746678179909e-02 6.542105474477254157e-02
-5.008305066318220061e-02 -7.362619253064192626e-02 -2.673866645853304261e-02
2.526511640708050122e-01 2.209545036269733587e-01 8.582022681441994760e-02
-4.936906520569699364e-01 -1.881113623463170625e-01 1.271496604811462872e-01
8.199955846070701160e-01 5.874545550678369477e-01 1.102336137540320810e-01
-1.284727811819903198e-01 -6.663903249904327142e-01 -5.750574772233514320e-01
-3.281921212784126574e-02 -2.116987055947942842e-01 -1.759970116874076673e-01
-2.607728297537483253e-01 -3.811306734020425413e-01 -2.080971748270114829e-01
3.045846831490639506e-01 -9.467969265622938613e-02 -2.629446427144939147e-01
1.543293083296204959e-01 -2.351727186116337187e-01 -3.130654693480758310e-01
-3.736182584759525915e-01 1.679273336574900119e-02 2.603172966329215798e-01
-5.491080397295293736e-01 -4.608898356595948487e-01 -1.134472677478048780e-01
-6.284058377590967526e-02 -5.756369446094149883e-02 -2.857420094189307667e-03
7.120092327800406351e-02 -2.220759185792444204e-02 -4.858970912502873218e-02
9.075291452518922941e-02 5.881066309441418394e-01 5.530451341067356141e-01
4.630605856216122862e-01 6.457596382727113227e-01 3.852596841073415712e-01
-6.014167788478840260e-01 -1.856018520655123016e-01 1.949889744679624004e-01
-7.125634239959254268e-01 -2.915789284285542071e-01 1.558511890904410446e-01
-2.708744639342484661e-01 -3.278399164224109902e-02 1.481867789423597370e-01
-8.493411856302926499e-02 2.613759042111298281e-01 3.311374034095362351e-01
5.938500119110068365e-01 6.907629870801210714e-01 3.511966442188265702e-01
-7.967187359489782406e-01 -4.318381416639952008e-01 6.588745327880138336e-02
-6.685738132506314768e-01 -6.033587828360887917e-01 -1.842227163349804964e-01
-3.655251834968251679e-01 -5.953689842490629269e-01 -3.599364723897589546e-01
6.468163704264798253e-02 2.649883723853326267e-01 2.440533064362238880e-01
5.432489095704772231e-01 9.107811479100903773e-02 -2.209277779422582633e-01
-3.258766070854244856e-01 -7.474650264837986446e-01 -5.368636748437506379e-01
-5.653812795127066693e-01 -3.312263721945227779e-01 2.675765405269538502e-02
6.797753993637348224e-02 -2.892038192631941635e-03 -2.721924879439107173e-02
-5.012818563573872011e-01 -6.026109301265203388e-01 -2.849038072131203636e-01
-8.482098191856711766e-01 -4.479414282817343884e-01 8.092057135156498215e-02
7.681665112535899231e-01 5.669191360583849537e-01 1.210164702468194131e-01
-2.186652390684828973e-01 -7.469660445358046186e-01 -6.013667339057546801e-01
-4.502646837229538623e-01 -7.392284093037794213e-01 -4.531649453585460674e-01
3.490224992765046386e-01 1.749365564601212120e-01 -1.886923309015198225e-02
2.741910916335136283e-01 2.131827787727142570e-02 -1.279148312295878831e-01
3.209800446622703696e-01 3.820178266317354465e-01 2.062922322773710349e-01
5.553668154346852459e-01 2.296364414336115600e-01 -8.899589665824751694e-02
3.928732067985429843e-01 1.811070503518150687e-01 -3.925429385854391218e-02
-2.992350777918479920e-01 -3.235714864653625455e-01 -1.269179944362954782e-01
1.960800814135124359e-01 4.052948781807019230e-01 3.054200188314996067e-01
3.551368461012620603e-01 1.688208068534774800e-02 -1.814533211336386009e-01
1.623170095794634060e-01 4.494648409403466105e-01 3.702910966709662688e-01
-6.550396303233503303e-01 -5.550250015116110491e-01 -1.438435334543247679e-01
-5.481173523867083341e-01 -6.092456124031641052e-01 -2.631756063094460862e-01
-4.441671325977183393e-01 -4.938417537699033577e-01 -2.101986389205441341e-01
-2.175968721518811624e-03 -2.626347136113588165e-01 -2.457777167324675660e-01
8.369239670691142052e-01 4.885610211998105967e-01 5.614880361927174039e-04
-3.060751929658425130e-01 -7.591336810161131154e-01 -5.605990785060136483e-01
1.769981571138812271e-01 -2.620323192889211228e-01 -3.538094461392598533e-01
7.452771790397987317e-01 4.186852194806560123e-01 -1.411038708606817717e-02
-4.819594170588795135e-01 -3.052084699518026745e-01 2.330395053489253254e-03
9.348920511010483381e-01 5.643772467917297364e-01 1.737195231981612797e-02
-5.220814125031776332e-01 -5.416969555040876960e-01 -2.110616673552535572e-01
-1.940242368992994848e-01 2.164389950699298903e-01 3.521104555656834889e-01
-5.481521655292971307e-01 -3.006237205663055412e-01 4.707313436472762569e-02
4.273316066229854715e-01 5.038789596787106584e-01 2.643040837114700170e-01
-1.783261151039750858e-01 1.211691627516078146e-01 2.468268197029099831e-01
2.185714377533671815e-01 1.102816258246361730e-01 -4.765179093963775592e-03
5.257708367464110355e-02 4.790129525262186161e-01 4.665307033507600232e-01
-4.413425805761164167e-01 -1.104807999505368066e-01 1.734443298097732844e-01
-9.380424885121110279e-01 -5.248730906116465533e-01 5.805618388484839326e-02
-6.183745788521768372e-01 -4.492240756313161665e-01 -5.972296808362501097e-02
-3.814634114017780298e-01 -4.064436569754759088e-01 -1.603644760762767685e-01
-2.830405076268144859e-01 -2.241084289656735118e-01 -3.675656483765418064e-02
6.568578381419570844e-01 6.817448798146590327e-01 3.039285697348780846e-01
-8.950132233811791682e-01 -5.179095147540210275e-01 3.896639023288598486e-02
-3.782390158660737245e-01 -2.436658795006484135e-01 1.305201498263068799e-03
-6.284091712256605067e-02 4.211747006021826500e-01 4.783720237156961486e-01
1.294731352478082449e-03 2.250310551067972176e-01 2.423209845415458807e-01
-4.547159546707557620e-01 -2.763656178088958471e-01 1.480499755922884929e-02
4.620647698749041909e-01 4.302452741913534440e-01 1.692277971895285726e-01
-3.062943087891758509e-01 -2.727706225367140802e-01 -7.157264793967056671e-02
4.936963804965022740e-01 1.623746380962055591e-01 -1.192155025823916914e-01
4.720245346264714814e-02 -2.856413078264395944e-01 -2.988432485703648167e-01
-3.125017606066939901e-01 2.820516294562193729e-02 2.347328122851677357e-01
-2.349637426981777966e-01 -3.850100179302543002e-02 1.206665544720773309e-01
-6.960435542905871742e-01 -3.818733717817078821e-01 5.507058480138257023e-02
-1.896087770153341845e-01 -2.409943126680057501e-01 -1.103800412781869300e-01
2.505276792696380372e-01 -1.793795346306876759e-01 -3.153092089258426878e-01
3.879359832748224823e-01 2.279580058865822434e-01 1.083397277998209528e-02
-3.571225079605859221e-01 -7.986860808923099131e-02 1.531512916614363451e-01
4.671434456412809806e-03 2.630123550764595364e-01 2.784525286937544197e-01
-7.731964832905409146e-01 -5.974138344724625460e-01 -1.148117847506247569e-01
7.130922938137923550e-01 2.647199847718460508e-01 -1.493622816914868812e-01
9.586446641502889554e-02 3.338120885994196874e-01 2.943282651793473481e-01
1.454769080954505800e-01 4.942722153027730436e-01 4.255421291778744841e-01
-1.390232929012593655e-01 -1.070801187058014782e-02 9.043332086231892220e-02
1.880613000821933570e-02 -6.496386574608845055e-02 -5.980031269294613233e-02
4.222602208102244764e-02 -2.344338255420768957e-01 -2.443520158432671563e-01
6.295919720770758454e-01 6.832546364078062595e-01 3.219780825822589621e-01
-1.183022299359015039e-01 -6.628049284919701467e-02 2.200805827473052353e-02
-5.882859788764817077e-01 -4.055135914710071843e-01 -3.402844838422132423e-02
5.475320440860720339e-01 7.375873935967880435e-01 4.263482894279197466e-01
2.358292797641504956e-01 -1.268675782082662740e-01 -2.536120694375125773e-01
7.825967423194031269e-01 3.233693768835285698e-01 -1.325498335243393000e-01
-5.399274949744378022e-02 -4.509579042171120156e-01 -4.036630746274066928e-01
9.023527672783167655e-03 -3.092797592600801670e-01 -2.994559574845616634e-01
5.876168712097245006e-01 1.328805031112281487e-01 -2.058091763883744818e-01
1.560255296201998598e-01 2.712248025750541025e-01 1.949383505155183882e-01
1.573405376174097092e-01 1.731107429991195767e-01 9.551649088071993698e-02
6.649100177796227751e-01 2.666900374195144696e-01 -1.181679932791972337e-01
-3.670431458592990359e-01 -3.543361844569016261e-01 -1.167292193158699504e-01
-3.595104258700400623e-01 -4.204131650699984291e-01 -1.877172501069367117e-01
3.913372709967783969e-01 2.020197024533123276e-01 -1.730156246420481991e-02
8.180421974382545702e-02 -3.215762791246405961e-01 -3.559450078895316505e-01
2.497086314617301683e-01 -2.404972003395450808e-01 -3.762482592123034819e-01
3.007635358555364458e-01 2.344118027391271092e-02 -1.418923474968757925e-01
-2.714158848346649999e-01 -3.787309187871121946e-02 1.433994759631761207e-01
7.229772084931772591e-01 4.696874028398878576e-01 5.067812568966518355e-02
2.764819029516937254e-01 -9.208623649912166254e-02 -2.432983522260955822e-01
7.680949389538997973e-01 3.688754132924749740e-01 -7.801426603609278032e-02
-1.597113725417774188e-01 -3.259676316387168371e-01 -2.139229325925197933e-01
2.152716311970900506e-02 3.402631259601683333e-01 3.458852274017727435e-01
7.745394038337364284e-01 4.255159518922902451e-01 -2.498645257715141274e-02
-5.220272338146922930e-01 -2.964451024326351103e-01 3.543336638538189393e-02
-7.454062357573981723e-01 -4.232263141864721079e-01 4.343217733400511760e-02
5.860894059215192575e-01 4.079487536794730307e-01 7.161637366856990483e-02
3.450956163070632021e-01 1.952493182632750734e-01 3.930171264007020770e-03
-2.542584108460052006e-01 1.129194130018958304e-02 1.824173536857694733e-01
-4.003284838255577460e-01 -1.022168751702451223e-01 1.568834921298825624e-01
8.742104584216873198e-01 5.486781677060433848e-01 3.838379129573871867e-02
-2.075150360417138684e-01 -6.627594894622294008e-01 -5.234826733833721768e-01
-1.767188972704187427e-02 1.441942110720887682e-01 1.725634355884872739e-01
6.512892423392468988e-02 -1.178412164110725496e-01 -1.410393215032286207e-01
3.251331341867139679e-01 4.647774860466261648e-01 2.869643745879386088e-01
-4.647594027074316569e-01 -4.591326959007541175e-01 -1.628234405318376710e-01
-8.341536288570767788e-01 -4.694332579320604215e-01 5.079434016933425527e-02
3.493949119324649133e-01 2.818983875180867127e-01 8.842331176520916436e-02
-1.480223827290929328e-01 4.927630121957243120e-02 1.561860770037163670e-01
1.935683563315616362e-01 6.322430936129193046e-01 5.350719467547752073e-01
-5.148373888539267140e-01 -1.413346353106654241e-01 1.869915008677577872e-01
-4.904119238880486065e-01 -2.699007015863557138e-02 2.871212910926922435e-01
-5.050325320759038172e-01 -3.023478425857403229e-01 1.919564895022437753e-02
1.311639645312973057e-01 5.264192202998204673e-01 4.665346491312113986e-01
-2.803975229731506813e-01 -3.193868492250614421e-01 -1.341332132833548962e-01
1.068049811550724482e-01 5.625756076168318964e-01 5.176485493728011367e-01
1.378148039383039480e-01 1.792605950836076711e-01 1.135372269199200757e-01
1.158707718834111750e-01 3.893478926365932513e-01 3.380227505978216640e-01
