-3.280346718069627743e-01 -1.660182714590950070e-01 -7.350331998910624165e-01
-2.097123786433507941e-01 -1.811973007648801093e-01 -8.790253106697955010e-01
-2.995220515876830802e-01 9.121382957560007776e-02 -8.595556935063068948e-01
-5.863656535000285608e-01 -2.192328276572576284e-01 -3.909259346763883092e-01
-6.690886523459929069e-01 1.565471692502839463e-01 -4.159832361690812275e-01
-2.926701432579779105e-01 -5.915630861646671290e-01 -6.331173588679315234e-01
-5.736470326262690378e-01 -1.206107181111021331e-01 -4.409210926114848217e-01
-2.808321621728893103e-01 -5.472698899114006865e-01 -6.632965380432150893e-01
-8.342510601589320229e-01 -5.178394455528423368e-01 2.449647514914682009e-02
-3.968660495645990882e-01 -5.301161820130946278e-01 -5.228702541052233643e-01
-5.336685649860836156e-01 -3.809781877660724514e-01 -4.016943582407326852e-01
-4.085179191002810684e-01 1.537801688308096382e-01 -7.436406972522863201e-01
-6.227023499130874828e-01 2.007286227492400821e-01 -4.896934118474090547e-01
-2.150511883805446833e-01 -5.217721416906695442e-01 -7.550328795825166361e-01
-4.057766478628492268e-01 -1.567095544040467414e-01 -6.401964674033823188e-01
-2.093595833672000917e-01 -4.736683098267030489e-01 -7.787727583955826871e-01
-2.644008601732867336e-01 2.376400226844130881e-01 -9.542620070545849709e-01
-6.799803987556595208e-01 3.710420123207600757e-02 -3.611233801537113153e-01
-5.485232571696816439e-01 -3.022882805872634249e-01 -4.100537102613217022e-01
-9.051734993489789494e-01 1.509042919428321694e-01 -1.163098259939086415e-01
-3.964324331465970408e-01 -5.085213207285742554e-01 -5.308521836498267810e-01
-6.167011938525203130e-01 5.136016628163490166e-02 -4.458341644366109469e-01
-6.864790038773143088e-01 -1.014322727132016821e-01 -3.052299140428538782e-01
-3.829236268888156491e-01 -3.423172998324555127e-01 -6.051122404058723037e-01
-5.264627449365238965e-01 -3.090909811080526370e-02 -5.313101675464286799e-01
-2.952578880911186920e-01 1.398321491769631275e-01 -8.816725394021803774e-01
-7.739754373750412642e-01 -4.626354585435607514e-01 -7.052480312646287886e-02
-7.451029144881278210e-01 -4.894419558877761145e-01 -9.770697806464889723e-02
-9.570421174222807359e-01 1.194335290865306820e-01 -4.006208755362004881e-02
-8.565777216050327603e-01 -5.144537298132745295e-01 5.148730514874963471e-02
-3.840601946710245351e-01 -2.100611443920059052e-01 -6.492145542683015469e-01
-2.435772082689572349e-01 -3.936720585869831202e-01 -7.631629630525103014e-01
-8.946317767252692787e-01 -1.089902835108248341e-01 -4.012273412001877981e-02
-8.054884504344868024e-01 -3.881964107975088840e-01 -5.641249982901493792e-02
-5.332817867433669035e-01 2.678782899926746008e-02 -5.425755519801589433e-01
-5.778832974135175160e-01 3.588364936638187286e-02 -4.894595179552801989e-01
-5.984735860211654046e-01 7.685636607322803016e-02 -4.775996228286712997e-01
-9.653097539216540790e-01 3.152622033984314731e-01 -9.705924367735806191e-02
-7.533027717496941777e-01 -2.238712123863732528e-01 -1.788017345896985022e-01
-9.240859458408372529e-01 3.114117196823946720e-01 -1.477215641550925773e-01
-3.394325826921955613e-01 1.169818495632213507e-04 -7.778592999267949226e-01
-4.876262399427226391e-01 -1.357151494422143001e-01 -5.442029215826869049e-01
-7.755837214221477094e-01 -3.065798120312501502e-03 -2.267259315989107182e-01
-3.915892931963381729e-01 -4.873557233904977637e-01 -5.442472423865468700e-01
-6.162066259598032447e-01 -4.054837259229826518e-01 -2.891669889815733363e-01
-8.224748743952684515e-01 -5.585373859018247789e-01 2.365758822161959443e-02
-3.130346930348030798e-01 -3.518289800116610189e-01 -6.899754892291446451e-01
-6.500659790352305567e-01 -2.391553546017802789e-01 -3.037330766315952668e-01
-3.437959394687282177e-01 -6.174036425393246820e-04 -7.721037490994567820e-01
-4.119777274109538423e-01 -2.470880938221819423e-01 -6.012589432458195216e-01
-9.778666938004482168e-01 2.452618310226527265e-01 -5.712241910650046189e-02
-4.144203170793042679e-01 -6.638712368889613906e-03 -6.809650276362444465e-01
-2.326699365843030720e-01 -1.409124252812961053e-01 -8.639431893239647442e-01
-3.881920293173823366e-01 -5.562571242472224009e-01 -5.248089074127265663e-01
-7.076066075464836347e-01 8.671986353553912119e-02 -3.433661249870416099e-01
-4.891764388924545459e-01 -2.126146749651577905e-01 -5.157715118652473896e-01
-9.436380159441626336e-01 -1.500317408061229985e-01 3.581039045532555948e-02
-2.473468108148475786e-01 -4.743436349327463386e-01 -7.306339128845842357e-01
-3.821680167682109386e-01 -4.877225328942487725e-01 -5.560022804921945783e-01
-8.175166064587918724e-01 -2.681257645707966208e-01 -8.258379016003358775e-02
-3.091023284131355631e-01 -4.900975917869176968e-01 -6.473289192605733433e-01
-4.888269188509638541e-01 -5.137421086528423109e-01 -4.125344310206248144e-01
-7.201012442100063193e-01 -7.600077960046729142e-02 -2.715843779611336051e-01
-8.470049492134561486e-01 -3.651919631409296096e-01 -1.197575231858291622e-02
-7.793433874372762693e-01 2.208648743608431775e-01 -2.990836542948301924e-01
-3.187500514180796052e-01 2.136747639367786167e-01 -8.774701134092015575e-01
-1.886594745609739554e-01 -6.141218224268947257e-01 -7.565200136676102360e-01
-7.661051729220051953e-01 -4.877194428391656844e-01 -7.181373601036029897e-02
-9.694319249576748287e-01 1.672293550870349033e-01 -4.089314663107262993e-02
-4.318975652391989217e-01 2.173115400521853646e-01 -7.360300180079887289e-01
-8.026345481324307363e-01 -5.321730101527801793e-01 -1.044060861400981401e-02
-4.303920140538945449e-01 2.071382601342082741e-01 -7.344260441050705079e-01
-8.062282553469880542e-01 1.673445245159323747e-01 -2.467516934271137830e-01
-5.479000002020567583e-01 -5.579797098801545507e-01 -3.228054133546655602e-01
-8.013507986813067641e-01 1.066561215738167159e-02 -1.989583473377596889e-01
-5.597177496979858224e-01 -5.859800790990082886e-01 -2.982613522078135238e-01
-7.909001279496741255e-01 -4.178936348712558591e-01 -6.458535502364157188e-02
-3.746684977359475144e-01 2.516108095396444311e-01 -8.200117613590925947e-01
-3.371037682444339434e-01 -5.000138120367680905e-01 -6.086016878333605495e-01
-5.119339757958757398e-01 -2.190441421576665715e-01 -4.848579401630323527e-01
-5.267683590032755658e-01 -4.596859535485804948e-01 -3.832973211181086581e-01
-9.658752128053820218e-01 -2.827749370722406480e-02 2.193423126502321366e-02
-7.039450141330285682e-01 1.495335784662279177e-01 -3.696105196581443431e-01
-5.898060744837685387e-01 -8.320724674155936806e-02 -4.334206298214926534e-01
-8.188897554869746243e-01 -4.246250914325644943e-01 -2.696953114943954899e-02
-6.234066326998325414e-01 -5.344757379915888729e-01 -2.356751219180043821e-01
-4.942491119854324211e-01 -4.509209956270039954e-01 -4.273256567739532330e-01
-3.901507339179015044e-01 -4.311417275863322351e-01 -5.654158547778422861e-01
-6.662923970014063002e-01 1.505646657332597727e-01 -4.174498710159015857e-01
-3.294436166752506834e-01 1.687498309210588576e-01 -8.485166699732039630e-01
-6.104277451429601653e-01 5.545810369880418977e-02 -4.551566318197128314e-01
-7.115101964567682735e-01 6.899510944922646050e-02 -3.323406286784138519e-01
-6.313300877917106257e-01 -4.245347473480016176e-01 -2.635352896435057546e-01
-6.176216135125649487e-01 -3.917989933095338828e-01 -2.920941637656317980e-01
-6.384088464475723423e-01 -2.619751136649624002e-01 -3.105772630684889291e-01
-7.703121650072323190e-01 -1.946041667878145032e-01 -1.674275162950343565e-01
-6.001264317575629725e-01 -1.172647456736282262e-01 -4.086794916581467652e-01
-5.007642702038783700e-01 -3.804834752329416814e-01 -4.433608471100046189e-01
-2.971305485858361517e-01 -7.990539107104316363e-02 -8.036554860914509879e-01
-7.016993752974142184e-01 -3.260573145113525029e-01 -2.086970761045985057e-01
-6.070152412973646161e-01 2.381029486578691290e-01 -5.223446305626998631e-01
-5.408223955539087635e-01 -5.374601488606027822e-01 -3.387959634810671639e-01
-4.298191011468107114e-01 -4.331514551013608272e-01 -5.146974622188010828e-01
-6.654623558974166464e-01 6.047574015532129407e-03 -3.687395634213640472e-01
-8.904033072148875849e-01 8.821753026773603013e-02 -1.133537761160463841e-01
-5.654527833564770845e-01 -2.221267654247071621e-01 -4.163031273247820296e-01
-1.779823583746233118e-01 -5.548216873297410201e-01 -7.904020802307343274e-01
-3.867628297112030711e-01 1.245214181010068089e-01 -7.610026487121380745e-01
-5.823002168656572497e-01 1.076184967760565776e-02 -4.752398566508937439e-01
-5.472250026285344626e-01 1.545704719658882453e-01 -5.689869606594424312e-01
-6.324557276685776053e-01 -5.779367231249035175e-01 -2.092995833891530821e-01
-8.371921297761113490e-01 2.471345310150403762e-01 -2.351742477054680480e-01
-3.975438283879304535e-01 -1.973413414088229512e-01 -6.365895320061893958e-01
-5.698384133229051907e-01 -4.354409294354252835e-01 -3.373284877737858789e-01
-2.544258394718815763e-01 7.031442437051353689e-02 -9.092316417001675699e-01
-6.296995298474806768e-01 -2.350200402133083288e-01 -3.308413329226539412e-01
-9.444440455552559621e-01 -1.786931540088156634e-01 4.669498311945192992e-02
-6.421662269578135573e-01 1.382008736685157724e-01 -4.436189491223848091e-01
-3.174850016327283586e-01 -6.743880332058856120e-02 -7.822783762077483161e-01
-8.518138644706785279e-01 -3.104502449105961404e-01 -2.475866578460228853e-02
-7.242250037938300355e-01 -5.634617476074254006e-01 -9.855152422537455381e-02
-4.795201533829362983e-01 9.832361740462119970e-02 -6.350049510423483312e-01
-5.945401146605158171e-01 -5.491719327544185292e-02 -4.371906884735585752e-01
-3.817981452832996947e-01 -4.320803184075499570e-01 -5.756262890026392354e-01
-6.408383287727646982e-01 1.085363193666739334e-01 -4.350801082597814951e-01
-3.147211623048633555e-01 2.446049039312432893e-01 -8.932002287312058586e-01
-5.854478702538371548e-01 -4.430893017660665345e-01 -3.150098122218297214e-01
-2.587492334327337606e-01 1.905212690347032889e-01 -9.451664301047043582e-01
-3.649161132876380664e-01 8.902574323201034590e-02 -7.763327859852440227e-01
-3.660493139339211499e-01 -5.255015720031883664e-01 -5.633225634738783238e-01
-7.483988532525061022e-01 -2.420022225992077836e-01 -1.787436605147359192e-01
-8.129480873361091264e-01 6.163641416572794574e-03 -1.827827875532359869e-01
-3.105975610783265894e-01 -1.875701512786584479e-01 -7.496031435476634419e-01
-3.967825293440086498e-01 -2.681951175559317835e-01 -6.131547366125527088e-01
-3.629844619053622101e-01 -4.234885433234146790e-01 -6.023106810465679306e-01
-2.875759272762125063e-01 -1.269733173492203493e-01 -7.994995410827097082e-01
-2.135997938776066918e-01 -8.512146655933586215e-02 -9.072016370413561459e-01
-9.362655054744981609e-01 -1.124867235011247218e-01 1.358608250452052191e-02
-2.280207293384448330e-01 -2.921594844940844649e-01 6.464995100362456171e-01
-8.501278531068939825e-01 2.658244899420472707e-01 9.977056524518984615e-02
1.689338972868924260e-01 4.349263352902524998e-02 9.445791038753938995e-01
-9.091161984160005538e-01 -9.325986640103141323e-02 7.817434146855541111e-02
-2.682541081425943164e-01 2.798272558986831804e-01 5.718001130307573954e-01
-5.783034996346109180e-01 8.601142729563425460e-02 3.339612710077372593e-01
9.050472948481308455e-02 4.395512042569469924e-01 8.517419607577794149e-01
1.402960070472835941e-01 -2.733093369758193281e-01 9.445535066396294477e-01
1.236415514368996299e-01 2.534589508192254259e-01 8.923430646441010694e-01
8.069681384322104079e-02 2.302303708609347299e-01 8.591346559101800118e-01
4.402117481361100121e-02 -1.782903506281171280e-01 8.593076063048578073e-01
-4.816089193188646117e-02 7.883849503861296848e-02 7.654884515746770424e-01
-4.693394691807173391e-01 -2.976771728335985134e-01 4.507148596681660457e-01
-6.578438410512633672e-01 1.016269230377611632e-01 2.681494255847419739e-01
-8.648842917231285288e-01 -2.769377485293711971e-01 1.276183964961206119e-01
-5.001343333528536217e-01 4.185340970531205018e-01 3.731012268257085651e-01
3.139928325203231174e-02 -8.469257497059090589e-02 8.421750379125225727e-01
-8.861204577575827468e-01 2.742492655453375727e-01 6.989046918791622098e-02
-2.954334586522784287e-02 5.804558870139130411e-01 7.438001422975210053e-01
-7.879611613394901237e-01 -3.185228355299532521e-01 1.932089268798650172e-01
-1.621925888134106430e-01 5.280383330829219873e-02 6.746930567720843541e-01
-6.909764384705674445e-01 8.348515150655576311e-02 2.425447609314519415e-01
-9.785151213501805390e-02 5.262606111193573327e-02 7.270147555357987512e-01
-7.176876782483768702e-01 -5.680069575844991225e-02 2.311273026846550060e-01
-4.880752792486403591e-01 -1.488183225296535288e-02 4.147225724286723869e-01
-6.488847304856890097e-02 5.012417402972226821e-01 7.208800915650003249e-01
-2.186925389510571138e-01 -2.210629344169109944e-01 6.488639728925605921e-01
-1.940193512095640671e-01 4.554927532200450657e-01 6.192564606921437953e-01
-3.934848588226115829e-01 3.475118714215519877e-01 4.650199830874351403e-01
-7.973933551575217160e-02 -2.679077693752903722e-01 7.652704517731816480e-01
-7.629445199380341380e-01 1.205865379234765944e-01 1.813117880104858082e-01
-3.035900685972775515e-01 -2.913500988816185647e-02 5.657535322407346579e-01
-5.599361126903878993e-01 3.561621759326085157e-01 3.290617607866877514e-01
-6.161037818733277049e-01 2.970145080936024140e-01 2.877400944065493515e-01
-6.535289311876448792e-01 -1.817684602641794489e-01 2.924617156497777426e-01
-4.697392452773432314e-01 4.377185016365307546e-01 3.964037832734457756e-01
-4.284801042818363048e-01 8.185544191299397657e-03 4.614794534113059732e-01
-7.447850450817260215e-02 1.805109368606870601e-01 7.366286311615942717e-01
-8.346793899776395742e-01 -9.991753991894478104e-02 1.391794640579138154e-01
-1.843012208067413560e-01 -1.757296421757008620e-01 6.734958106776133269e-01
-3.833823094555051103e-01 -4.243820078879116942e-01 5.298986828535787730e-01
-6.181168850143555771e-01 2.931792182890500253e-01 2.863850138938774381e-01
-8.867894975116411560e-01 2.825005903795584361e-01 6.874080936691776000e-02
-1.153750630789682902e-01 -7.082305728338587902e-02 7.218307964084862416e-01
-6.533740892238288911e-01 -2.538864914095070313e-01 2.978818505868652267e-01
1.688615015342722903e-01 6.062966177944747320e-02 9.432622020930897522e-01
-5.156249846648097712e-01 -1.514758740276234694e-01 4.023524312648361634e-01
-6.214770350787695019e-01 -3.093935519857516914e-01 3.278886584449241526e-01
-5.662027276784930008e-01 1.619108823037990752e-01 3.382272291986500035e-01
-6.815110945557778521e-01 -1.509943325316500939e-01 2.674533416250139961e-01
-6.207681426671525227e-01 1.591071008819658628e-01 2.940719236389425784e-01
-8.034648404248946330e-01 1.665254998571110978e-01 1.449967541157797246e-01
-7.092282796999495043e-01 1.901187128619959976e-01 2.198781312387192433e-01
-3.965425632385062571e-02 7.387548249155449775e-02 7.727686000296006830e-01
-6.826167320715695874e-01 1.550331593636265215e-01 2.440887141195091370e-01
-8.934770460249447099e-01 1.621921379956077491e-01 7.213585211614037540e-02
-1.398052803726888664e-02 2.511641661073188980e-01 7.806261601400887873e-01
-1.305979634831010983e-01 5.714258871002536599e-01 6.623066548191880454e-01
-9.124861076250698755e-01 1.113481101444074514e-02 6.777093135788238298e-02
-4.488154853275957423e-01 4.095765005388681684e-02 4.425411631370538279e-01
-1.835430972096832869e-01 -3.272787713256286590e-01 6.852375163546245984e-01
-1.145293069205476078e-02 3.476923405430634717e-01 7.755948506623312477e-01
-6.873079508399804194e-01 -4.515826319545864220e-01 2.848070150352341456e-01
-1.515932708544092400e-01 9.565767480937592548e-02 6.801642563756504778e-01
8.956971659506983430e-02 1.590592617130743014e-01 8.715729722004642577e-01
4.226594298922382864e-02 -9.035124096133270721e-02 8.514249308020803708e-01
-1.186316265574597906e-01 -2.380745368019066277e-01 7.314613256243555073e-01
-3.131715482886758828e-01 4.083663377359991187e-01 5.258465154631301042e-01
-4.588978180742856461e-01 4.652346217722521660e-01 4.031977712733562091e-01
-3.867239089862096746e-01 -2.040306283114631802e-01 5.110058017089798010e-01
-8.933225049444720733e-01 -3.751939302496302697e-01 1.117114903953009969e-01
-8.051456001715401323e-01 -1.510689109882831782e-01 1.669452066613658359e-01
-1.162652739557732545e-01 1.498218552277200688e-01 7.049093210705489332e-01
-6.880797331030050201e-02 -2.118498414963834453e-01 7.700422760713645509e-01
-3.512945263065290341e-02 3.152097500197338920e-01 7.587306527969893688e-01
-3.670417955077572847e-01 -5.584470216029398942e-02 5.161286990116324969e-01
-2.982590226933957145e-01 5.017299309753477099e-02 5.642655466315650292e-01
-3.215862191192446484e-02 -8.093353300930680727e-03 7.848798819004724203e-01
1.084036098083786676e-01 1.920502095463513248e-01 8.844628426376066610e-01
-9.632067909357544533e-01 2.005749024594755958e-01 1.262855718486242951e-02
-7.574223878829868806e-01 7.892258713736330367e-02 1.888598142011124192e-01
-7.950143158145420719e-01 -2.421206402135145375e-01 1.818660288668115799e-01
-7.860108961193197352e-01 -2.407460600728643652e-01 1.890848093704889654e-01
-3.407583475579448740e-01 1.690740599010203404e-01 5.209853878839767471e-01
-3.507271692008766539e-01 2.010346289708249412e-01 5.105345818122419832e-01
-9.375074960865069640e-01 3.041921405090296515e-01 2.591519019068811575e-02
1.305390005148386254e-02 5.798405372819556147e-01 7.784764482643167227e-01
-2.682111702978557388e-01 9.201331450440661253e-02 5.856226125916318415e-01
-9.301772202308119519e-01 2.916149167746128201e-01 3.279793613487209936e-02
-2.407938248911798418e-01 3.544104271889077507e-01 5.886498290340842487e-01
-1.884139441036017382e-01 5.364005254405020129e-02 6.533139709835182884e-01
-1.427181863329024525e-01 4.561570949306106293e-01 6.609150219417880834e-01
-7.675171697301665930e-01 -2.322930864190491940e-01 2.034994825066751556e-01
-4.902990834599064707e-01 2.262907907983505162e-02 4.101609319954088728e-01
8.300348951806015008e-02 6.932951300919579229e-02 8.728218377277373596e-01
1.474476869049210770e-01 6.442414069610952199e-02 9.255744299964416832e-01
-8.951436958858334236e-01 1.043104309437577898e-01 7.503003107176457742e-02
-3.465871195042479203e-01 -3.910169576167169536e-01 5.573634437267296349e-01
-3.883013221879277888e-01 1.848393983224820292e-01 4.811760798162399433e-01
-2.402529252707267526e-01 5.157062254870623530e-01 5.772487043614374924e-01
-4.414003541132209274e-01 4.409312959367530649e-01 4.192071626837157727e-01
-1.918749242086068285e-01 -2.513085466032732307e-01 6.728867817901054149e-01
7.163186963135123077e-03 4.994727827857437658e-02 8.125873017813659560e-01
-6.608142900063682657e-01 -4.577341773513054490e-01 3.067976853994973108e-01
-7.228869242463568101e-01 2.673020163806633098e-01 2.031076943598877083e-01
-9.661767055446583985e-01 2.514037604870177356e-01 6.482653973179363163e-03
-4.890603229320837908e-01 -2.977686193964325656e-01 4.346887170500364772e-01
-8.532878885916042599e-02 3.217328592540336651e-01 7.174402298757243113e-01
-8.317858693092723410e-01 2.013526113409069285e-01 1.194153526262115017e-01
9.272562926991174959e-02 6.955990297173912651e-02 8.807089264474007306e-01
-6.400785244246660621e-01 -2.251805733278594013e-01 3.065836836296596535e-01
-1.817687783957455672e-01 2.602000518630180337e-01 6.435526672684630523e-01
-8.301280692188265364e-01 1.624074236672663485e-01 1.236221289258916528e-01
-7.178618904601830053e-01 -4.867155595093810572e-01 2.625461093935743118e-01
-5.259639074559120386e-01 8.845680082418694301e-02 3.763333160531500132e-01
-5.151771123275740438e-02 -2.567996278728942317e-01 7.873988898000379155e-01
-9.546080568077439654e-01 3.034548386793635144e-01 1.206673227724079644e-02
-1.203548418668504705e-01 5.350576433535954024e-01 6.733040354006404327e-01
-8.281899094570772946e-02 5.485453914177709223e-01 7.028301569506529844e-01
-9.554188717555345267e-01 2.084933040669972315e-01 1.837876013247018853e-02
-5.749139314441450432e-01 -3.313219095447664797e-01 3.673537740629210790e-01
-5.671797241630809339e-01 1.638473484348606790e-01 3.372907831486771646e-01
-1.695414850442787669e-01 -2.080254869032014953e-01 6.878661946422547357e-01
-4.967551406156969218e-01 -3.550992225982929074e-01 4.326415991504405367e-01
-3.312217933056552654e-01 -3.985425494110330091e-01 5.704077599261796472e-01
-5.105355582055199903e-01 6.211351730324808640e-02 3.908102931512075218e-01
-3.826404584429292655e-01 3.252845525243046598e-01 4.754680991578577043e-01
-5.391235156993903210e-01 2.717008373597600279e-01 3.521825762094876189e-01
-9.641975806644881297e-01 -6.074211523218608910e-02 3.100657401982266290e-02
-4.628764680716438676e-04 2.543452493964306477e-02 8.081868923188313403e-01
1.569653193645423328e-01 -1.041357389016678570e-01 9.456863028914017644e-01
-1.826231366428920644e-01 4.308296804145398534e-02 6.587968443525156204e-01
-3.091593460951163053e-01 1.962309869774879478e-01 5.446814437131759501e-01
-9.032662338230845744e-02 -4.404733679105941879e-02 7.402292961127591164e-01
-2.976704623122354842e-01 5.181272505426467306e-02 5.646236660951597930e-01
-7.729508403416810447e-01 -2.150302422336798913e-01 1.978146819136681889e-01
-3.963049210974341485e-01 1.168170008413988437e-01 4.796628201856870666e-01
-5.873345139505109502e-01 1.850674097650034100e-01 3.193473578023088288e-01
-6.454709430452145735e-01 1.677442626136604331e-01 2.733547334705470067e-01
-7.028332096124826345e-01 3.892455317368483381e-01 2.104591788071730474e-01
7.548354917764835137e-02 2.857546275436306793e-01 8.508202381933535063e-01
-5.398033727916542457e-01 3.960849377368484969e-01 3.424987097771214350e-01
-6.810426440818805327e-01 -3.051573695582323609e-01 2.791514353101772761e-01
-8.190339349916304634e-01 -1.656542775077028962e-01 1.567248550743011448e-01
-3.383119374678112967e-01 -3.471565302245563367e-01 5.608712498141915637e-01
1.028922902051998267e-01 1.770358942793751889e-01 8.810844097012662246e-01
-2.719783302009011194e-01 2.532050559241960097e-01 5.707267177565564786e-01
-1.404596794944847626e-01 -1.677976621431510329e-01 7.085562490701392546e-01
6.848002736523067964e-03 2.911577596369264720e-01 7.946235802941840065e-01
-4.169879415036532588e-01 -2.779259870308641855e-01 4.918261728022797485e-01
-9.496346353371682980e-01 7.464755460741985538e-02 3.290702385667174101e-02
-2.976949188327764340e-01 4.208308193771356231e-01 5.375138306973332725e-01
-5.434653025055332654e-01 2.104318013913369367e-01 3.531505626123420671e-01
-4.909505051605775883e-01 3.924061349756886585e-01 3.824856641543026847e-01
-8.881772186526588619e-01 -1.054356638777419891e-01 9.609135777966952563e-02
-8.472094070283738843e-01 5.941442437038548657e-02 1.172959824017073549e-01
-3.112102306698776299e-01 5.198831261821184463e-02 5.536030805299891888e-01
-2.003227525259444752e-01 5.345572960840287713e-02 6.436457608010384135e-01
-5.431789496887766688e-01 -3.033505634785710336e-01 3.911005932669938678e-01
-8.633451836580980920e-01 -1.768364122708227792e-01 1.215211461281919814e-01
-4.498476642316542873e-01 -9.011102407233906320e-02 4.513238821326827632e-01
-2.458776441922802813e-01 -3.646105163882912836e-01 6.373007136877220091e-01
-2.622692336781782818e-01 1.900964036905229138e-01 5.832529789105060924e-01
-8.276499342098508905e-01 3.532883434269129541e-01 1.116240865846633429e-01
-2.715776252863169038e-01 1.176021945611491759e-01 5.810072156793931741e-01
-1.999141195255044468e-01 -1.045030778728309878e-01 6.555738744283691188e-01
-6.154480333081705501e-01 -2.404247382949831549e-02 3.118422951930048259e-01
-7.286821302612356277e-01 1.872850437119272238e-01 2.042703685727510765e-01
-6.782722590808445418e-01 2.982720614897565459e-01 2.371054294499329307e-01
-3.645030969903088058e-01 -1.580093180894361626e-01 5.256926323551239788e-01
-9.438751731416907820e-01 2.808910919829964437e-01 2.244888385026735239e-02
-5.418843245342517267e-01 2.612365330537151364e-01 3.507062604443130227e-01
-6.818104258928180395e-01 -4.303896210438225289e-02 2.592848867489169762e-01
-1.582419307871842660e-03 9.171216827360564872e-03 8.084706194246645827e-01
-2.390134973987002309e-01 2.517339554414522174e-01 5.976347901593846990e-01
-2.948407814601052279e-01 -2.825297621046437002e-01 5.914685529414543952e-01
-4.646054102114473006e-01 -4.069177375247128303e-01 4.625830507898319177e-01
-6.266180988372714866e-01 -2.380754245995916896e-01 3.184734969880093636e-01
-9.149909455528698610e-01 -7.326168313033444568e-02 7.193014637634467801e-02
-3.063196177469458825e-01 1.837274944774652807e-01 5.479080070125950108e-01
-5.594949296067872752e-02 5.534900521470468293e-01 7.243117965991175966e-01
-8.013406264158927650e-01 3.254708876576828946e-01 1.350553938829031908e-01
7.451138215486341476e-02 -7.287613051424882138e-02 8.763572849100506046e-01
-2.268466991282803991e-01 3.123814059562963763e-01 6.030740905421833054e-01
-1.638896957816733391e-01 -3.419179727721485262e-01 7.022902111228070954e-01
-5.353763933877825343e-01 4.467301842449602489e-01 3.423798861048945041e-01
-5.165678505430129075e-01 3.834217680806425305e-02 3.876511757731044838e-01
-3.969469091318942877e-01 2.916066809124508996e-01 4.663094216631343825e-01
8.688826648534415942e-02 2.066984505733603442e-02 8.795522726293067972e-01
-2.395493332650154017e-01 -1.398642661665426834e-01 6.259467410737244997e-01
-8.928664273504249849e-01 3.430080793260290584e-01 5.935841695564421372e-02
-2.182240934083487516e-01 5.277144228402131931e-01 5.942763905080081788e-01
-7.579128404228772931e-02 1.634626015853478387e-01 7.368128883330493650e-01
-8.531648072168210861e-01 1.741157497394190679e-01 1.040339737635632422e-01
-4.854721564689339908e-01 -2.440184414228843135e-01 4.336600110610931424e-01
-2.090986240030884291e-01 2.339616116632893816e-01 6.232599652670606227e-01
6.257076495181361497e-02 -2.926180216707751081e-01 8.827811344264313576e-01
-3.033779576748820150e-01 -2.701919938323026904e-01 5.836221877838748684e-01
-7.467977900707988281e-01 -2.761313387091749449e-01 2.235623356233344405e-01
-3.984401421744039329e-01 -4.219424595881277051e-01 5.174777268199923785e-01
-3.661874416389558351e-01 -4.931997203986693973e-02 5.163442937688189627e-01
-9.337977519422117068e-01 -3.960078682338800948e-02 5.416932501546889434e-02
-3.851544312759093147e-01 -5.320650589043328382e-02 5.012096358897655257e-01
-5.899707144168631068e-01 -1.588877770696862646e-01 3.424542150884741787e-01
-4.724944947515063998e-01 -4.290644968979416274e-01 4.577951180509565732e-01
-5.262417412167734732e-01 -2.615576554550906319e-01 4.018023182131735260e-01
-5.529512267910271506e-01 3.664944537848580652e-01 3.339819009108404568e-01
-8.548191202484388684e-01 -4.681885255771324195e-01 1.498411724354701546e-01
-9.992911288546484361e-01 3.024326563464873607e-01 -2.418511664713317647e-02
-2.564795505152882016e-01 -3.791759432241312289e-01 6.297507316312588310e-01
2.608365823297009028e-02 -1.687180273650365492e-01 8.440218727792720976e-01
-8.379748554286765572e-01 3.491808806006646004e-01 1.035315620237917678e-01
1.706869189903506556e-01 -2.628447244112924741e-01 9.684927957625644179e-01
-8.526089106223888603e-01 -3.690401367303561275e-02 1.199770640396801979e-01
-5.267221863701766482e-01 -2.579572054722378827e-01 4.011474088408004124e-01
-6.483759530474399180e-02 -2.347474229796326362e-01 7.749510856580803519e-01
4.109139215878674506e-02 2.187105934570507393e-01 8.277815236321720560e-01
-7.898865658265916689e-01 2.723255285995575536e-01 1.482688789012434893e-01
-6.993112846396039028e-01 1.499860251371000486e-01 2.308867254512268208e-01
-3.673850197868878675e-01 2.694524794380727672e-01 4.919693004289205640e-01
-4.571777223652931932e-01 3.688306169989737926e-01 4.116732970833392180e-01
-8.715968333536514567e-01 2.722985817846430567e-01 8.184123124472822419e-02
-8.049357821634673948e-01 3.722400336969419049e-02 1.532930332281628449e-01
-6.005566618724450523e-01 -2.885931599266750580e-01 3.433697358747317963e-01
-8.590163773408484582e-01 -3.813497153903190329e-01 1.400539289273050880e-01
1.240334817396305384e-01 -7.133792880947559256e-02 9.165053331135535331e-01
-2.797991171829408708e-01 2.625205675736518307e-01 5.636846364370928786e-01
-7.887046155680484116e-02 4.380688455468109699e-02 7.430935825262234840e-01
-8.182072453740150131e-01 1.603108463461612176e-01 1.334675504794809453e-01
7.127914903418255954e-02 1.877645288529024015e-01 8.545956450410359118e-01
-3.171269456056856062e-01 2.056650276224278595e-01 5.375113039634186185e-01
-4.120616203904234331e-01 6.969132352692924970e-02 4.703123207543016826e-01
7.164133411358702963e-02 -1.769179357950565468e-01 8.816617678602792774e-01
-2.319060946990283145e-01 -1.309014576376919814e-01 6.315026492788986534e-01
-8.025527103972663889e-01 4.249862865834760917e-02 1.548432315914401447e-01
-6.938538933970980205e-01 -4.109382947276510453e-04 2.463643069408369690e-01
-6.264847143027685306e-01 3.081544270883610492e-01 2.784827091869415128e-01
2.127188261401606328e-01 -2.265515661492282229e-01 1.000000000000000000e+00
-1.943455537569187264e-01 -2.859770891908051671e-01 6.734232339189079042e-01
-6.015087836179150438e-01 3.941093745078755317e-01 2.924778591514248238e-01
-5.004055067727422035e-01 3.006857997402662686e-01 3.815321157930935958e-01
-2.895208564992717837e-01 3.314378707616932873e-02 5.726197173150535669e-01
-9.023987523555763168e-01 1.271458930543719057e-01 6.745537116276602296e-02
3.946962462682764017e-02 -2.277077138093829833e-01 8.592350151562091476e-01
-7.936148215576945830e-01 -1.296030127831137579e-01 1.747437826974381214e-01
-4.496888689107125803e-02 -2.484500275077485276e-01 7.921100664125705348e-01
-2.820673009209427873e-01 -8.230308365528365977e-02 5.871544423804218038e-01
-8.345901834749755444e-02 1.458774713665004531e-02 7.415081353356285376e-01
7.314686740393306491e-03 2.366683325977934349e-01 7.990031078818859989e-01
4.281959372750849396e-02 4.046538735522383634e-01 8.155362695444816623e-01
-3.934688018004859900e-01 -2.509666193290494562e-01 5.089678852820433974e-01
-5.775175949719978802e-02 -5.125684660054173614e-02 7.672415895328620339e-01
-2.472694732039744103e-01 -2.906143449056542427e-01 6.307370447364306631e-01
-4.015374583811994608e-02 4.228557114155072627e-01 7.467435654301817216e-01
-6.883776448858252017e-01 -5.038124576750718786e-01 2.877716033387242023e-01
-9.436210266817444126e-01 8.303564603619104090e-02 3.718024983439604386e-02
-6.012948932624396364e-02 4.459875714315703621e-01 7.288053560518287233e-01
-1.013014572987731843e-01 -2.032770893050264704e-02 7.295655871360775535e-01
-8.580957877338013517e-01 2.009183992208217751e-01 9.805752941634592046e-02
-1.987771682176533994e-01 4.099617037184259960e-01 6.187308788852012853e-01
-1.479670569726423794e-02 -6.957555667382241127e-02 8.035084094257992637e-01
-6.334119678460053970e-01 -2.574495283066333129e-01 3.143724202995432093e-01
-2.921141505660766469e-01 3.902916209170414485e-01 5.442928493954106717e-01
-6.419994808016360466e-01 2.607687277784432323e-01 2.693479871345423882e-01
-5.398962710362242845e-01 -3.154488762459707780e-03 3.717317122949588271e-01
-1.381533678814568511e-01 -3.360335355760779574e-01 7.227816050456199459e-01
6.831138038758190201e-02 2.602052648705400206e-01 8.468649389398330563e-01
-8.608837969939290291e-01 3.130289359486032041e-01 8.756076989304412139e-02
-3.249047201645724470e-01 8.646865936451625378e-02 5.399383647977415990e-01
-3.975624490131724476e-01 3.616901290759542698e-01 4.606641045310289062e-01
-2.940097394506112072e-01 2.925560733046251305e-01 5.499266097547360621e-01
-3.256395783705608449e-01 1.645095622721364226e-01 5.336118791083187540e-01
-3.112124512658177578e-01 5.733356476033104471e-02 5.532088754073261061e-01
-3.766347234448409464e-01 -6.531394302846235678e-02 5.090248906098855386e-01
2.877081773356039013e-03 1.528864302358484417e-01 8.015458849933881913e-01
4.241295950450535424e-02 4.119014819914276759e-01 8.146736265111033104e-01
-6.778535502693309178e-01 -2.350111202683448086e-01 2.765946368253856535e-01
-6.720796354170822662e-01 -1.298128529077829663e-01 2.735660714635166357e-01
1.610574945509859676e-02 2.368970749801141765e-02 8.217851072139708002e-01
-1.705883864131287064e-01 2.453391509975475504e-01 6.537331657145937225e-01
-5.184033253922935014e-01 -4.060004792510074068e-01 4.187785499622598828e-01
-7.643960713858933831e-01 2.903547473063522455e-01 1.676688532842943169e-01
-7.266026333473384335e-01 -2.886818795519606740e-01 2.409021415325538484e-01
-4.151156411726598661e-01 -1.074678826067606979e-01 4.808348503289254228e-01
-6.302817955616170087e-01 -3.894350942533272159e-02 3.008764941623184308e-01
-2.339807009704503449e-01 4.776236549483338645e-01 5.851436356374302150e-01
-3.857447519108158640e-01 -2.759323366487044862e-02 4.988494176398246549e-01
-8.518079464044672200e-01 -1.256800085821828117e-01 1.271453660777555894e-01
-6.067610552808174740e-01 -3.435726919292540482e-01 3.423617236577617406e-01
-4.599608464187205370e-01 3.558750090536713651e-02 4.338743241565155562e-01
-7.759943625350742558e-01 -1.206486626671332968e-01 1.884116917457950291e-01
-2.908739623393641338e-01 3.777164558694837693e-01 5.462242642071819532e-01
8.425501529007706214e-02 6.143683541145319449e-01 8.338275206745565660e-01
-1.721313611201176763e-01 -2.080255664951368155e-01 6.857606572784975540e-01
-4.692068027940040076e-01 3.273404602416640774e-01 4.049396056371296626e-01
-8.357549200837810499e-01 6.632768821455568842e-02 1.261008561453669796e-01
-8.052304431375648663e-01 2.401026098342910059e-02 1.540235096143788840e-01
6.688187524587849153e-02 3.961961829386809186e-02 8.618961577151430520e-01
-9.319086626613026780e-01 3.513605051047259398e-01 2.700431310391365747e-02
-7.011804225876352437e-01 7.861803865497644928e-02 2.346063236145139175e-01
-4.688542670363077813e-01 -2.383468831518155695e-01 4.467538338365915629e-01
-7.338511427983163138e-02 5.839198335644711912e-01 7.079029339822828781e-01
2.533241695212423358e-02 3.988892689829967586e-01 8.017425555136158399e-01
-7.102657362585546030e-01 -1.110256955718316313e-01 2.411419732329249943e-01
2.674982790675281552e-03 3.951909321864741087e-01 7.835937876299322591e-01
-7.335662307422966544e-01 -1.989016638244971991e-01 2.286499599313497333e-01
-9.077578248672982797e-01 -2.242006453046789249e-01 8.889116666551763468e-02
-8.652297428666969603e-01 9.614309447969261735e-02 9.994934563725484111e-02
-8.887944608269227054e-01 1.307537352201517677e-01 7.825066841435431020e-02
-1.372705253602231612e-01 2.232637303220864067e-01 6.824408283402314535e-01
-8.311745050864136411e-03 -1.241508043180048794e-02 8.045844148942762342e-01
-5.658709563450204511e-02 -3.311783996601340707e-01 7.887377442529944771e-01
-4.945029808001123461e-01 -1.300605469120268420e-01 4.179522894529727473e-01
-2.717924124677940090e-01 -1.112581180959267280e-01 5.976334386721670056e-01
-6.035432208040485413e-01 1.173450354194955914e-01 3.111414029511702095e-01
-8.050141722693083812e-01 -3.583034103512122703e-01 1.822653284971807730e-01
-6.367463111023564659e-01 4.825952096580533868e-02 2.892192545994603514e-01
-7.453073947108106445e-01 2.396600570657618223e-01 1.869092985918055227e-01
-3.459463579028059788e-01 4.751975697234858687e-01 4.942947835565127401e-01
-5.650824322933590826e-01 3.759003773801238846e-01 3.234288554557797069e-01
-2.814975878845422663e-01 -1.376997488136444958e-01 5.916843327074839953e-01
-1.040430677193864006e-01 3.260411374230636761e-01 7.019094347452667915e-01
-1.672523738368899837e-01 -1.205837948500143308e-01 -9.017822658181811057e-01
4.974618838360718165e-01 3.841822288422513942e-01 -3.984315894116888246e-01
2.780342572975952331e-01 -8.253900468906938404e-02 -5.425616148686047691e-01
5.250850766952150916e-01 1.706119750026252879e-01 -3.602958256406076365e-01
9.253298152130606802e-01 1.451062316700283961e-01 -3.302847824509688029e-02
6.601330434531942348e-01 1.825803300355672287e-01 -2.513817944481822608e-01
-2.117631901647747672e-01 9.629224887779821995e-02 -9.538901786821534223e-01
2.164763148760748823e-01 1.472582944633665791e-01 -6.094772308885376688e-01
8.676233977739956638e-01 -4.764202870879309659e-02 -6.579339099524877943e-02
-6.874211036528801722e-02 2.362790875289468712e-02 -8.322811239659401172e-01
-3.906874980669528680e-02 -2.155703720727701264e-02 -8.048399124147388450e-01
1.379127244779390082e-01 2.568682137337791604e-01 -6.813952033093505500e-01
-6.207692655525303554e-02 -4.352734892549639523e-01 -7.931740293356512872e-01
5.427995268539792528e-01 -8.713415159752015138e-02 -3.269727792200350924e-01
2.592488663629943790e-01 -4.981459174881525120e-01 -5.273238689499943899e-01
8.063125158025656603e-02 -2.761659232229407568e-01 -6.888339460528989378e-01
-6.420672959560683180e-02 -6.806476161621577425e-02 -8.218626630365083452e-01
1.404635044534284505e-01 -5.012085955894113320e-02 -6.567850989548030816e-01
7.179701584880043841e-01 5.746468193565176102e-02 -1.951759484832044367e-01
-1.277580071150403174e-01 -3.627885280361521914e-01 -8.518932740088910327e-01
5.316573502768100479e-01 -1.344259264756164918e-01 -3.325595247130898047e-01
6.023897898324241940e-01 2.128202927411841638e-01 -3.005464220417495835e-01
-1.645713389377728708e-02 -2.554996859768855488e-01 -7.692829543447322616e-01
3.006511340013335865e-01 -1.098325937032266705e-02 -5.294272936025087306e-01
2.837926886407063365e-01 -3.296331708266170835e-01 -5.197406615833061183e-01
5.662418308543200052e-01 -3.812799069297739263e-01 -2.863209155144950113e-01
8.007520009823938523e-01 3.864662018213766981e-01 -1.520274424871005114e-01
1.626734092822114119e-01 3.876914440820914548e-02 -6.452541653562072765e-01
4.062337060357816276e-01 2.175813766093599722e-02 -4.459932998509932855e-01
4.504016591503935962e-01 -6.490859556679712261e-02 -4.037229147349988834e-01
-7.607698236795103208e-02 -3.835620705000099551e-01 -8.083521160126279081e-01
5.049476250610598349e-01 -4.331697277451028172e-01 -3.323432097307977839e-01
5.144637387817684315e-01 9.551475017861459083e-02 -3.634179112758852970e-01
3.505477388990480558e-01 -3.929469353454134728e-01 -4.608215561999661758e-01
1.887804388165135461e-01 2.035962202771467722e-01 -6.361295177783511390e-01
-7.272924118326271059e-02 2.593751656669426864e-01 -8.528290408539190848e-01
2.999513737059232299e-01 -4.173460895048218822e-01 -5.001647283176691161e-01
4.202452712062627604e-01 2.737792247567218951e-01 -4.531031345010816946e-01
1.129467546879335677e-01 -5.515956155782363313e-01 -6.423422238318950983e-01
8.643986860244435855e-01 -1.923337768861305697e-01 -5.779309695222960980e-02
-2.585590116348184322e-02 -1.743585381460687755e-01 -7.828807027688363673e-01
2.015087302234359889e-01 -4.256649124872756151e-01 -5.795869152317005835e-01
3.823199223521620005e-01 1.817809025631640651e-02 -4.651721509941280086e-01
7.114603536174264609e-02 -5.809953493238899647e-01 -6.741675272300191590e-01
7.893787218504754177e-01 4.536307728117148219e-01 -1.662044160368538470e-01
2.294658120205987639e-01 -1.277232426149952638e-01 -5.787302566640408763e-01
5.945382547034300247e-01 1.866810906237177381e-01 -3.050107386495438111e-01
2.731788147298386260e-01 -4.896603878444482083e-01 -5.166218914187217237e-01
9.387117888125274812e-01 -1.194545441758632781e-02 -1.061976176962176749e-02
2.820334801129348919e-03 -6.500133661642532035e-02 -7.675952224886790631e-01
7.771471491284145383e-01 2.515124197629489133e-01 -1.613108703243021080e-01
6.292539479607395236e-01 -2.006047599233501955e-01 -2.483562241009806271e-01
8.296568663119798792e-01 3.382343311999010393e-01 -1.249873323306069095e-01
7.641506634013406352e-01 2.366352837216472160e-01 -1.707847385020678233e-01
6.315865242775458022e-01 2.710530518016740498e-01 -2.810846901101860529e-01
3.669656506069253754e-01 2.655449842805152616e-01 -4.958144472347299492e-01
2.129061837784736178e-01 -3.687330292183357283e-01 -5.745003212098226397e-01
6.889351953636745352e-01 -3.057982402977521205e-02 -2.123176546194301961e-01
9.715321723885381178e-02 3.138061573253952963e-01 -7.187121388327831761e-01
1.715637525691370846e-01 -3.309336912030255706e-01 -6.108861856918039734e-01
8.981497177171796631e-01 -2.859377326743932080e-01 -2.348229641229490627e-02
3.039310595047917118e-01 -4.607531827882435094e-01 -4.937427297536152726e-01
7.933376799439333382e-01 4.249721516550324374e-01 -1.608819675841285379e-01
6.609035601492454504e-01 2.608278938847355399e-02 -2.392667459369481053e-01
3.875838530791940739e-01 -3.239330704850043596e-01 -4.357779381144817887e-01
4.644282733700770827e-01 5.271600205520123733e-02 -4.009543466556702018e-01
1.060943583781361610e-01 2.898031063501438909e-01 -7.096809952862501714e-01
-7.198521066719332229e-02 -4.794173332268449883e-01 -7.979887251207501420e-01
-1.899253884846643925e-01 1.454581900821363405e-01 -9.397455817795511424e-01
2.622091177681364904e-01 -4.859805554145658069e-01 -5.258102845719322405e-01
7.240781296828893154e-01 1.996583390965963115e-02 -1.874574049285049060e-01
8.655984868049728664e-01 -2.792099136842025597e-01 -5.044001510380385911e-02
1.931181687658151402e-01 2.921475215974979056e-01 -6.391036181717363318e-01
7.452727372226114477e-01 -2.962704683975816294e-02 -1.665857438371861343e-01
4.393567299001349125e-01 -4.046143382890234341e-01 -3.877642249352585835e-01
4.442898271570121516e-01 -4.619548221577653435e-01 -3.795442496218955353e-01
4.543897011278176246e-01 -1.218669612820671710e-01 -3.962993115003493050e-01
-1.757309882516835398e-01 -1.670911681014835559e-01 -9.052611456909491761e-01
3.906610363328543584e-02 -2.472298764686933770e-01 -7.247502147648035020e-01
2.729740653531629313e-01 -1.773602386571276612e-01 -5.397145873785960113e-01
-1.590388189714969647e-01 -1.583600054927487288e-01 -8.923315424715706490e-01
5.240197322408440828e-01 -4.115468354299954834e-01 -3.184251344836458442e-01
7.489385287755876419e-01 3.680412111708497580e-01 -1.927986791215578199e-01
-1.965038258289333317e-01 2.857837762038437437e-02 -9.365135323088076280e-01
6.577604481348855447e-01 3.754227178529788711e-01 -2.674674249145208571e-01
2.477983848917963694e-01 -1.508039258892504009e-01 -5.621316854050015799e-01
-1.270031015352693880e-02 1.660397320030030932e-01 -7.971742848476660592e-01
7.242365031117118379e-01 4.410252676769989000e-01 -2.182390032740144092e-01
3.952461165223031814e-01 2.400348428616823626e-01 -4.709499902411267147e-01
5.114062816053156491e-01 -1.854421769129514785e-01 -3.452782907589160288e-01
8.986683889611878362e-01 -7.238773180217439318e-02 -3.873752086462020627e-02
8.403539499016833281e-01 8.074934248981964491e-02 -9.738850473523692763e-02
1.080483153603404856e-01 -4.921256218499276969e-01 -6.506903518445662504e-01
5.294506579607426433e-01 -8.804676017620886863e-02 -3.377582799759518140e-01
1.749250455015093908e-01 1.199388815946650644e-01 -6.412524522239275715e-01
6.907537442202754674e-01 2.655149679818212451e-03 -2.132790022038833222e-01
9.410314364106425744e-01 -2.490445839352641022e-02 -7.782579380263042815e-03
5.393471446974594796e-01 -1.210328688144566983e-01 -3.272909956671291587e-01
1.321309681693696170e-01 1.449739884932673556e-02 -6.683030520333771429e-01
8.715405668454172528e-01 3.020523483115316599e-01 -8.828015283553640458e-02
-1.271708280220031628e-01 -5.363093163294374577e-01 -8.386775850991069481e-01
7.244837897677860461e-01 -1.151613885219688188e-01 -1.772077955867329135e-01
4.955816100298304772e-01 2.158021439520443618e-01 -3.875992985894013976e-01
7.294367867831955676e-01 -5.855622764629350024e-02 -1.773364949413586411e-01
-2.614087416702743152e-02 -2.536309765968050023e-01 -7.772929214581436597e-01
3.872352680048414264e-01 -1.582859048636035271e-01 -4.482216427154885885e-01
8.294626723750253561e-02 6.042814167583506618e-02 -7.116615367314760299e-01
2.634293305589222034e-01 3.908440028137401545e-01 -5.891867487280912918e-01
-1.176265594104460577e-01 -3.503618637224769072e-01 -8.445687615847660146e-01
2.722217336463843007e-01 -1.931899672223222064e-01 -5.391641507813845768e-01
9.495560061171051114e-01 -1.131312991487672670e-01 5.624622350074159026e-03
-3.903046135704882347e-02 -4.109286591649233267e-01 -7.762246609015107657e-01
8.334143973876261269e-01 5.079472407103750031e-01 -1.343912757323800500e-01
3.755211652987443527e-01 2.238826315751184237e-01 -4.858004287797078047e-01
5.493665744131063233e-01 3.130066914544015200e-01 -3.510085372526222658e-01
8.841014915834862764e-01 7.741491739555192431e-02 -6.157741009365424317e-02
7.021185053949614563e-01 3.688295516785196071e-01 -2.309207601130943699e-01
-3.160600143746274127e-02 1.993389009640785525e-01 -8.149889439014451620e-01
9.790709914943720449e-01 -3.139071495446891791e-01 4.435914567151010013e-02
9.225671233604463284e-01 -2.903879423856189912e-01 -3.304497233036849790e-03
6.770656293554960792e-02 -5.227725210681285484e-01 -6.812379742759754331e-01
6.376006399337722508e-01 2.634195061679530658e-01 -2.756348890597157264e-01
2.913137266919919588e-01 -5.080478567481516716e-01 -5.005285496083065055e-01
6.070845411003467085e-01 -6.841760550308102762e-02 -2.760837076665157985e-01
6.541142493361833399e-01 -3.257226102196048023e-02 -2.404804669872593059e-01
2.671093761190663218e-01 3.859842595553635847e-01 -5.858381505394277822e-01
1.580458428714420771e-01 -9.580365098761364773e-02 -6.391372195336559869e-01
2.505078416935834218e-01 -2.635449501446964216e-01 -5.516525035800469157e-01
3.196966676262035789e-01 1.615719166906138815e-01 -5.266108980246042570e-01
1.309710972846916122e-01 -2.072611723189848876e-01 -6.529665178619730170e-01
7.470033984477064681e-02 -4.632715698733407828e-01 -6.799201226881740334e-01
3.359259398910867112e-01 3.476364093038641911e-01 -5.270758257752703457e-01
2.768383699289146335e-02 -1.029879150928818127e-01 -7.445928160992082434e-01
2.396514184802229774e-01 -1.703284774234943011e-01 -5.673217721644091549e-01
7.749672420740395529e-01 -3.690878411971568740e-01 -1.175242856570747063e-01
7.758693128990880039e-01 3.200425143210136048e-01 -1.673805946326103744e-01
-9.944297610260353915e-02 -3.334167227560365099e-01 -8.310296493480372471e-01
1.085108117780247683e-01 -3.069260583343370041e-01 -6.639100145848856327e-01
6.855670173946104562e-01 3.753973587266450918e-01 -2.448591020840995558e-01
8.151799439337864550e-01 1.987693536254644122e-01 -1.265186743433625582e-01
5.004611448973856902e-01 -1.612138639159062803e-01 -3.559551992402272824e-01
7.241944051348241373e-01 2.168904065342334292e-02 -1.874893763229330546e-01
8.204011745986650173e-01 4.901924209970197066e-01 -1.436674976087185251e-01
6.561020686486257469e-01 4.184895777082737744e-01 -2.719772479446749269e-01
6.351345894902442613e-01 3.239091312679319157e-01 -2.820803614313715513e-01
7.277812401692952404e-01 -1.797937179006607322e-01 -1.697822837367409521e-01
3.942398186631130841e-01 1.103898921373834205e-02 -4.549573072832619469e-01
1.305840202563020302e-01 -1.260970826886377572e-01 -6.592395369169069541e-01
6.471518163997813655e-01 -4.103516621566223876e-01 -2.184077269925276954e-01
1.654640583831863687e-01 -1.520054442864802492e-02 -6.390234319657372986e-01
6.575459699567444138e-01 2.836216155643975778e-01 -2.609025914611663999e-01
3.274079088050612096e-01 -1.997753737918929740e-01 -4.938149046521849717e-01
5.796058599803116662e-01 4.454257011527529286e-01 -3.361453015858776316e-01
3.963876188427866570e-02 -3.354239235779611916e-01 -7.178102444970771989e-01
5.122202414420616856e-01 2.914533777113106905e-01 -3.796258841452895272e-01
6.030078663774700587e-01 1.751952076223202426e-03 -2.845492139909471252e-01
8.701039746223028504e-02 1.034166354788684655e-01 -7.115132639874992559e-01
6.784017899661982931e-02 1.637736725433504292e-01 -7.315293235814587236e-01
4.072503069624391348e-01 3.615717931578708022e-01 -4.701128417106065216e-01
5.838037963919678885e-01 3.304836454919936051e-01 -3.242944210970338248e-01
7.160025699128231835e-01 3.891189510971005405e-01 -2.211226184595857236e-01
2.444043848151632170e-01 -3.401282227045485801e-02 -5.734647140227291384e-01
3.788171941852176983e-01 9.601777729414320839e-02 -4.737341156897476036e-01
9.519518033373718380e-01 -3.157307691386471715e-01 2.244539196783415860e-02
1.758561835764906323e-01 -1.758616606502662605e-01 -6.187804606446004607e-01
