2.420841626581967942e-01 -4.194117790583162253e-01 5.651753370263982168e-01
-2.154662290192648488e-01 -7.059584120964925713e-01 1.078041035810068105e-01
1.037230000611131797e-01 -4.859087696189081096e-01 4.317821680589507549e-01
1.670942942168340273e-01 -4.131785016885356487e-01 5.031852630434153761e-01
-5.996779027269814044e-01 5.073449768795381676e-01 7.823871023115251677e-02
1.826050107597316507e-01 -7.135600303994170668e-01 4.430822794859368141e-01
-2.228875874316544048e-01 4.349278995893933741e-01 3.796904552771967478e-01
-4.123888777931805083e-01 5.926282897630229529e-01 2.576500020255318990e-01
-6.519770247073972125e-02 6.408413926691906015e-01 5.634459820719285306e-01
-4.688174311960534579e-01 9.023352940365859942e-02 8.736574469142110999e-02
-1.301244552508505903e-01 -6.363094733406822190e-01 1.970629862485651362e-01
-2.261574578436112426e-01 -2.045550866369995613e-01 2.210020295235838594e-01
-5.717075995090072915e-01 -2.577685954378760025e-01 -8.462334020867623430e-02
-4.645159020528695330e-03 5.715643192329242783e-01 5.978375247716373186e-01
-5.869685074010753123e-01 5.349219920176002674e-01 9.572630374816513965e-02
1.124689335733707329e-01 -8.062092711071306983e-01 3.610933474603710280e-01
-5.234292585127211378e-02 -1.733957769365159288e-02 4.138547715572477581e-01
2.059084872276183698e-01 -4.739049997548835935e-01 5.212511261511136862e-01
-3.491097361179798519e-02 1.071324087703634936e-01 4.589669495902772844e-01
-3.054214704994823171e-01 -1.293203025797046712e-01 1.722161176709957608e-01
-1.129271832592958907e-01 -6.874836646241466731e-02 3.500106695433307102e-01
-5.276506059312604524e-01 9.937080634443379301e-02 3.976703549685358524e-02
-1.532586676748768639e-01 2.217078886060144804e-01 3.866726421450185636e-01
-1.458202051089451112e-01 1.751709797932927415e-01 3.816257134847279575e-01
-3.630439594249077473e-01 -4.198653072410611919e-01 5.257403746691976382e-02
-3.995078655851762583e-01 7.198849776852982441e-01 2.995868985399857687e-01
-2.801695268927354432e-01 3.151768013269595214e-01 3.019798649401229662e-01
1.199367259794075977e-02 -2.919937729079942201e-01 4.013759038681699032e-01
-3.057392141845567957e-01 -1.532432296566037799e-01 1.661141138571154696e-01
1.118190749467746492e-01 3.264768226200300688e-02 5.650735867132115064e-01
-6.266736004778304947e-01 2.158679472399172294e-01 -1.569239703078723069e-02
-6.370078352646698638e-01 3.733457404743804053e-01 1.395173917000762376e-02
-7.493330019812203258e-01 4.227215068792939956e-01 -6.913904689961580807e-02
-5.518169114232192030e-01 9.599220701797743505e-02 1.847651118892065097e-02
-7.626949655276233919e-01 5.652936405775969009e-01 -4.569343975722735957e-02
-5.109240107607704307e-01 7.457237923711756977e-02 4.788663457045427840e-02
3.025818787080182815e-01 -7.865622860646747094e-01 5.268927638754948850e-01
-6.410569788361901444e-02 1.323798755910066127e-01 4.403974181880963013e-01
-4.235017737423169004e-01 -8.243478528012042617e-01 -9.724963650486978528e-02
-7.243469651994608460e-01 3.745385999177827108e-01 -5.972603955123854946e-02
-1.391504859335461752e-01 -3.856469282611152405e-01 2.505354200775324891e-01
-3.258214998471014590e-01 2.440019594663015712e-01 2.459627338765877635e-01
-2.699434940778268621e-01 6.184843497466435691e-01 3.845930534958943436e-01
-4.211624396026907857e-01 6.623179270451516887e-01 2.672113304618234375e-01
2.937506355725518770e-01 -3.422829600020559915e-01 6.277379271144757356e-01
-2.198325964678115706e-03 -6.108910119304660213e-01 3.116028005183156258e-01
1.602370529200642657e-01 -2.034070319732554921e-01 5.485243853712876705e-01
-2.775025506172393297e-01 -3.505625894220334438e-01 1.419175777944526873e-01
-3.730953323298555890e-01 -5.591579413552777433e-01 1.009898682279976832e-02
-3.666127628486887668e-01 5.605860336170107594e-01 2.886058148802619350e-01
-2.883885333710989318e-01 -1.778527780499927491e-01 1.748083115398040011e-01
2.575534870385321473e-01 -5.092466504300061647e-01 5.563729120270047845e-01
-6.924081098304569748e-01 4.226169173084763919e-01 -2.095413121946691076e-02
-4.021148948050577987e-01 6.849509854216965232e-01 2.888613450116470638e-01
-3.087103005282252344e-01 -1.816115106433711102e-01 1.566810914287702639e-01
-6.486649403264798108e-01 6.456810954947800330e-02 -7.120716155818070103e-02
-3.882662619223073985e-01 -1.623759424578065935e-01 9.399416157951638595e-02
1.363363097479282915e-01 -4.790747645298273349e-01 4.610690670274439906e-01
7.075806023630720754e-02 -7.568164037230407093e-01 3.378108761315695152e-01
2.270528876616489944e-02 4.716885909175902447e-01 5.966492067816751010e-01
-9.187364885620503963e-02 6.099934331548610977e-01 5.333324147855191821e-01
-1.439342617229570631e-01 5.202902151298145483e-01 4.673701249397543278e-01
-1.256935623193408680e-01 -7.432239111253613473e-01 1.747476226748581052e-01
-7.080932032020570421e-01 4.870608378199174915e-01 -1.852528081805051435e-02
-1.207568269562390995e-01 -6.953258772585629854e-01 1.906071345443919596e-01
-2.201386619447165127e-01 2.074972431889829383e-01 3.265662742790560458e-01
-4.224029344845840056e-02 -6.799561664838359443e-01 2.608512398404504995e-01
-2.708895170792020024e-01 3.434715349013869878e-01 3.167380626988804959e-01
-2.795099434179078024e-01 -1.664975305633389635e-01 1.850963458965722841e-01
-9.894815809734607004e-02 2.209779781111856911e-01 4.324909377706790958e-01
-1.956036268295223979e-01 5.391796805369343248e-01 4.282163219613460692e-01
1.378332328582727584e-01 1.027054699688023653e-01 6.041868410740433015e-01
-5.583889343457933974e-01 -1.801874685462825573e-03 -1.093363130424446217e-02
-3.039809982202453797e-01 8.116454602565507104e-01 4.028629168695853080e-01
-2.315270495335462406e-02 -8.156169692744513755e-01 2.439398623579325798e-01
-1.744279305649174827e-01 3.118347891173131603e-01 3.907189192870577643e-01
-1.808107326531164238e-01 -5.529577252239711166e-02 2.957992459036143940e-01
-4.723709337188587987e-01 9.213943997123387464e-02 8.482093838337118052e-02
-3.493465708859866958e-01 -5.934980178847918397e-01 2.183929725537733096e-02
-5.368984567819553577e-01 8.805803875641468256e-03 9.853298720928823501e-03
-1.533936323763832044e-01 -2.521365898831797736e-01 2.710252897436326025e-01
-4.583637221161236952e-01 -4.179374527109076809e-02 6.402815371399962763e-02
-9.472988595776592191e-02 6.082951788834661810e-01 5.304993617864877109e-01
-4.447207135179483406e-01 -3.492606771798860699e-01 6.158171717088657161e-04
-5.695828997486691581e-01 -1.792665230476178928e-01 -6.368348184052047278e-02
-4.861417296203048299e-01 1.912158084152252302e-01 9.731513624188212197e-02
-2.846416202096909709e-01 -9.130886204532774331e-01 -1.284030421754554915e-03
-5.421047191378216557e-01 6.461092795660317023e-01 1.608317700047651733e-01
9.502349567655536677e-02 3.095652189631513118e-01 6.183673988395875787e-01
1.396611521847825887e-01 -4.542708595272470506e-01 4.699326216790127853e-01
-1.973313391844809250e-01 3.100049004857800480e-02 3.028485408978114912e-01
-1.212427709245480212e-01 -5.240266164261310200e-01 2.319618724136117416e-01
1.460241448076400952e-02 5.254946639398958563e-01 6.029058087284224765e-01
-4.704811114697082242e-01 -1.102312756192918713e-01 3.707930191934064729e-02
-8.231807909991005756e-01 5.979513475363336106e-01 -8.895703436740977355e-02
-1.548376482067986004e-01 2.490344192286093883e-01 3.919981547299257185e-01
-3.270109210040801906e-01 7.428293090532994691e-01 3.665797858456525393e-01
-5.130136946182536906e-02 2.865221355885901322e-01 4.888246267695642300e-01
-2.321401101350926144e-01 -3.030718003122700455e-01 1.919148399633967272e-01
-5.805424338725909683e-01 7.249748709799341828e-01 1.475074359253937817e-01
-7.116244785607708234e-01 3.279854974907488452e-01 -6.030180920678408774e-02
-5.712105991536250427e-01 3.034894769616094390e-01 5.264386046036266531e-02
-5.167583000551669858e-01 -2.100412189830712373e-01 -2.644916010435948914e-02
7.675171378103411157e-02 -4.610301401389189646e-01 4.150057644888728303e-01
-3.789959619797197421e-01 -2.410942309653255067e-01 8.265215576432471956e-02
-8.301694172652181181e-02 7.686460135445790653e-01 5.795160416376414769e-01
-1.423357247347692423e-01 -4.756855740182603376e-01 2.258845233389525642e-01
-1.758851542468533868e-01 7.316794330704632365e-01 4.918515545362037167e-01
-4.660479290314933909e-01 9.123579757953374780e-02 8.995564501340243269e-02
7.914373783761818881e-02 4.054694481432901121e-01 6.283020570251812709e-01
-3.683894713576064683e-01 -6.067924803183851745e-01 2.470158189716178173e-03
-2.785503298750144907e-01 -7.642609997442569858e-01 4.016200204870293278e-02
-5.294939898140662571e-01 -1.434249864642327399e-01 -2.099276775239989137e-02
-4.301615642395556494e-01 -5.611540639878951353e-01 -3.871782822852885136e-02
-3.826569757952025252e-01 -6.652848255059014004e-01 -2.387481237925515379e-02
-2.096190673904557988e-01 -5.973165403502774806e-01 1.392452665738286022e-01
-2.489861871689025286e-01 -8.117342573257892990e-01 5.362529280427689310e-02
-3.054435865757148538e-01 -2.540573585682172064e-01 1.417839223916364244e-01
-2.623659020433602440e-01 1.330508884279709980e-01 2.726519308593816082e-01
2.133450294063510555e-01 -7.623607942478229926e-01 4.572177611784224993e-01
-5.838174315718824836e-01 3.088017090786656094e-01 4.326220505573935560e-02
-4.111389246614061133e-02 -1.083215744788283870e-02 4.249514262294375455e-01
5.132747973824815929e-02 -7.012651547316864353e-02 4.887840162276194111e-01
-5.357189861615850868e-01 -3.798389954204131613e-01 -8.390740402740486104e-02
-2.862244553361390983e-02 3.597585599859878247e-01 5.258882460884486409e-01
-1.522515462156141808e-01 2.060629828014296783e-01 3.837110356933909339e-01
-3.848638282226198304e-01 -9.294582773085009464e-01 -9.015475559601533739e-02
-7.630815847283409226e-02 -4.781914786972255027e-02 3.861267632230419578e-01
-2.911809343705637487e-01 -3.775675002747701514e-01 1.237488264417218042e-01
-2.018875337046565910e-01 -5.048014688219776280e-01 1.683502820392932253e-01
1.819719010745542986e-01 -2.281228899069109584e-01 5.609056698024237342e-01
-6.434209322836412781e-01 6.560977256003281965e-01 7.746116662357964422e-02
-4.683584079575107972e-02 1.497143842526761984e-02 4.263968836995803424e-01
2.255544335670827683e-01 -2.593262673138538865e-01 5.902082456420297829e-01
-2.029437443043184686e-01 7.299375814874563551e-01 4.685105903931118809e-01
5.059708509179833974e-02 5.404803132937487931e-01 6.370439642300217420e-01
7.692249849501846259e-02 -1.682902801449542296e-01 4.865264150333890036e-01
-7.472748632382383294e-01 5.572744532047109178e-01 -3.458920171617946293e-02
3.466620949109830430e-02 3.739965034935165966e-01 5.829597188066497626e-01
-4.723678887253381919e-01 -4.863168747386542590e-01 -5.621605341079884133e-02
2.901773047813507311e-01 -5.237437006229506142e-01 5.804677595234539744e-01
1.415627069743683186e-01 1.874345418651190143e-01 6.280040741084751410e-01
-5.101344622067444101e-01 5.601487817621650933e-01 1.669488472375827981e-01
-2.235385565859257778e-03 -3.455831916671052162e-01 3.762589284437036774e-01
1.224404615682182784e-02 -2.121945038058939137e-01 4.210446547762560776e-01
-7.159188299435625957e-01 3.511372830664069578e-01 -5.829386768541860303e-02
-4.625103854572895079e-01 7.318917602916871212e-01 2.491567624206033615e-01
-5.711823944474422321e-01 -3.065597409297204368e-01 -9.607482413014259426e-02
-7.049028159328072363e-01 4.092411888162227895e-01 -3.479733534511322141e-02
-1.566040557451166548e-01 -7.681525111736162703e-01 1.424910253499618584e-01
-2.779967261836640002e-01 6.140771818160782880e-01 3.766981102059343001e-01
-4.833854487811141687e-01 -1.284386376729480805e-01 2.171112406630976155e-02
-3.527690765838327192e-01 1.991920582453153010e-01 2.122149102606399884e-01
-3.982822054775155829e-01 -6.949556220051773536e-01 -4.434237022581717647e-02
-2.497413504503949722e-01 7.011612344695785648e-01 4.218608347880218878e-01
-1.809801180756629435e-01 -3.786435522672211840e-01 2.168169388185566260e-01
-2.274292885559136557e-01 5.245891597516294524e-01 3.977052937137073307e-01
-5.457009531858045097e-03 -8.168378913067126934e-01 2.586288864211404581e-01
-2.206624926056819924e-01 2.039595242048036078e-02 2.805034848504991962e-01
-5.717112628015980080e-01 -2.730668271859297280e-01 -8.835646687151255119e-02
9.819554409512248200e-03 6.863952162828688974e-02 4.874644447772619738e-01
-2.058761431768963424e-01 -2.258632748612842966e-01 2.329831580180911355e-01
-4.732325897840456430e-01 -1.002843035693768564e-01 3.717431664022521898e-02
-4.623647052225638987e-01 -5.164740019930225134e-01 -5.509715891117477476e-02
-3.485251541376258033e-01 3.521626855554015889e-01 2.531065337087692879e-01
-4.926603229510703730e-01 5.909558632758066254e-01 1.892593198731347126e-01
-4.740698912413566779e-01 -3.829031636346780787e-01 -3.244310706902938518e-02
1.205132523830342861e-01 -1.593945722647659505e-02 5.605902504920433627e-01
-1.188437320974125161e-01 6.766780454905988451e-01 5.267501902628473065e-01
-4.509299431768328814e-01 5.554525744236086249e-01 2.159448769415523439e-01
-1.853936572970508179e-01 -6.888817657707034803e-01 1.374365861998781968e-01
4.659484818915869686e-02 -7.796536899037901369e-01 3.117785428322293884e-01
-1.447657501543764824e-01 -8.726694771828341635e-01 1.270336470053302913e-01
1.452631218008855751e-01 -7.679353349906347104e-01 3.981991378846240770e-01
-4.102610736050634199e-01 5.921703406257564639e-01 2.593404090778457793e-01
-3.077965211794340128e-01 -1.812542509352000897e-01 1.575420900864637486e-01
-1.777567505224870448e-01 5.384903330569646984e-01 4.431629918743880125e-01
-5.883027597724456437e-02 8.339636691817842173e-01 6.159258277060676301e-01
-6.489957009314970549e-01 5.014692871703412269e-01 3.503822404722035933e-02
-6.589427824358203845e-01 7.028157818676735724e-01 7.570633878232965741e-02
-3.025873333717291058e-01 -9.542245037258233475e-01 -2.651225973950496403e-02
-7.710647814069928607e-01 6.699557916549828684e-01 -2.726315415221161262e-02
-7.968836993795467283e-01 5.005414555196868731e-01 -9.043623141546273947e-02
-1.687264802215470150e-01 8.454688258078805196e-01 5.256585257955058710e-01
1.733457463806473975e-01 -3.480039508443724117e-01 5.243705962119349362e-01
-1.531119928452953916e-01 5.064400315119276241e-01 4.562204272680779327e-01
2.882124679237656542e-02 -5.007530232581196561e-01 3.647275835027525837e-01
-2.166324605998589670e-01 9.033848885212197866e-02 3.009700021184236185e-01
2.265305516032721858e-02 -1.862521144239923931e-01 4.361854663477310323e-01
-4.799137662295790974e-01 -4.016200734740989486e-01 -4.195592763340419418e-02
3.231938899163605550e-01 -7.576911581576404320e-01 5.513887148792283588e-01
-4.723469802325563349e-01 4.709765391258324829e-01 1.772095169310711760e-01
-9.721765842033362748e-02 2.072635804090594835e-01 4.306126672126625032e-01
1.799514476680167119e-01 1.678775760137704706e-03 6.152249040132761193e-01
-5.351253759950860278e-01 6.527495400121231806e-02 2.512328598502577143e-02
1.583904682023566102e-01 -2.702447014075688991e-01 5.306640880042157171e-01
-4.528199496642766331e-01 4.776295974894899099e-01 1.953693607651394160e-01
-4.485855410939593169e-02 -2.093745667276706857e-01 3.733712935094382623e-01
-6.984807152729186064e-02 -7.619466995564527778e-02 3.846793561414484364e-01
-4.931371633084251083e-01 -3.089920549425391183e-01 -3.057037133385924130e-02
-3.407400078267732672e-03 -2.370733526936203150e-01 4.017232693794751675e-01
-5.011231644691246379e-01 -1.012894403264070348e-01 1.330836036801578449e-02
-2.422565141777316688e-01 -3.034988085425538995e-01 1.832430150213236186e-01
-3.516436582252570053e-01 -3.918267363037663542e-01 6.906547929746144343e-02
-1.390480697938321630e-01 1.022470916369355443e-01 3.695807744223724711e-01
-8.274616074293255075e-01 5.921312403375572631e-01 -9.400157444758522329e-02
-3.518608669681757561e-01 6.341523680617631165e-01 3.190363719697680844e-01
-3.365525271333648649e-01 2.618405939511504466e-01 2.412239167962887954e-01
-2.154560774125343359e-01 -3.172136939709800929e-01 2.025966748271521567e-01
1.239960887450240051e-01 -3.363579349635257842e-01 4.854152807884555276e-01
1.041444165397886340e-01 -2.046615159610215839e-01 5.007129475697283949e-01
-2.215449568813114278e-01 -3.706340008615697790e-01 1.844149534594524131e-01
-3.916844000893330291e-01 4.816942880002302724e-02 1.424345973305604640e-01
-9.950191769987233592e-02 3.927330383787339119e-02 3.877186074576656760e-01
-6.799729652323955875e-01 7.297176381545632251e-02 -9.567334283159206754e-02
-4.894497078951782210e-01 1.059110484437954108e-01 7.371450879133140122e-02
-3.450299930316060304e-01 1.771530785684565790e-01 2.133956813342737513e-01
-6.363436349844835138e-02 -3.789563664171012314e-01 3.161222836170127781e-01
-1.054627237715309723e-01 -2.926068045819845143e-01 3.017511148333770765e-01
4.941460313970268831e-02 4.038660372060173115e-02 5.141093526213051934e-01
2.407476517508337355e-01 -5.439691379657486392e-01 5.336737778618735328e-01
8.583947255692331302e-02 -5.924553088861345129e-01 3.906581386210852824e-01
3.719127204165170730e-02 3.681366834072320460e-01 5.836694815681063853e-01
-5.255711657935462355e-01 6.155425745427140112e-03 1.880030903733512920e-02
-4.770010858104012930e-01 2.979984611776455572e-01 1.310922753712991384e-01
-6.362963266958587827e-02 -5.113429315341103676e-01 2.838477173534236231e-01
-4.389647405985840911e-01 -7.057908454752671590e-01 -8.143877857178068169e-02
1.143816258526554330e-01 -8.510136311912213092e-01 3.517890045936610255e-01
-3.872702179224558061e-01 7.253282843262839341e-01 3.112783086738527549e-01
-5.074087957555223349e-01 6.263005334490617804e-01 1.853864092477011116e-01
1.028279345205280471e-01 2.256502221953347875e-01 6.045168720047584543e-01
-2.175732962486164879e-01 8.211708515433060462e-01 4.783651877910851113e-01
-6.208865874807666801e-02 -9.077232796505884105e-01 1.885070901384292008e-01
-6.263730637708215783e-04 6.295128342671506561e-01 6.153701280218861758e-01
-4.751994291361519296e-02 -8.481258520409094004e-01 2.153766023474930069e-01
-3.149285784289127532e-01 -3.854666412382276586e-01 1.017106706258662091e-01
-1.278656736938284799e-01 -5.863599743052043678e-01 2.111546943901021489e-01
2.621204995877285948e-01 -7.152089177535310149e-01 5.100229278247376818e-01
-4.442138692052274851e-01 -1.762221027384783534e-01 4.323544059350779845e-02
-5.910629274544496603e-01 -2.387006053774402836e-01 -9.636644522501611188e-02
4.022685846173048446e-02 2.214708886273494270e-01 5.504802150732578392e-01
-4.838173888298171604e-02 -8.788691578310103836e-01 2.071508848311260920e-01
-7.653151334423704544e-01 5.877271760755694574e-01 -4.244273508727567507e-02
-4.698795479659208518e-01 -1.835747766810149617e-01 1.970611666098471063e-02
4.603170647051529896e-02 5.645662382435856497e-01 6.390501317590052688e-01
-4.942462965700855082e-01 -4.942480454789727751e-01 -7.667893877025089289e-02
-3.752371795688432682e-02 -7.564505403202784750e-01 2.461948629705943414e-01
-6.711692483617557325e-01 3.023354921094721370e-01 -3.229375899619060797e-02
-3.735488804857535206e-01 -7.924792231787265440e-01 -4.717366579980124958e-02
-1.040445805389729333e-01 2.709617129414890746e-01 4.403617772827400634e-01
-3.284343063036391785e-01 7.771040086413649739e-02 2.032046057783249426e-01
1.622827436066272555e-01 1.336673400518616772e-01 6.324425853836254108e-01
4.972271621560173105e-02 5.300393792833328899e-01 6.337577351997283337e-01
-1.385727169066170161e-01 1.516981297020742747e-01 3.820405390333365125e-01
-3.922627520554907710e-01 7.819098536828420487e-01 3.208458205476182323e-01
2.176401727533585073e-01 -4.859075041452782240e-01 5.282603822404825511e-01
-4.117849528148395666e-01 -8.274688384291331023e-01 -8.808747212425778461e-02
-3.933654861119316171e-01 -1.442360979633878770e-01 9.409843153707066199e-02
-3.741169750279845219e-01 -9.715052819409835116e-01 -9.130503489215646695e-02
-4.576759336141040246e-01 5.377395019367789963e-01 2.059127995384237020e-01
9.196352363020136866e-02 -8.080783376916772509e-01 3.432713374490968250e-01
-1.147043134992570407e-01 -7.401227358941042667e-01 1.848106880103146110e-01
-6.687777798283548458e-01 5.928372233061605101e-01 4.056191505637868344e-02
-4.808845785897390701e-02 6.714585157141448324e-01 5.854011049928906640e-01
1.081441039697167844e-01 -4.456185127212226593e-01 4.453500522671441919e-01
-3.364107560463834856e-01 -7.877989881474998235e-01 -1.457977706649623249e-02
-2.265015232382139587e-01 6.366132204237213987e-02 2.861073241266219314e-01
-2.037495267176868130e-01 3.573028913441633203e-01 3.769721461005056673e-01
-1.838301757152300542e-01 -6.978126726676676661e-01 1.365831795269222826e-01
-5.433706195192249400e-01 -1.851089794603689720e-01 -4.290847886903387254e-02
-5.264278876872491297e-02 3.175396635672929069e-01 4.952512742053937767e-01
-2.109660997209305278e-01 1.762561804209805960e-01 3.267174192132386579e-01
3.165231294811629015e-01 -6.120743450564125610e-01 5.812435428126350168e-01
-3.551447814494654853e-01 3.469563477742079738e-01 2.462308745134576538e-01
-6.524358763916245085e-02 2.892064939547350222e-01 4.776712863666904840e-01
-2.435346226437126380e-02 -1.828206949523583924e-01 3.972116983414319957e-01
-3.442096335715157385e-01 7.361547073151264442e-01 3.503865714864301539e-01
-4.534683414369150012e-01 3.925755263422561758e-01 1.740822941262178403e-01
-1.356671455835461171e-01 -5.680971577294898767e-01 2.090003794531133385e-01
-3.324547546206833570e-01 4.780032413892337240e-01 2.973992808021513889e-01
-2.237196406028829285e-02 4.122390630652140175e-01 5.439776867165609930e-01
-1.884014515981933258e-01 4.892227093234348678e-01 4.221353968498373632e-01
-2.475302776954454165e-01 -6.949734165908975081e-01 8.332702033143708775e-02
-4.922751301568944471e-01 5.795128870389337772e-01 1.867955111314777150e-01
-1.924998320032313692e-01 1.127150169837638077e-02 3.021300719714318239e-01
-2.190761220442139640e-02 -8.096468064621179517e-01 2.464499960076510510e-01
-5.369002181449863409e-01 6.073153707429390646e-01 1.557807737813647897e-01
2.715972020610085691e-01 -6.650102472944315890e-01 5.302883383238055082e-01
-4.047949314822519851e-01 -6.664051629629498263e-01 -4.289689059930120590e-02
-1.094090342539479066e-01 -1.797997571729599287e-01 3.259136171243059987e-01
-4.579018886896220053e-01 1.690075337945259326e-01 1.158169824622531513e-01
-4.369271619782573168e-01 1.995638220045613531e-01 1.410309986594423526e-01
3.174542751272674823e-01 -5.852182376423797905e-01 5.885802143808400722e-01
-1.847531320678462430e-01 7.117002151927408482e-01 4.794698060211065593e-01
-2.657406507394838857e-01 -1.970834059894179535e-01 1.893002686227951425e-01
-1.724300675869170490e-02 5.745306285197858687e-01 5.878914942751809480e-01
-4.190884161685873854e-01 4.512072263132465566e-01 2.174947078339329321e-01
-6.324355855022276707e-01 -9.311900906593178692e-03 -7.547578318982685330e-02
1.354987229250147196e-01 -5.436976010280460958e-01 4.446033247531562260e-01
-1.439425017176943489e-01 -1.755125721872644873e-01 2.977120873898294051e-01
2.933979553990880285e-01 -4.069534128055939393e-01 6.116712486260800219e-01
-4.486349603648321360e-01 1.244920818262802986e-01 1.128114775980932072e-01
-4.055738494159045193e-01 -8.210881898474043927e-01 -8.127147586421552827e-02
-2.745232636083634881e-01 -3.456972946994100321e-03 2.290722765582283160e-01
-3.412214303168517038e-01 3.203116004150006191e-01 2.515261995516922533e-01
1.740033664209981734e-01 -6.247362270614923441e-01 4.574545110303186446e-01
1.477140790746533650e-01 1.889942678889509342e-01 6.335940428987534290e-01
-7.567871018777400094e-01 6.149357552611784961e-01 -2.858622411683048661e-02
3.037878753710188118e-02 -1.163143463590951832e-01 4.597807567421030583e-01
1.318918469817416395e-01 -5.415836275476254569e-02 5.609083704966435491e-01
-3.918418183989990505e-02 -7.574218619946789799e-01 2.445517667007672535e-01
-1.121691724473980745e-01 1.633643070259588881e-01 4.072464918505387388e-01
7.558167256140768675e-02 -6.659197455971819224e-01 3.640585333893805453e-01
-6.419908376140015527e-01 6.954117540765735184e-01 8.825790237374310510e-02
-2.559538846913751442e-01 4.326124436320256117e-01 3.511216307578562956e-01
1.332571920440107083e-01 -6.970698214164373629e-01 4.053096355769728043e-01
-1.199512446976900848e-01 1.312434811210797525e-01 3.928240363478540664e-01
5.323905470027970321e-02 -1.205043629945567185e-01 4.781197959923070839e-01
-1.185283319214403136e-01 -8.869386586529118821e-01 1.457753304413400841e-01
-2.994419790451256502e-01 -7.052188773354928220e-01 3.686428427707207772e-02
2.013095363881118038e-01 -3.232415799981686044e-01 5.540910627456181459e-01
7.895123692897650092e-02 2.575475458861962719e-01 5.920726173344179610e-01
-3.124040396984067991e-01 -5.073364296779171445e-01 7.413436868250486422e-02
2.568653130744183444e-01 -6.431896317099978777e-01 5.231320295259985764e-01
-5.916952131964337003e-01 4.933989017138079580e-01 8.159901121538666591e-02
2.916114554291593941e-01 -5.623215003258401623e-01 5.722762973901204253e-01
9.059298732556522737e-02 1.814649987694198496e-01 5.833816712068505828e-01
-6.259442469986729041e-01 6.005025546335107656e-01 7.870714574902057392e-02
-6.282087172135217834e-01 2.500663610444071039e-01 -8.654228898840989406e-03
-2.411422252375414466e-01 -1.887699248169767419e-01 2.121599867698513719e-01
-5.170681385113599093e-01 4.112579975638194218e-01 1.247739867910530875e-01
3.487205730742806709e-02 -5.140331910310295127e-01 3.666141134691950354e-01
-5.887167227263718355e-02 -5.406573113484601789e-01 2.807298447385204176e-01
-7.177294649898465773e-01 4.063115317168477514e-01 -4.637469870694586882e-02
2.927092490758484086e-02 5.396906288828801079e-01 6.187900259960449345e-01
-6.262306640010380232e-02 -5.941683339032871602e-01 2.645056511533909749e-01
3.133840498808390107e-01 -4.363808430135383554e-01 6.214227128618862173e-01
-2.745226111172380246e-01 -7.422432163290969553e-01 4.894151775511323965e-02
2.350851109839642017e-01 -6.751403929533716930e-01 4.968958446995085931e-01
-5.166052936591384315e-01 2.852699998872075815e-01 9.444750574012454603e-02
2.504859058815718797e-01 -1.768220673780001861e-01 6.314392515731904743e-01
-5.313881823966263296e-01 -1.652394373361704832e-02 8.344105861242319747e-03
-1.655326371889377646e-01 1.867412812585558801e-01 3.677520814293503415e-01
-4.865029097336459607e-01 2.892978563804097791e-01 1.209236728169108960e-01
-6.472667159338395537e-01 4.292304597169213087e-01 1.888920861440463242e-02
2.556810924449384181e-01 -5.605903580818289988e-01 5.422685031367937558e-01
-1.439098893490417808e-01 4.608029313661890503e-01 4.528865404891722068e-01
9.022715604971222325e-02 -3.785480183996985382e-01 4.465291294271244160e-01
-3.080503729900456178e-01 -8.724821702673839496e-01 -1.120851214524794769e-02
-3.607410026383686685e-01 -6.341903455346842300e-01 2.267579673182472475e-03
-4.135730339988459292e-01 -7.998500657521983026e-01 -8.286779491145043752e-02
-2.730045094516571069e-01 4.419198775428317960e-01 3.389505835070167339e-01
-4.701368286810929109e-01 2.296600160770302934e-01 1.202433809636961476e-01
3.975517018627474503e-02 3.795532905483197106e-01 5.886244836883378628e-01
9.670664042383501913e-02 -4.208762477782571620e-01 4.416961926928643090e-01
-4.493458880729711002e-01 5.433387366957381781e-01 2.143328301146835146e-01
1.304708319009927064e-01 -5.874944085686287232e-02 5.585854952548725549e-01
8.504209824165979981e-02 -2.895712955666365773e-01 4.638321965792547297e-01
9.781401788697809130e-02 -6.578635860697074067e-01 3.848516477550524284e-01
-8.802077509622491247e-02 -5.187379446747438783e-01 2.613874913194334515e-01
-6.186391296142020740e-02 4.845737087638664065e-01 5.281681291252666721e-01
1.294034006495213274e-01 -3.486188695504509605e-01 4.870053336346697459e-01
-3.162626590842402829e-01 2.561369508390853311e-01 2.570169989438729763e-01
-3.396496670974895049e-01 -5.382004016865719054e-01 4.353442710794056675e-02
-2.172579043048608258e-02 5.459800892250935567e-01 5.771337577787950535e-01
-5.957749857872509658e-01 2.542254789972730675e-02 -3.595847954216441211e-02
-4.075401240843667394e-01 3.525305490597062663e-01 2.032156961120567262e-01
-2.020422743901107154e-01 -6.586001068805139580e-01 1.307199526638214149e-01
-3.727336149863766379e-02 3.534898717546529068e-01 5.170332397071323305e-01
9.793359455077903231e-02 1.343322944153262921e-01 5.781066003797294961e-01
-3.081581478869293012e-01 2.189377396923298802e-01 2.548108784863095111e-01
-2.379366796054201150e-01 -4.859923573113323347e-01 1.424058498782244941e-01
-3.449968368033358712e-01 7.741428987535131645e-01 3.589821829870541992e-01
-3.284132630342333214e-02 -4.406884046848450476e-01 3.271497561964738510e-01
-2.908583371397832629e-01 7.828560064148597231e-02 2.351684185964409979e-01
-7.931004561869998970e-02 1.583689185831755053e-01 4.338573265608576257e-01
-1.334490171010709325e-01 2.389206636061557976e-01 4.076465170000682647e-01
-3.846690306901545675e-01 -3.433200777934325432e-01 5.292279338282869505e-02
3.840663863372603248e-04 5.115134374902102765e-01 5.874551973483381762e-01
-5.886551642580089005e-01 3.528846236424422189e-01 4.991339063122101488e-02
-5.281271187422542646e-01 4.860051585726413714e-01 1.336328937469926093e-01
-4.100513368957224847e-01 -7.232817942715519255e-01 -6.121630220091970470e-02
2.766678232356900580e-01 -7.917158450551055049e-01 5.036892760856428453e-01
-4.450168832620194914e-01 -2.127630523277885821e-01 3.364592118924484426e-02
-5.170641702550333729e-01 7.557266061845538951e-01 2.087658933178565546e-01
2.079267729522255581e-01 -8.301323887225516840e-01 4.361048593187382139e-01
-2.295639021657305823e-01 2.108463490329715861e-01 3.194004992189675152e-01
-1.931647627292270783e-02 -3.890114918414937506e-01 3.512040204203223936e-01
-7.985205394444704341e-01 6.224224416938611837e-01 -6.210539591846261920e-02
-4.574085484216636188e-01 7.576994264515903854e-01 2.597700141050326428e-01
-3.438031875434846563e-01 -6.897008776104247563e-01 3.077819471692393345e-03
1.012407917934117496e-01 -6.033372587931180586e-01 4.010484685521825132e-01
-1.529912856020602674e-01 2.990357674294162327e-01 4.057532218987901507e-01
9.525082412310417745e-02 -5.716847777534388442e-01 4.036930157665954977e-01
-2.389468488795976620e-01 -2.076644362956350243e-01 2.094124077055614375e-01
2.596478951087801135e-01 -7.894839932093031809e-01 4.898190534803730234e-01
1.188088544197725832e-01 2.579198634605772700e-01 6.259193203421649088e-01
-5.305789701568704997e-01 6.025523007133832820e-01 1.599729846453204207e-01
-6.754858359860095307e-01 1.804186972452026250e-01 -6.567535918694174246e-02
-6.494643890932068064e-01 -1.005554485761531343e-02 -9.007900973449456394e-02
1.164303699358034544e-02 -6.819004143757152470e-01 3.060116715280317146e-01
-3.571286066887269794e-01 -8.925079681778830265e-01 -5.765619608736144430e-02
-3.686832607736711953e-01 -9.186546077080945949e-01 -7.381706947706594135e-02
2.143944061186404682e-01 -6.780313823209737079e-01 4.786677402219484123e-01
-6.920186201209433952e-01 2.205711307113464859e-01 -6.988719405087530367e-02
-2.283708250259008365e-01 -1.389066612950441149e-01 2.351339396568924989e-01
-1.829439061008076850e-01 -5.364908001165588081e-01 1.766673696887926526e-01
5.054427482280514361e-02 5.232538165606773761e-01 6.327990636244243960e-01
-4.437619712711334818e-01 -1.314597161050223284e-01 5.453215106062294509e-02
5.043837865110463448e-02 -2.274981815714395474e-03 5.045746274071245541e-01
2.182258111877401208e-02 -3.564484149793946122e-01 3.939847617317228656e-01
-5.185938084585470786e-01 -2.610152144443114719e-01 -4.043218615862304022e-02
-3.528110038166817342e-01 -2.236033376188455435e-01 1.090931708659307608e-01
-3.272888368761358580e-01 3.315501211164828543e-01 2.660660734886515222e-01
-1.988070344918144716e-01 4.243293940606656101e-01 3.975004484449363718e-01
-4.159400593277583491e-01 7.049220254525381257e-01 2.820219880832208204e-01
-5.943904331801638241e-01 6.136518808303988159e-02 -2.602232789033454355e-02
-3.157721161485910200e-01 -5.177854662735674740e-01 6.873421134373641772e-02
-3.907538083440831866e-01 3.208842406677906434e-01 2.097162187157772528e-01
-1.577396325143614608e-01 2.966685166775484897e-02 3.360540934229575560e-01
-6.741062628019711678e-02 -4.838917750104907434e-01 2.873387033563801207e-01
-3.101541673857973747e-01 -9.126350566185935653e-01 -2.278034361848561840e-02
-1.380901940103140269e-01 -4.785278899729933921e-01 2.287871022208369520e-01
2.072809756709530216e-01 -3.072294819956602474e-01 5.630524302692132554e-01
-4.609989138420194643e-01 -4.669072562878147648e-01 -4.185505868275628261e-02
-4.534182200146397723e-01 -8.025733877224822121e-02 5.883834571089360116e-02
-1.924358807920364955e-02 -6.655757194596420012e-01 2.838336920959884657e-01
-1.582432922539872902e-02 -2.066061381887864812e-01 3.986357485881955598e-01
-2.493155432585019704e-01 -8.871906682264132926e-03 2.491007438021351494e-01
-5.460200941208819270e-01 5.792202548693238251e-01 1.412068663201749286e-01
-3.371768724791402438e-01 4.771465132955565736e-01 2.931911710307999464e-01
-1.574264111629218310e-01 6.598742194636749714e-01 4.899769084695433929e-01
-3.092987709389549145e-01 2.385055469196062372e-01 2.586159049492381401e-01
-5.051415310458778896e-01 -1.208964403806997157e-01 5.124563808910989789e-03
3.021038710963962204e-02 2.143314613711929939e-01 5.402563983092979472e-01
-3.065017823813342424e-01 2.150787217582189048e-01 2.552727674454926543e-01
-6.319455447709585449e-01 -9.694052179046992734e-02 -9.642642511319114706e-02
-5.858083362905011082e-01 1.699932726656352422e-01 7.731725041965993236e-03
2.226721938883352014e-01 -2.811893672582974069e-01 5.824365657868003643e-01
-4.825220668765256571e-01 3.975821492911909005e-01 1.506970415631501414e-01
-1.036426263656017865e-01 -8.830433447877477082e-01 1.593319820186245295e-01
-4.212115052597153464e-01 3.274788856086797151e-01 1.855291173018923656e-01
-3.311178239470972118e-01 -7.755523226078677723e-01 -7.111135959782297240e-03
-4.161545695491223966e-04 5.578337477374712972e-01 5.980713262505147343e-01
2.622116856351563441e-01 -4.588121868579851381e-01 5.726149613926768689e-01
-5.587733870635359229e-02 5.584327463863670848e-01 5.512465906672476823e-01
-5.462741794351337887e-01 1.421960061946234422e-01 3.443615999159414104e-02
-6.295521546507185651e-01 6.218238529206711052e-01 8.085013469140232834e-02
2.561167032258131471e-01 -2.482081566627143132e-01 6.188026458915125705e-01
-5.265223213982209161e-02 -8.554048764174078112e-01 2.092552250288331750e-01
-3.544625295996527425e-01 -9.674827394344412967e-01 -7.367865576590490462e-02
-6.990878526120061220e-01 3.927881947764363946e-01 -3.388414780480523275e-02
-5.117204823951575499e-01 -1.749866888498297383e-04 2.898714434765881087e-02
-6.489647679692756022e-02 -4.847598248920526598e-01 2.892563201508099313e-01
-4.078604713402574911e-01 1.482511609717482581e-01 1.531368652318743917e-01
3.400746712957896101e-01 -5.014096739152748006e-01 6.281719712384222776e-01
3.992691684318661616e-01 -7.758186100416754050e-01 6.113979916219492994e-01
1.617790065778443309e-02 2.923067946311508347e-01 5.473840998665890911e-01
-1.990882425912604559e-01 -4.915181309782071795e-01 1.739597888811037218e-01
-3.580384925096862236e-01 7.248533504936448546e-01 3.359192308809466065e-01
2.676793897068003858e-01 -6.041769415400090049e-01 5.418027067269980401e-01
-2.068054552862778339e-01 4.993997600804596093e-01 4.090301862423843526e-01
-2.731745187210313786e-01 -7.461292779396744290e-01 4.913573248280640043e-02
-5.880200655459546510e-01 -2.081213083056405178e-01 -8.633354386867446439e-02
-1.206261141589087121e-01 7.584667748645677054e-01 5.451824459389533750e-01
-1.262288719516580227e-01 7.111489093240322967e-01 5.289003281784299126e-01
-1.682780407290342950e-01 6.137011533446758982e-01 4.695285799893759715e-01
1.138608858583111949e-01 2.082785346134433391e-01 6.096252436908683459e-01
-2.720467466509230436e-01 8.194755665200698092e-01 4.318175828570230412e-01
-6.594576798556566199e-01 5.109102337114181935e-01 2.847973806992652734e-02
3.580527823404669463e-01 -8.702557144360642538e-02 -1.809859674625022286e-01
2.318083811114839687e-01 7.374226259169577302e-01 -8.688649892629919658e-02
3.788711587740160591e-01 -3.036593611239009061e-01 -2.161744015127065877e-01
-1.795512932051780697e-01 5.816873706707520464e-01 -4.732437153240121597e-01
4.363317126188641371e-02 1.154358466224273405e-01 -3.979076777814350430e-01
4.747220420171541222e-01 3.035591652031993659e-01 1.305532387441843932e-02
6.349192542700242692e-01 -2.779177497201354430e-01 6.952329713858015382e-03
6.572802980592110655e-01 -1.626926093593981937e-01 5.398444656698178634e-02
7.052523215768921050e-01 -2.595547447650348172e-01 7.099557997977161417e-02
1.164216374504048607e-01 8.470950092365793216e-01 -1.578686157094768006e-01
2.170241211089940503e-01 4.792392157163093969e-01 -1.623579133518686934e-01
1.901334917425939464e-01 5.068967412374767445e-01 -1.783884554299408343e-01
1.071585009603094746e-01 7.214551635541459618e-01 -1.963472677033274438e-01
2.867129672880999736e-01 1.413360375726576725e-02 -2.167398745331014231e-01
4.909750780545855675e-01 -5.191026840924327646e-01 -1.737616854087595530e-01
-4.201470582435283541e-02 4.525319547269689158e-02 -4.875559333313432830e-01
-2.626935316332081882e-01 2.678673361832112909e-01 -6.201737286119646253e-01
3.790657260704610176e-01 -4.486908455492227832e-01 -2.513712847721635835e-01
2.403869438603503661e-01 7.203822795902552201e-02 -2.418556335755093489e-01
3.417906882949469649e-01 -5.578509478161675084e-01 -3.095554719595228210e-01
2.854287136676190717e-01 -2.258364291599079809e-01 -2.763371647398747410e-01
1.622520178973950455e-01 2.130756271186917961e-01 -2.736412738610640716e-01
5.138360804611611377e-01 -4.817671626891124048e-01 -1.452972415190201538e-01
-5.767458351134193556e-02 -2.971792282115059414e-01 -5.843105652675648631e-01
4.367767025005887538e-01 2.762829851404625114e-01 -2.573156266418686819e-02
-2.410624330912557178e-01 1.990505102262190573e-01 -6.186330359086523734e-01
7.430082333404992578e-01 -5.274134355786559425e-01 3.766207393582687857e-02
1.152103980090093092e-02 -3.588834786476263750e-01 -5.407526777491630243e-01
4.341033321868901784e-01 -5.944288629546161662e-01 -2.402931666826071677e-01
3.174310519591995172e-01 -6.662749175983683214e-01 -3.566219567670875223e-01
1.033403868329046543e-01 -3.075692031294831041e-01 -4.504782244633960264e-01
3.212106546602974677e-01 -6.595302590502614137e-01 -3.517764763104082038e-01
5.361131839917671754e-02 -3.941192395721447861e-01 -5.136970889569922871e-01
-5.865619482987362993e-02 4.455507281654151330e-01 -4.040490344973602377e-01
6.596333742833223601e-01 -4.421902869606714748e-01 -1.216999700916549833e-02
-1.687579006086857847e-01 7.613032850860068645e-01 -4.203085920053929447e-01
4.427423160629527787e-01 -2.637176742426820542e-01 -1.523424978520232786e-01
7.222691763928980047e-01 -4.552159916282702556e-01 3.770112696567499977e-02
5.609797169257165761e-01 4.768324401298806164e-02 2.372022546141126786e-02
1.096205997975899099e-01 7.119181821939174482e-01 -1.965873974125600387e-01
3.204723219141040191e-01 5.194778549822416380e-01 -6.493530394537194717e-02
-1.208407176833282970e-02 1.669208381697806221e-01 -4.325422191532996563e-01
5.861024021367334802e-01 -7.442797423645902341e-03 3.155608283379857104e-02
-3.404580009786955519e-01 7.541080446474585086e-01 -5.674779435383154880e-01
3.469299168604611516e-01 -3.693344998958220105e-02 -1.781925724849871551e-01
-1.674541605114889253e-01 1.051695413831014586e-01 -5.791833665396434183e-01
2.378531510186740472e-01 7.779296484072609763e-01 -7.189065936865791928e-02
4.903843150490566627e-01 -1.233181444675797017e-01 -7.776158284584083757e-02
2.266649158752338522e-01 8.519391994736610352e-01 -6.332106455073083229e-02
3.577182732386854358e-01 -9.684781699004482713e-02 -1.836641333706032220e-01
4.638301238827711170e-01 -1.615924345977200471e-01 -1.095827265347389806e-01
7.716214348673453571e-01 -6.482951804723559031e-01 3.242149844036655570e-02
2.149967281369501715e-01 -7.307256578947086689e-01 -4.590893100391865711e-01
1.587602693179444302e-01 -1.886394485937208376e-01 -3.745448944418249271e-01
1.396278284454193774e-01 -6.149768076155148755e-01 -4.946982367933658309e-01
2.055103048420552359e-01 -8.031971392903700657e-01 -4.847935235413459165e-01
9.641340631737615324e-03 -7.191973799045627835e-01 -6.301965735878989339e-01
3.854074122644746692e-01 6.539884457860710709e-01 2.285550588551943374e-02
-1.371324961511567186e-01 6.034583375838865615e-01 -4.320104849946556080e-01
-1.058301928010099702e-01 6.710777380224626221e-01 -3.890131619223512471e-01
-1.232591482288768470e-01 -1.425977319713475633e-01 -6.021648146457470041e-01
-9.053070354359571414e-02 -3.224205148838938523e-03 -5.404645395413057996e-01
5.165283618586169467e-01 3.481469768312146496e-01 5.933305640755773269e-02
1.936335580583828098e-01 -1.579638313082536161e-01 -3.375309140121789953e-01
1.722453853019892955e-01 2.338424525931937503e-01 -2.601143835989951358e-01
-1.167241368883153128e-02 8.010462617335310787e-02 -4.533611623142931313e-01
3.469087785568389370e-01 -7.226615242405949324e-01 -3.454051111069789681e-01
5.887338374144400754e-01 -2.894650475258496725e-01 -3.497815771502669341e-02
2.379141193268205501e-01 -7.786795938391677385e-01 -4.513724371584963424e-01
3.312851483522914059e-02 5.395902266711106732e-01 -3.033866261724008084e-01
-3.485345756480611179e-01 6.552359211801441763e-01 -5.984251588829117008e-01
6.964315106224078233e-01 -5.026144386206867765e-01 4.262160289758191480e-03
3.265888956795837683e-01 -5.109413579879189538e-01 -3.109925391637666792e-01
1.513475538140785226e-01 -4.996109957869978024e-01 -4.566440895505200492e-01
-1.615594150680645380e-01 3.673613539282393758e-01 -5.102632642083398951e-01
5.084059773728343001e-02 3.587270899628375309e-01 -3.324841974359874497e-01
6.563717361769204617e-01 -2.892414401602690366e-01 2.235976099792285829e-02
3.235887386712719138e-01 6.548352443723258753e-01 -2.929304982453497658e-02
4.008952050839957315e-01 8.113780070278552026e-02 -1.037004778144015454e-01
-2.527758247980017026e-01 7.955800608587896283e-01 -4.831070586353431451e-01
-1.085968141711670110e-01 -1.672139451019680895e-02 -5.590558518399784127e-01
6.239299738235071224e-01 9.498378820747621631e-02 8.856644791021513197e-02
-1.856540034163781105e-01 1.097729682871615015e-01 -5.934746351367403694e-01
2.146519888663881159e-01 1.389372269317356440e-02 -2.778277236526588423e-01
3.314422003212370016e-01 -9.596059012212913505e-03 -1.846438977382923452e-01
-2.079117352722899964e-02 6.868796813258796208e-01 -3.131396930920620769e-01
2.364289071475602355e-01 -4.446724052480594547e-01 -3.711924463221859538e-01
3.051131278502509925e-02 -7.432986699699150046e-01 -6.183979193549777875e-01
4.431567329375222242e-01 5.837856003939092542e-01 5.464724120150558223e-02
-6.535769207531690050e-02 -1.417886436845029047e-02 -5.218161669301037975e-01
4.565841690819107124e-02 9.049965615481689318e-02 -4.022724285614284745e-01
4.877385511013859754e-01 -6.337593589576893116e-01 -2.044584015739960015e-01
5.942857373220448644e-03 -1.219206028327560060e-01 -4.877004789802192875e-01
9.938392400928612591e-02 -4.799408678623909991e-02 -3.905392404450577781e-01
4.211461213537266435e-01 -1.940159594524916153e-01 -1.536378759207299438e-01
2.717549611794943809e-01 -4.507110124721720457e-01 -3.427466977560607031e-01
-2.454671376332208735e-02 -2.053804701684120437e-01 -5.338717210587102802e-01
3.687300036692017779e-01 -6.785006873750281109e-01 -3.161571152923984829e-01
3.235400923886275204e-01 -3.676736930694575189e-01 -2.786430002958801277e-01
2.196195364599413669e-01 8.907617036499044794e-01 -5.982215959222136892e-02
4.242014792163523729e-01 -2.063357155103180129e-01 -1.540540648193024498e-01
5.139662623044645162e-01 2.714478700944745748e-01 3.846235876130001119e-02
-5.745231124002087714e-02 -2.577548717174971485e-02 -5.179484947606886047e-01
2.760464352283918399e-01 7.518176512044184578e-01 -4.591092317603552575e-02
6.373777417222404873e-01 -3.666373336802117855e-01 -1.259720887121095270e-02
4.088765438575893696e-01 6.841482630395081532e-01 5.008539758286705001e-02
5.429346870664150115e-01 -6.216514279427616252e-01 -1.547599273432377354e-01
6.120812139628266646e-01 2.216667571426418626e-01 1.094195007215925386e-01
1.271496463321414860e-01 -8.348041770047460730e-01 -5.588646112494944918e-01
4.814304716536357276e-01 4.940276939810490237e-02 -4.323178863246929238e-02
7.070927408617725396e-01 -3.791049977398058268e-01 4.340543910604597461e-02
3.544386159961279703e-01 -4.075745747344548531e-01 -2.622033040421361538e-01
1.771151880544478141e-01 8.819405848801744607e-01 -9.797040459745583185e-02
-7.216481184358915224e-02 3.771652260819188252e-01 -4.321634491679318124e-01
6.235043201607246566e-01 -4.275187718995911434e-01 -3.919093574590297446e-02
5.107090007244975347e-03 -6.586909623563794725e-01 -6.192839766947821900e-01
4.365079889262428181e-01 3.776012849509445823e-01 -1.255650104479655478e-03
-1.559816369747333287e-01 4.311476911410836999e-01 -4.899869492896066769e-01
-2.097705805011303160e-01 3.440885674065922162e-01 -5.567682997228872166e-01
2.715875687627213875e-01 -1.945082432685920903e-01 -2.804209494432612360e-01
-5.186590307123634808e-02 7.956631077138778263e-01 -3.129336364307293006e-01
1.765201390842233153e-01 -7.052587232812018714e-01 -4.854662602676313443e-01
4.955736775248537618e-01 6.571788253650282519e-01 1.169346004926282989e-01
1.744430325116936020e-01 -3.006934988033730938e-01 -3.885840490939164171e-01
-1.878645317839719164e-01 3.070669605413502423e-01 -5.472424185454034529e-01
-8.815938465130701562e-02 -2.609857281129585732e-02 -5.440334815869943830e-01
-1.747926831573884676e-01 6.620151648488298290e-01 -4.496280161622330240e-01
1.443083008562392189e-01 -1.256676895126319637e-01 -3.714306381315617966e-01
-7.720837621588908309e-03 8.530893391502590850e-01 -2.615449191007475638e-01
-2.275446828156364176e-01 3.586609459752485574e-01 -5.682683673262777235e-01
2.083603677443033320e-01 4.009351336231896101e-01 -1.887875054548645015e-01
-9.675845588746077863e-02 7.068333564632406363e-02 -5.277187208165199372e-01
2.872265600680173891e-01 -1.422056061442612818e-01 -2.544236275503071742e-01
4.805879706274249902e-02 -6.057799609605495350e-01 -5.700068359362759907e-01
3.921576768229924626e-01 -1.997784833174928165e-01 -1.795935811790493886e-01
3.746020507705647429e-01 -3.748018227622277876e-01 -2.371359617845150980e-01
9.069485475483725356e-02 -4.040026386864196684e-01 -4.847003457068003174e-01
4.815990564603512825e-01 -1.324706649180966422e-01 -8.743350343405920100e-02
-7.528383053468318264e-02 6.452164448657448093e-01 -3.694485745843277269e-01
7.023534817207437442e-01 -6.190354202546125562e-01 -1.910828148395123799e-02
1.059035131322014212e-01 -3.331866004048256724e-01 -4.545535295204802817e-01
4.590362386559019847e-01 3.944852304839166490e-01 2.194046562833895653e-02
3.280442768222069927e-01 -4.451431012516673946e-01 -2.937169873275436993e-01
5.110344068259785599e-01 -6.177337189291675079e-01 -1.808214631099110403e-01
-1.548631460468252730e-01 -7.176995405770217329e-02 -6.116613713387792917e-01
2.735922161446158740e-01 -1.454228230079045725e-01 -2.667551509866919468e-01
1.182788264153637053e-01 8.735739952210538339e-01 -1.498396162268708642e-01
7.351523357042316631e-02 -1.166661032993048519e-01 -4.291914169733842543e-01
4.495031715000588624e-01 -7.150773742872641725e-02 -9.975189945105078504e-02
1.900697791448432983e-01 -2.057398068703268079e-01 -3.521978912336418133e-01
6.447213238895039833e-01 -6.847150738166259965e-01 -8.393174367403626046e-02
5.491846965993472593e-03 8.546137348090563357e-01 -2.499832490269090768e-01
4.643573569747056484e-01 2.131699255898460987e-01 -1.776141940820601117e-02
2.897827737244226820e-01 7.134257542292191667e-01 -4.363817869094189367e-02
-7.983946184850027050e-02 2.240650542985891946e-01 -4.759921851286337269e-01
6.966095176070243866e-01 -6.957099126558788926e-01 -4.266773930205852022e-02
5.940842760998258365e-01 -2.096544710713227622e-01 -1.098733967622195044e-02
