-5.269077246299094797e-02 5.040757618018452263e-04 2.834725592194734523e-01
5.857875753353548598e-01 1.083184128645410804e-01 3.477400498131751339e-01
-5.518433282085493524e-02 2.548362210565059943e-03 2.612491212662501616e-01
-3.755233275005751548e-01 -8.814399732412110666e-03 -1.518273638752237475e-01
-2.006601621101996025e-01 6.546534970774918472e-02 -5.330791217545450822e-01
-1.628763376566969012e-01 -2.078776863798072888e-02 2.963183813554863266e-01
-1.080617437840890871e-01 2.387705500323108847e-03 1.777792263867351286e-01
6.634883827227036068e-01 1.105370698993711348e-01 4.527253052097971464e-01
-3.876431101821111169e-01 -5.690680061432681902e-02 2.573360103964804635e-01
-3.689460748503555765e-01 3.110216552891585315e-02 -4.970229126932579344e-01
1.314070396207219285e-02 -1.863150255366948296e-02 5.597195437257419526e-01
-3.239405288469130451e-01 -2.828852566147366590e-02 1.045587690876016856e-01
5.894322373578095298e-02 9.882377113714907457e-02 -4.135579854010915102e-01
2.675019742011526258e-01 2.232504245747137656e-02 6.031055212782260311e-01
-1.769503259311067389e-01 4.066536477711406999e-02 -2.739800593718507149e-01
-2.070830812493268391e-01 4.760088841686408584e-02 -3.841750463423490025e-01
-3.582408070775903175e-01 -1.862544509206652196e-02 -3.663707139606075386e-02
3.722005221742754055e-01 9.134106440302731944e-02 1.561080443844119758e-01
2.941833574723573541e-01 1.066512594782130091e-01 -1.056109797559580954e-01
-3.427108425528055391e-01 -4.441667033346100024e-02 2.181625390817594767e-01
2.292045384090853621e-01 1.005936843057825131e-01 -1.559550429306809649e-01
5.621570906646395915e-01 1.582804114443114030e-01 -1.354879354834017668e-01
-3.887117508880150868e-02 8.242240361318121933e-02 -4.244349559651768855e-01
-6.194755815513337538e-01 -1.830145429541917695e-02 -4.589719661027399367e-01
2.810546122550329207e-01 1.137106676856584342e-01 -1.896078776276255984e-01
-3.978555887784243628e-02 9.318561420225659336e-03 2.256345402149213253e-01
-7.803733115536765075e-01 -1.031517340014939110e-01 3.891296688737173187e-02
-1.604577863847109764e-01 -1.365949987965470874e-02 2.366710255799859275e-01
8.325202277876917467e-01 1.835098176436434081e-01 7.375923023281591440e-02
7.971118071562718344e-01 1.448039696309119939e-01 3.618719753849993781e-01
1.305715696200643872e-01 9.395986122863027312e-02 -2.551995324412947297e-01
-3.722344217454803816e-01 2.779277341387176650e-02 -4.728078507225626503e-01
-8.061238560343191306e-01 -7.494283360413989126e-02 -2.538446689009385415e-01
5.808144229309794015e-01 7.081875478119235845e-02 6.739705216181316461e-01
5.951577874132099044e-01 1.293249753439899841e-01 1.755642843650448703e-01
1.908607554593270139e-01 5.331660555290743814e-02 2.038356409313748785e-01
-6.534687088676253974e-02 8.181332219253547103e-03 1.947279891928246631e-01
6.276979913700502234e-01 1.294099938680606798e-01 2.270542015832275051e-01
5.562211680426053240e-02 6.571863377286998875e-02 -1.238410798449109118e-01
-8.594026971219700384e-01 -8.065713634552933164e-02 -2.884622684436775608e-01
5.310337967422552596e-01 1.351099572884887912e-01 2.104602585362137790e-02
6.239782220124243661e-01 1.092895429602261659e-01 4.004050422917864727e-01
-6.667409394425631852e-01 -7.477066326076940717e-02 -3.158124385537784684e-02
2.487090422521315292e-01 7.828688973922924565e-02 7.417124880958465838e-02
-4.203992166094916438e-01 -2.488808827874545646e-02 -8.062492255022925269e-02
1.608996343060330736e-01 3.995015202912598207e-02 2.748575147984281819e-01
1.995154576822628645e-01 2.991916261122530563e-02 4.262615254587092117e-01
9.883802802040229096e-01 2.079513612331460592e-01 1.061782191658581925e-01
3.311360808521951471e-01 3.055856417697000449e-02 6.318973553204041416e-01
-3.617643053444951629e-01 2.550779039911179116e-02 -4.356317794201371441e-01
3.308897517381673148e-01 1.309059803765517394e-01 -2.628440500752637354e-01
4.753958689675875093e-01 1.193574350848769922e-01 7.210618285265101013e-02
2.705569649220481744e-03 5.963925673173452180e-02 -1.546232450424809279e-01
1.831187905757171094e-02 8.810150952146354741e-02 -3.832349291861236185e-01
-2.017657657501046309e-01 -2.692154453026149655e-02 2.885434591774552193e-01
-6.567585766232674205e-01 -4.731925322026223936e-03 -6.397731605869656502e-01
4.245944383406388689e-01 5.636535082810906205e-02 5.519543643541294786e-01
5.025088497812817412e-01 1.206087337297630929e-01 1.044875020240992741e-01
-7.656742414961358323e-01 -8.570549656551106066e-02 -9.297522442507884233e-02
-5.399009332524266069e-01 -5.473923869276981630e-02 -6.452650115173579753e-03
2.667006417121249862e-01 1.913174867388805003e-02 6.302790912609370633e-01
-6.011361980189305898e-01 -7.544489711552447575e-02 7.976503866313862379e-02
-7.321134790255607872e-01 -5.796844779841484746e-02 -2.862952581231658078e-01
5.289993329282071111e-01 1.203388257217116036e-01 1.494270654183614822e-01
-6.677280442758012358e-01 -9.013055797768497468e-02 1.037288193688824939e-01
2.521546238212777485e-02 3.456182297696592381e-02 1.050219092244317892e-01
1.896421741448530984e-01 5.000063609713243512e-02 2.314326085566786040e-01
-2.193920086019952032e-01 1.126905326571838242e-02 -8.013135776606059024e-02
1.609920586996148595e-01 5.939203545641914828e-02 1.017302167692113735e-01
3.066422316306977591e-01 1.220965473501236936e-01 -2.232626509460791664e-01
2.023568132137530118e-01 5.501454064905719060e-02 2.071612585571256104e-01
-7.742897761417869562e-01 -6.087603109358719761e-02 -3.281011144712427940e-01
6.083168535324108284e-01 1.256433415863653369e-01 2.295054670531464225e-01
-1.498128374328999424e-01 4.261650566321117939e-02 -2.477967306350689347e-01
7.936943650932174465e-01 1.549062679141722521e-01 2.663481280596234346e-01
-5.517358820687475740e-01 -6.867621457938816176e-02 9.875799284228889419e-02
3.693579262254678697e-01 1.329123636251512974e-01 -2.189601386461759724e-01
-3.712260353613497377e-01 -1.869413646382530117e-02 -5.687437853524936193e-02
-3.405171009981294294e-01 -1.982556228345589561e-02 2.516745403148351427e-03
-1.300566195430611083e-01 2.793309018186544354e-02 -8.520960983794460819e-02
-2.905406887222435897e-01 4.733796978546620654e-03 -1.361246263205996287e-01
-5.081772478005892602e-01 -6.052856713430030539e-02 9.608132821568068915e-02
1.736932402086754090e-01 5.956255891413251430e-02 1.206038708628853762e-01
2.320426860936429525e-01 1.030825515632128805e-02 6.532704595331562114e-01
2.674608319972213155e-01 3.168945983496355978e-02 5.195791346304011737e-01
3.634887005437683477e-02 5.984822130275014446e-02 -1.024668276966993613e-01
-3.413885224921622136e-02 -8.985620298514421234e-03 3.978370184683387434e-01
5.614303491081174685e-02 9.934408668248566332e-02 -4.226913725652333698e-01
6.174127054325195818e-01 1.654572206656216293e-01 -1.107309440836838355e-01
2.511030835496239622e-01 6.970741955228536291e-02 1.544796910002980694e-01
-7.600170167316994130e-01 -8.624824833305823335e-02 -7.905452166635695832e-02
-1.517466220933672005e-01 8.091811076632986210e-02 -5.922645617515579497e-01
1.836225930803372930e-01 4.335812566683869274e-02 2.809687110542791189e-01
-4.759897681315347628e-01 -2.564533471040435306e-03 -3.688415600689147755e-01
6.139756296307810057e-01 1.169352389123204244e-01 3.162023135525268147e-01
7.216127255248451196e-04 4.136231520667146139e-02 5.084405411510049301e-03
4.362485707026421689e-01 4.850730909249514888e-02 6.407013919886278552e-01
5.295852366977790160e-01 6.726720050770759740e-02 6.233684308562438270e-01
-1.101641451700624552e-01 6.518585983787071603e-02 -3.852847251951715402e-01
1.250649754081264720e-01 -2.095337889957133663e-03 5.920504207950877396e-01
4.000955272512082272e-01 7.621797566133114987e-02 3.356816611891592639e-01
7.436655137666550175e-01 1.602155519696484842e-01 1.387011539799144766e-01
-2.419218889996511412e-01 -7.988514800251721171e-03 5.532689745702760314e-02
1.689180913721205837e-02 -8.511548936128895612e-03 4.755484035353442773e-01
-8.570725152508590350e-02 -2.080394519691337527e-02 4.203678314982355335e-01
-6.814327604322575338e-01 -5.232713071025213436e-02 -2.551988070197578895e-01
-2.589124805262972839e-01 5.035792844178645089e-02 -4.919661773578140052e-01
5.197585427818781634e-01 4.692124171490522078e-02 7.889236263762284818e-01
1.392680884740991887e-01 1.084185866558960987e-01 -3.700994343704548939e-01
-1.656498839119616706e-01 1.968609841370011146e-02 -6.885807393342958937e-02
-2.750531457180633299e-01 2.653595019964633331e-02 -3.055688986369321514e-01
5.404191271951849229e-01 1.202038755124075209e-01 1.689658137869542165e-01
4.182317412704867898e-01 1.042884587833353277e-01 1.146237222469799200e-01
7.291608987008190157e-01 1.413004690036095967e-01 2.839926478734319804e-01
2.900502750655405970e-01 6.000159611524850251e-02 3.035177171480648028e-01
1.125578593981632902e-01 4.960464750237680159e-02 1.111926902570205822e-01
1.055030025908691715e-01 -6.180984725051352768e-03 5.970543690561591621e-01
-6.461495184163777994e-01 -3.418961201574736292e-02 -3.601974015350647984e-01
-1.490375126126551042e-01 2.643969719354340164e-02 -1.023761110520491624e-01
-5.576873198340082105e-01 -5.300027229611016522e-02 -5.050959992838487123e-02
-7.964867747280115484e-01 -1.012983908765072577e-01 -3.477262985014694437e-03
-3.372086324619902320e-01 1.821251123451920681e-02 -3.311852238493618872e-01
-1.931215013720392615e-01 1.041530889936561483e-02 -3.034155620104714984e-02
6.722403827868644877e-02 5.001279969020986510e-02 3.476552988288462293e-02
-1.765252986304962080e-01 -1.482699614529766480e-02 2.212777934100758070e-01
-2.538370607024406089e-01 -1.889321772888825565e-02 1.333836128881645267e-01
-2.780794612286388579e-01 -4.840882564486469891e-02 3.575169218437642127e-01
4.811696851691197319e-01 9.745368218578315256e-02 2.765939143011575396e-01
3.612406118957739443e-01 3.833646685817712618e-02 6.109136791910263486e-01
-2.230512229817479264e-01 6.365825807243789825e-02 -5.529252651651306305e-01
-7.350810499083120231e-01 -9.739222130048846848e-02 6.030411266600464032e-02
-3.359143961395392730e-01 3.427579771679253179e-02 -4.722711223525787871e-01
1.262801881356492295e-01 9.663997829534239081e-02 -2.859764498747111583e-01
2.123022630573619673e-01 6.368884354686715765e-02 1.458203216943834146e-01
-1.036251766474624025e-01 -1.963123682681955015e-03 2.236794729278278326e-01
-9.003827856590602696e-01 -1.105772371563096546e-01 -8.759851245319950908e-02
-1.866669405116239688e-01 2.859945533044694344e-02 -1.820440189627419159e-01
-5.039496627935932116e-01 3.653398615364487900e-02 -7.622002846182506230e-01
7.002632732722351150e-02 7.238013306680071701e-02 -1.600837778234712183e-01
4.930463093594543156e-01 7.351941012108527407e-02 5.089775120772779271e-01
-7.498505269630344194e-02 8.339496947637403885e-05 2.514254297113167058e-01
5.764316070353959348e-02 4.635690241122983335e-02 5.196531894104983867e-02
1.553630456984013697e-01 8.536714428209427052e-02 -1.388109550006219328e-01
-5.012961847876706845e-02 2.385834474842580405e-02 7.944001781293731634e-02
2.926915698498655516e-01 1.354012794244752876e-02 7.218462928292436187e-01
7.704451839290088477e-01 1.608876254110806758e-01 1.757096403693081954e-01
-4.928357445686546573e-02 1.450949876682794924e-02 1.641200018594152488e-01
-2.293400918436483416e-01 3.730296109960056818e-03 -2.891519544400638145e-02
-2.153684503591824506e-01 5.916772075824977550e-02 -5.005676539782214496e-01
-1.477501967833308449e-01 3.774544725163407610e-02 -2.010715995598802430e-01
2.813099830394898415e-01 5.814705665752092217e-02 3.060125851972313460e-01
-6.657823902263052540e-01 -8.470424487282328038e-03 -6.209427419683600791e-01
-6.493403329065025043e-01 -6.428645671547708607e-02 -9.708268876774216183e-02
-2.293929994999470978e-01 5.526318352622378721e-02 -4.882867707868897011e-01
-5.304742571092933012e-01 1.275479469340849367e-02 -5.928571282717374213e-01
4.762155545184560412e-01 7.129512469712458167e-02 5.017774205343598082e-01
3.903733941483021330e-01 1.286375062471716013e-01 -1.471173505207382104e-01
4.500826884627230351e-01 4.369801991641762695e-02 7.057766840599454250e-01
-2.810892288825891927e-01 -2.461746547022716086e-02 1.406439483119460432e-01
1.627916386760108747e-01 1.175854645294967388e-01 -4.140289894734744403e-01
-6.951229931959078678e-01 -3.198129469772174188e-02 -4.585124756202499374e-01
4.915903908159069413e-01 6.485202511457788255e-02 5.838878698654843546e-01
-7.104958657920483756e-01 -9.755188158500742446e-02 1.012018816065501509e-01
8.296390352476362695e-01 1.732250075896891728e-01 1.607964136093308349e-01
-1.204903198251390112e-01 2.610111600295083115e-02 -5.352217615096882541e-02
-4.812965106659395365e-01 2.364639002135588558e-02 -6.109669806989481700e-01
8.284623002747251164e-01 1.693659926364848023e-01 1.933004616554786226e-01
-3.441395851779615600e-01 2.313669929246672460e-02 -3.862005980263427674e-01
2.730749951702521883e-01 1.065588000529595486e-01 -1.386792310445972010e-01
-5.308809023967727692e-01 -4.772756606277409053e-02 -5.446128607763137813e-02
-1.000000000000000000e+00 -1.299635663486084780e-01 -7.476668685182512319e-02
1.026257691319953230e-01 6.436905850651454541e-02 -3.634235348544922334e-02
-2.053984821002441952e-01 -9.956680929493968643e-03 1.315113780039209590e-01
-5.260441865879558199e-01 2.075861443875224449e-02 -6.570780653729262344e-01
2.342657407059703933e-01 1.015725746077102698e-01 -1.565529618977907489e-01
-8.037767033100358394e-02 7.102328544368598229e-02 -3.894845899286429880e-01
4.720075880593377349e-02 -5.704483535903114196e-03 4.991955135054639836e-01
2.766770041007445835e-01 7.117276809320534359e-02 1.824821245942921388e-01
9.001322331638557106e-01 1.816977145561253781e-01 1.984696975418977771e-01
-5.591199807425749624e-01 -1.124151966156164591e-02 -4.249846215885219602e-01
1.820978227725516263e-01 1.022524884225128883e-01 -2.463752519248585682e-01
-7.270629055365271931e-01 -9.351069782998443214e-02 3.858425428055662493e-02
8.050123005703926915e-02 -1.031550217353596581e-02 5.937595513011256765e-01
-9.362380311587507886e-02 4.419941369381984175e-02 -1.716853905013213666e-01
-2.221542557940133222e-01 8.001994627659657008e-03 -5.544886936286372303e-02
-3.159550550673022595e-01 4.453138471487221722e-02 -5.316266064751955511e-01
1.228425492960792537e-01 1.130934248833636996e-01 -4.381373062418226771e-01
-4.386015390246912893e-01 1.836414167952313270e-02 -4.953364858461031250e-01
3.831686313569343527e-01 1.227476885044435084e-01 -1.061925857706152998e-01
8.476151949471892599e-02 -5.163553481448553313e-03 5.546832957982654744e-01
-2.135527730201230989e-01 -1.040112898440745566e-03 3.894970254073110150e-02
-5.239062603615429747e-01 -2.221049992053205843e-02 -2.706833026559337108e-01
-1.883946266148991688e-01 8.088689040116309181e-02 -6.508295773753769442e-01
-5.115847601819876189e-01 -6.892425262460062652e-02 1.654366206839152087e-01
-4.999711635139183485e-01 -3.964873496714040740e-02 -7.683411658183483817e-02
-1.324215587325067167e-01 2.859558689105266144e-02 -9.491133454522680812e-02
1.104702886089252989e-01 2.846418953422606007e-02 2.962550521011373950e-01
1.973841821744073272e-02 4.440520265986245413e-02 8.498706436840178582e-03
-3.644686919758619026e-01 -1.500557124175714956e-02 -7.889888181909932019e-02
1.665905269174285108e-01 2.074120284203516754e-02 4.551946755020743751e-01
-2.484684394399845273e-02 8.345071644208135186e-02 -4.110818522492213356e-01
6.145732373707739615e-01 9.571465695456615741e-02 5.062901929259001621e-01
-1.877317794237483850e-01 4.176031191768705964e-02 -3.010498346422780247e-01
-2.190879090918409766e-01 8.025228231176151708e-03 -5.073250949174967772e-02
5.942332034635045002e-02 9.964089362736048422e-03 3.791743840522300291e-01
4.467441564257936815e-01 5.136174870421450489e-02 6.321132768751624997e-01
2.247085860163476612e-01 1.109237626820929884e-01 -2.552406717109366174e-01
-6.705750736743304463e-01 -4.311198784704975417e-02 -3.198952593878578443e-01
-1.403723737460467469e-01 5.086908544174911090e-02 -3.061898848474574053e-01
-4.756954464269582683e-01 -1.962771929899606929e-02 -2.162934210644840149e-01
-2.081057812106334309e-02 3.619698363300783307e-03 3.068924977567178414e-01
3.364657878675836322e-01 3.159368857734870528e-02 6.312293704007868600e-01
-2.840794019309494933e-01 3.912603626554913422e-02 -4.322708436623141082e-01
-1.875217356728309803e-01 -7.641924945003947083e-03 1.395846303107735609e-01
-6.574457737882396513e-01 -4.344048169683716737e-02 -2.958867145619157868e-01
-2.316396435014859145e-01 -8.931424249174899771e-03 8.024009236794528432e-02
-6.116536845943204570e-01 -1.167221944621780853e-02 -5.054958911112866771e-01
6.064992826535091641e-01 8.154580550943910100e-02 6.196062041944423449e-01
-7.494715503323103878e-01 -8.955388089666048435e-02 -3.266093140742901829e-02
-3.991409099170501462e-01 3.922996317556801810e-02 -6.179437136641863226e-01
-4.598639803196692966e-01 -9.833318844907779771e-03 -2.781664368985725111e-01
-8.869511824772622344e-01 -1.006054074922086428e-01 -1.549061658349812631e-01
-4.894013136174987788e-01 1.062650298185825216e-02 -5.079406404380413242e-01
-3.979380568045286504e-01 4.532222955421958549e-02 -6.703096687338992998e-01
-4.144097502288192070e-01 4.277356065452281308e-02 -6.740421729519252558e-01
-8.980772469518315537e-01 -9.222889277613012526e-02 -2.474261980162276164e-01
5.930908521467622707e-01 1.661347848336964528e-01 -1.558217162079083284e-01
-4.441810582195467316e-01 -6.530266486975326579e-02 2.413848840829388442e-01
5.247626296262500878e-01 4.466523004534398572e-02 8.170650500480122203e-01
7.053467950011403920e-01 1.058085803514694501e-01 5.620772195157873741e-01
4.104241104725327854e-02 7.392004944133732935e-02 -2.203458250030141674e-01
-2.698297753237185320e-02 3.288809725908488357e-02 3.612741372408550394e-02
-3.804170798956119787e-02 8.606471599421625096e-02 -4.555652282830766620e-01
2.689540616892293068e-01 1.095072700514325287e-01 -1.715741657242371987e-01
1.722599933630665492e-01 6.326161290451129404e-02 8.533479969994059444e-02
-6.710841124569898453e-01 -3.808855998507345436e-02 -3.654838671580419862e-01
6.462284019500502685e-01 1.155623175161699795e-01 3.802246037961669600e-01
-3.239864432552040374e-01 -5.476589426596659843e-02 3.404644747976897090e-01
3.027848176116476053e-01 1.831977079634518682e-02 6.954538052197873910e-01
9.862264106947553621e-01 2.095673765442349623e-01 8.831716481791493378e-02
5.978232757144952281e-01 9.137872954368064793e-02 5.180398252513345181e-01
4.326717683531247083e-01 8.992208612202066964e-02 2.658493458312667923e-01
-5.692313886303239645e-01 2.086951103397110402e-02 -7.274092529375624228e-01
-4.001019310955452601e-01 4.718454580774510132e-02 -6.903819431262147033e-01
4.636727385270227875e-01 5.387087307344660264e-02 6.369318173469314948e-01
-3.980718380266886486e-02 -2.517842027350072551e-02 5.330540111678594428e-01
6.171446667370383832e-01 1.609483520961831338e-01 -7.097604537033858074e-02
-5.185070564013418704e-01 -2.324293896022761735e-02 -2.528125511780083268e-01
8.487203676116867879e-01 1.742445107632826229e-01 1.823477243494928124e-01
-4.904688559209301468e-01 2.529298710779611520e-02 -6.403696953734799857e-01
-1.937529522222075640e-01 -3.056123899511857533e-02 3.338478620972227806e-01
5.971188648708405239e-03 6.768396963784287235e-02 -2.210783247281224440e-01
3.292846024523077286e-01 6.944468188673841302e-02 2.823522119485062931e-01
5.251377709875330035e-01 1.458675251336801204e-01 -8.429760569178246232e-02
1.599782797501461407e-01 7.705728218581353768e-03 5.607564377331299976e-01
1.629803883466742487e-01 8.568401966639765943e-02 -1.294044442179196619e-01
-3.816202723248606210e-01 1.086762215678157770e-02 -3.370327539590726729e-01
-1.204215277059478700e-01 5.612527337194859328e-02 -3.210018873940065354e-01
5.968984344632748407e-01 8.630184287769185336e-02 5.618025984261576511e-01
-1.850342070815131357e-01 1.842353879756579785e-03 5.905009781999141782e-02
7.062616512511172839e-01 1.775141691386911413e-01 -7.552959093748667918e-02
-4.483717245888563241e-02 8.395687660768078042e-02 -4.476901453212998594e-01
-1.355249839534375944e-01 5.314668407142929957e-02 -3.187058404252348098e-01
-1.529615999116972214e-01 1.146594158222808552e-02 2.477677145345909271e-02
-7.118538851826768099e-02 2.854694994525829380e-03 2.328270992521391525e-01
-5.812818386389511094e-01 1.021507678840747127e-02 -6.518002633991389905e-01
-4.739561725019394989e-01 1.181771949262873725e-02 -4.937581148358757277e-01
-5.845550537363742860e-01 1.171219950162943543e-02 -6.703989468813357222e-01
-6.692816603916441898e-02 8.473875444032165360e-02 -4.901286692343289064e-01
-2.750912638140824984e-01 2.098638350162869513e-03 -8.783267146899630118e-02
7.453854636406362366e-02 5.160253305815524008e-03 4.462580656719246086e-01
-4.891762015238166894e-01 6.219660338544758318e-03 -4.683032278569352336e-01
-8.073356882480488272e-02 -1.816684842406376477e-03 2.591298718283979174e-01
-3.072413702387472370e-02 3.050428651379807725e-03 2.960485683293227477e-01
7.996102378280457723e-02 6.894332880335303504e-02 -1.135017931216706077e-01
-7.116603167649186990e-01 -9.286590552818561883e-02 5.756845969061191726e-02
-1.834696146872865849e-02 8.575220487332774547e-03 2.666820949789912021e-01
-7.911623044485911471e-01 -6.178246237843638272e-02 -3.471136479230200189e-01
-3.067829527009613977e-01 5.721690485004599092e-02 -6.299592114313846691e-01
1.690940687663164757e-02 -1.792816134298133926e-02 5.595021743622431432e-01
5.207312181458489952e-01 1.352437403107725200e-01 3.311519039560670893e-03
6.994775650884451634e-01 1.533332332225957051e-01 1.290901339783804558e-01
3.243107629605070930e-01 1.047101729795699987e-01 -3.993748098747931102e-02
-3.046194923572891899e-01 -3.096199576538585796e-02 1.594085643850516043e-01
-1.963400862321337467e-02 2.089960999078857226e-02 1.547745033669880865e-01
1.239332347191395289e-01 5.043413067750338388e-03 5.266091744460849045e-01
5.902571048980945895e-02 1.425460455551034143e-02 3.402967711438193432e-01
4.931083282135505508e-01 1.548318190907574665e-01 -2.156193839852789396e-01
2.312495413114174503e-01 9.386481300580237774e-02 -9.270048268524298807e-02
8.961117197186352357e-01 1.985795764559123155e-01 4.155470861023304735e-02
-1.097823398501900638e-01 5.764619033017067545e-02 -3.174744155076980046e-01
1.448008726259764622e-01 3.202525453605644529e-02 3.196394152342861839e-01
-8.850125661550208023e-02 -2.732097664297309519e-02 4.739646962428792909e-01
-4.468856539373192160e-01 4.822815700428645380e-02 -7.748006399335484184e-01
2.566602166677608432e-01 5.120849438789071978e-02 3.282739970915578565e-01
3.926343574297153638e-01 7.068469144105322954e-02 3.730171268001120088e-01
5.297748070519349151e-01 1.579008770602179923e-01 -1.840994192280899777e-01
5.105046512998722141e-01 6.120105332364154244e-02 6.467965112912755776e-01
1.671578248952466650e-01 4.160153086623124413e-02 2.701879694224172401e-01
-5.640806226488851438e-01 3.223374888350977619e-03 -5.618679018263977865e-01
-1.142048234312092875e-01 -3.175827785066565739e-02 4.722416128958037973e-01
1.613811911299990187e-01 2.512317442010977321e-03 6.092952493228549482e-01
-1.757889278521893306e-01 3.019750851857097920e-02 -1.788205582486891432e-01
9.593598087263936758e-02 1.308343179264910908e-02 4.099992129357071247e-01
6.085811957406689343e-01 1.652598441158548426e-01 -1.231519950728245660e-01
7.429373777303814874e-01 1.659001272278871897e-01 8.686828313409851454e-02
6.534440387618198898e-01 1.338502712039076892e-01 2.288189684414001501e-01
-5.350753988766626668e-01 -1.172189383123725843e-02 -3.820965007340320074e-01
-6.007859511451156820e-01 3.131451169228025629e-03 -6.199839403829627837e-01
5.311222712028270676e-01 1.286714681519275094e-01 7.857108860489005198e-02
-5.330179252571622117e-02 4.286484989558501241e-02 -9.504872217897257503e-02
-5.473955992030252737e-01 2.229107478629507692e-03 -5.262164639949266087e-01
-5.371032287254000614e-01 3.805055199762159834e-02 -8.289491498306923445e-01
-4.257718005444285914e-01 -1.306534273611626752e-02 -1.946214897188452420e-01
-8.877851801652064667e-02 4.115145389051428487e-02 -1.367407101002087177e-01
-6.540268352238455263e-01 -1.708244146930564325e-02 -5.253130657767429712e-01
-4.263887621188552357e-01 -1.614140300702126760e-02 -1.681967307522987398e-01
-8.760765949714437173e-02 7.363608183711728428e-02 -4.243798393624390042e-01
-5.141691286063070354e-01 -4.941378817998124534e-02 -1.259985380679678503e-02
2.054860391954035082e-01 8.834264483111332888e-02 -8.485092824774319309e-02
-4.587650436665043907e-01 -2.485148114136118830e-02 -1.425526440433508291e-01
-7.681726402649091678e-01 -7.224591294778738571e-02 -2.169452152629630370e-01
7.247648699596327404e-01 1.301923500752483476e-01 3.759352959690050455e-01
8.731470035586152978e-02 3.316055027281206852e-02 2.172193681045767322e-01
-1.791519535368975569e-01 4.186608938258979534e-02 -2.882165191961528761e-01
-8.180471545600512817e-01 -6.687871099738600111e-02 -3.448605735966329688e-01
-4.617944418804970641e-01 4.398365523212594691e-02 -7.609095878432144966e-01
5.018783584474471038e-01 1.544725323187707000e-01 -1.983357871520507465e-01
6.374080642425644649e-01 1.664200260833463563e-01 -8.720672329001569190e-02
-1.604045052695130813e-01 4.631150245390969200e-02 -2.977347103788965943e-01
-5.838315719454858499e-01 -4.965465696678183962e-04 -5.604269063099133197e-01
1.278845224132509409e-02 -9.061288054662953659e-03 4.738594632774678073e-01
-9.925030443312685136e-02 -2.950927364070453363e-02 4.762088510826986143e-01
6.669941170647878392e-01 1.435688746545808747e-01 1.639584201705016619e-01
3.714515434596133980e-01 9.359943622602401314e-02 1.347777303887472689e-01
5.436786362576361276e-01 9.362819305171389550e-02 4.110550402404964387e-01
-4.094873639919575092e-01 1.515691158246751033e-02 -4.200053648590741928e-01
4.255277471516932253e-01 6.331138534693635245e-02 4.915464152291091349e-01
9.470240675847124354e-03 3.526912541703237230e-02 7.343702262056940600e-02
1.552860517706482202e-01 2.514001230312287033e-02 3.978394611712982032e-01
4.249287890669604106e-01 5.639035768286544681e-02 5.522683356309913139e-01
-1.266925925094216643e-01 -1.837451311548608107e-02 3.329080890141560833e-01
1.166521562872215728e-01 5.675890547330723901e-02 5.400433918965073798e-02
-2.493910111760612447e-01 3.966310748845453676e-02 -3.813606431933837526e-01
-3.173070123218406091e-01 -5.396797513101900950e-02 3.440777427858230930e-01
-7.555722237336033320e-01 -9.566192416006831511e-02 1.198153031322871445e-02
-4.989543433108259429e-01 -3.666237723346479904e-02 -1.018173756481895176e-01
6.629575440091348137e-02 1.341929919906846829e-03 4.670539518723533234e-01
4.799013246294505097e-01 5.923985865009789159e-02 6.151379207101693725e-01
-1.043265654825428906e-01 7.864877213173150639e-02 -4.958998558471927054e-01
-7.046988464287951004e-01 -5.264319207204027490e-02 -2.897387207016694499e-01
5.969430907103386863e-01 1.279577643805906717e-01 1.906160888047365998e-01
4.101297850338576634e-01 1.441997653655093803e-01 -2.540943894484152255e-01
1.664433601406544241e-02 9.373277717887260052e-02 -4.361010397251228188e-01
-8.786022055233649874e-01 -8.498010452361780265e-02 -2.807612097505931548e-01
6.210817010791196413e-01 1.485627620667804294e-01 4.573190408690427228e-02
-2.025917263189814799e-01 -1.255319055431675448e-02 1.591593795969161729e-01
5.926494831526581131e-02 1.231887581470991408e-02 3.579330730420718365e-01
7.872530407119127105e-01 1.434855644393061846e-01 3.577926891293408684e-01
-4.382312488390212035e-01 4.537524582401124967e-02 -7.354782784889117853e-01
-4.634606656429035021e-01 2.630928290586858481e-02 -6.060621696009522719e-01
1.128314854478912610e-01 4.540123293721045478e-02 1.490949466529245815e-01
-3.683804919477888240e-01 6.764517432402668631e-03 -2.792056156706589354e-01
6.332877913852924534e-01 7.870378113453124769e-02 6.879482629147286588e-01
1.050923596975389396e-01 1.590920958897200366e-02 3.995162705448982443e-01
5.591062078652209166e-01 5.963740240260520520e-02 7.387688346647821591e-01
4.013452077739462220e-01 4.863025562349789638e-02 5.835636197431062211e-01
6.413007332163678242e-02 5.866494775346870610e-02 -4.731447448707915004e-02
9.078123575645189944e-03 1.981239087234831428e-02 2.105655026584731249e-01
-8.578054300803077403e-01 -8.468418933715778085e-02 -2.500065513360154590e-01
-2.170246253391950320e-01 -3.140129847179676942e-02 3.039691083659933901e-01
9.398057601877268796e-02 5.696545978597541970e-02 1.576117404806388553e-02
-1.794918141692798952e-01 4.796449316929358997e-02 -3.431142068924730171e-01
-3.357483186247086498e-02 9.305526813143010553e-04 3.103647819024729082e-01
9.568577109363790578e-02 6.987556650644623224e-02 -9.656217497387779847e-02
-6.642672976019005082e-01 -4.813392078416932340e-02 -2.650093277692359139e-01
-1.915452270974091209e-01 8.094674502193720256e-02 -6.564217413677020385e-01
1.077393358475164792e-01 5.015266132766828776e-03 5.008585659301485471e-01
-6.434642587546786086e-01 -3.682100042393397082e-02 -3.324336211941223973e-01
-4.663637328199592424e-01 4.884099619244701429e-02 -8.115372240947745786e-01
6.850982782172667651e-01 1.689280077214185272e-01 -3.298608887959311037e-02
-6.641316601388486118e-01 -8.423628352015098686e-02 5.697060020317203793e-02
-6.916197075885391898e-01 -9.303883661916854952e-02 9.128758246762176676e-02
-4.672822722924926397e-01 -1.763416826406926513e-02 -2.205524606379500874e-01
3.693914378507499041e-01 3.017096110845489398e-02 6.967759520191819655e-01
4.571492339306721941e-01 6.379075377225131016e-02 5.380465675851194840e-01
5.101981390712232445e-01 7.260951980381874504e-02 5.446264592750396094e-01
3.935778335667960426e-01 1.171082534923332114e-01 -3.921778214911202792e-02
4.318480104421476007e-01 6.603140099965418286e-02 4.774523151017447398e-01
-5.371077623850019078e-01 1.367913921949104154e-02 -6.117463235377331721e-01
-3.710277200066453007e-01 2.098015575936145946e-02 -4.101529059775781971e-01
1.413431116030665477e-03 4.407767941672769210e-03 3.355524469061521020e-01
-4.231875330592894113e-01 -5.535619620748510883e-02 1.864449364319339664e-01
5.222487255778613946e-01 5.301470315949182582e-02 7.386140000651685300e-01
9.928801336853548820e-02 5.406464316963378869e-02 5.013648863963617724e-02
7.830969891928716287e-01 1.876995236100026110e-01 -4.293711706950867346e-02
1.990309728133326239e-01 8.286259806489801316e-02 -4.637450772915365643e-02
6.771572158517233375e-02 4.814579539600103569e-02 5.219466040647456617e-02
8.182140541918862808e-02 1.079811505992276099e-01 -4.584391113243977967e-01
3.335342277210356920e-01 6.182962729990004735e-02 3.570446924329432337e-01
1.103831085256896938e-01 1.960597838842326884e-02 3.750638394338993153e-01
7.743505087555110356e-01 1.481535460393219317e-01 2.954725856441776655e-01
-6.892021591468773245e-01 -4.859834767653876259e-02 -3.009063764048408585e-01
4.487734648008803173e-01 1.447425741083026296e-01 -1.968845797119840590e-01
-4.620330092574128078e-01 -1.816180521149444657e-02 -2.074215057001161377e-01
4.105821375686964925e-01 1.000116175080494607e-01 1.404585900502187124e-01
-4.095215443545698886e-01 -1.199325074095487602e-02 -1.780845476070224698e-01
8.482498868735963704e-01 1.941844770776582907e-01 3.877445465294226089e-03
8.601898636678072529e-01 1.596254054732303418e-01 3.310562419496265174e-01
-1.382954748866049022e-01 -2.610677203002034763e-02 3.831918338092954457e-01
-5.369061460671328279e-01 3.556922147205360957e-02 -8.065178602561849930e-01
-4.970547662037955727e-01 -1.724172336875648762e-02 -2.718538402022509515e-01
-2.643767160167811436e-01 3.410137250890005970e-03 -8.231776164313102384e-02
-7.524549292355368069e-01 -6.961992527132798703e-02 -2.151124337495590455e-01
8.077243699785314757e-01 1.585793817667287553e-01 2.561385646133736427e-01
1.383895573614634666e-01 1.067041087621488221e-01 -3.562297569920620521e-01
3.112497417841019742e-01 1.952802129006338608e-02 6.982768447521403576e-01
2.976442645418463095e-02 1.771945087972682381e-02 2.624334435462098436e-01
3.652162418743035155e-01 6.653326330630987551e-02 3.659932639443901903e-01
3.943353072608931087e-01 9.393517518406228894e-02 1.685283982253785451e-01
7.779139947918571885e-01 1.454471437806888479e-01 3.253150363513561127e-01
5.159219343149819004e-01 1.038493418152496850e-01 2.753920053839825077e-01
-1.247249499464861688e-01 2.847783667190955520e-02 -8.150395267275063749e-02
5.730177701932569478e-01 1.603132828964381473e-01 -1.361676212293320420e-01
-4.277282963224737222e-01 -1.284933864079812645e-02 -1.996880405729370145e-01
1.546246309287366838e-01 7.115692123178912754e-02 -1.334803016413718679e-02
-4.525393779295575625e-01 3.552509847562946438e-02 -6.706624976329609300e-01
-7.882015348864689352e-01 -5.893227951509714263e-02 -3.677619786921231815e-01
7.782233058276096793e-01 1.812285219688723747e-01 6.910305957806368339e-03
-1.524100950038817792e-01 7.609514518957773144e-02 -5.503451973446047418e-01
-2.659373328205280052e-01 1.466426327076062429e-02 -1.851258874363285456e-01
-4.126997798823630603e-01 2.117175371924038749e-02 -4.787705809350931707e-01
6.433195824644537542e-01 8.693209210961082289e-02 6.307208594254239964e-01
-2.316924992010128692e-01 -4.207957285425482225e-02 3.755879493639460165e-01
5.189172312764779305e-01 5.909215376038193940e-02 6.790995900408238750e-01
3.563092824018799232e-01 1.002114989610949358e-01 5.153482834477537272e-02
1.286179888574178441e-02 6.322841683722509043e-02 -1.703044353927303523e-01
8.903534768635883445e-01 1.890027217731490017e-01 1.176627543369572343e-01
7.539393716920609334e-01 1.506406222828463315e-01 2.405337226853816457e-01
2.100844568661661416e-01 4.740418938987716463e-02 2.873962437910907441e-01
-5.500489163546251614e-02 4.958063828309331594e-02 -1.576377088132477622e-01
5.642340459660681595e-02 6.504698615358757430e-02 -1.165684488958025622e-01
2.171465422574428983e-01 6.245423780579413553e-03 6.655626768434151908e-01
5.293716513568408333e-01 7.507398338448474651e-02 5.534475741284310413e-01
4.327303154491027870e-01 1.306159152304178228e-01 -9.674021608044240661e-02
3.619094534164269961e-01 3.428454688052592209e-02 6.481003119983422822e-01
1.548938792835206912e-01 9.268198306620184512e-02 -2.047577317936830898e-01
8.186298168516042972e-01 1.505807866630297920e-01 3.449361589347864077e-01
4.665036227237756017e-01 9.984407617783540301e-02 2.317412162408682141e-01
2.940648890186071118e-01 7.972492340608894335e-02 1.341796512578410372e-01
1.299692863133271870e-01 2.254079071617702632e-03 5.611607881948200705e-01
-6.417051255711971880e-01 -7.897096910048523322e-02 4.605230651354136340e-02
6.110380777967444610e-01 1.155208026279287564e-01 3.240918386220292269e-01
4.363715797306160771e-01 6.191347252035992593e-02 5.214165287560699191e-01
4.912524531264129690e-01 4.950395810684419390e-02 7.201348432554915968e-01
6.076881891638769018e-01 9.514650348477521336e-02 5.002989934900409219e-01
1.242538892914129278e-01 -4.101350691013904218e-03 6.086266936614961320e-01
-8.908149641939663299e-01 -1.033315742166678319e-01 -1.368130349859716655e-01
-5.238556909807488005e-01 2.161132813963238461e-02 -6.611639503052176847e-01
-1.179935951091508894e-01 4.561777645193398900e-02 -2.234554986934813581e-01
-8.251465929850452241e-01 -7.766659029108168022e-02 -2.601127451804496338e-01
4.011361907654966141e-01 1.460754818774809560e-01 -2.852521213743355877e-01
-7.350715507196923237e-01 -5.147703152098177110e-02 -3.488995554787928111e-01
-7.235118806661196000e-01 -5.184886689169245638e-02 -3.270249799240255162e-01
-5.902612542038715784e-03 9.171740443245036956e-02 -4.543411771812048694e-01
5.032998583426825379e-01 1.030445785713254570e-01 2.622980250109754330e-01
-5.246372634666234269e-01 5.063602559253884035e-03 -5.149373402652108744e-01
6.692222137981787000e-01 1.046556495914653800e-01 5.143498687520472457e-01
-2.599915495248502628e-01 5.459832389077298731e-02 -5.314912719645077388e-01
5.763034294851144823e-01 -1.979693301642244246e-02 7.238354930808629240e-01
8.648086209214417286e-01 1.121340858015436176e-01 1.123451273433613042e-02
7.779820676041567795e-01 5.249227721664392193e-02 4.033802305302349178e-01
2.953784978078335954e-01 -3.446131870592699514e-02 4.034692579735969509e-01
-4.706939259896013028e-01 -4.296559882825575633e-02 -7.507679984192315858e-01
3.001474721335836149e-01 3.757493796862299007e-02 -2.308963270896750852e-01
2.013047397901392976e-01 -2.327345360958155834e-02 1.527094755119724756e-01
9.395605341935427957e-01 1.217783846344126786e-01 4.530392589513414919e-02
-1.856610637526127372e-01 -1.133523027159379359e-01 3.342115175221555545e-01
-1.483549785733247195e-01 -2.129781306351804029e-02 -4.263237999954617719e-01
4.467968722769141143e-01 -3.065569821218907393e-02 6.126741104699886531e-01
-4.691594659498619091e-01 -8.533171969028162385e-02 -3.707163580861727592e-01
6.442584999902092324e-01 5.478732321248746401e-02 1.682145918716279887e-01
-2.211343361118791595e-01 -3.265111476674612684e-02 -4.419945310969078944e-01
6.065809726190215523e-01 7.192473036511587425e-02 -4.501877499074288108e-02
-5.797318283975213538e-01 -1.229529212442637132e-01 -2.129562691446202916e-01
-1.121248543695714944e-01 -1.126798601694573992e-01 4.462905840877121055e-01
8.903443065876420759e-01 1.141977602674015269e-01 3.384297802448810177e-02
-7.629106649415945407e-01 -1.723981359140548397e-01 -6.639411051639725059e-02
-5.359833593599790807e-02 1.310336538918423395e-03 -4.756743825518984226e-01
2.472312281803920320e-01 3.277815486912269427e-02 -2.731091181354002861e-01
4.960648237012277861e-01 -2.484096711114271855e-02 6.399566235529172697e-01
1.643322254330037147e-01 3.116528679826635617e-02 -3.918398619880785749e-01
1.709876307248350269e-01 -6.942857113005398983e-02 5.153885821736392536e-01
3.809070369675335854e-01 3.462834740346991402e-02 -7.496458222570304142e-02
3.747777454538113728e-01 -3.057866268807742094e-02 4.963512027181823938e-01
-1.802899020303510846e-01 -4.486684573186459912e-02 -2.675406891176224655e-01
-4.216349243745667885e-01 -1.329818575033620554e-01 1.302722789432645967e-01
5.591907076774520480e-01 1.793134775039608581e-02 3.601056011965520498e-01
-5.706875165133484806e-01 -1.486476718565395150e-01 3.056992992063426590e-02
-6.816671564930592009e-01 -1.319981372796503183e-01 -2.960116088892325026e-01
8.043100265422986617e-01 8.955371501679731949e-02 1.153433896409787884e-01
-9.249496585687136951e-01 -2.039966090061876292e-01 -4.494811330956950679e-02
-3.416734075985219943e-01 -6.257651471560622680e-02 -3.688261217994243668e-01
3.906400625306586938e-01 5.966752176862730878e-02 -2.824984372708492231e-01
-8.830835731819882684e-01 -1.870217595652912124e-01 -1.290147889633593004e-01
-6.490803527428287145e-01 -1.087353838456255606e-01 -4.510183265883015991e-01
-7.470018864626950528e-01 -1.493660045401220549e-01 -2.461242077066483347e-01
5.633974764286743264e-01 6.936438089490790104e-02 -9.153654388969982569e-02
-2.885298266508918297e-01 -9.951821249531005165e-02 4.574571041827248802e-02
3.474825606333905581e-01 -1.815201569859990760e-02 3.417727023332442493e-01
5.913890423261588536e-01 6.292303150746839102e-02 1.081615164981124602e-02
-9.830558264960334025e-01 -2.096420613885528472e-01 -8.793025947757598937e-02
-5.131106160696876639e-01 -1.220052919323502683e-01 -1.144327549076321199e-01
-5.153344805910610171e-01 -4.212264461616136574e-02 -8.299571978530640992e-01
5.578341798131468687e-01 1.000245019658145725e-02 4.285937779297839256e-01
-4.346755819537106991e-01 -7.069512928671002616e-02 -4.457964211950775080e-01
-6.716640960726251441e-02 -5.955915580431206391e-02 4.503933667663433116e-02
4.997016673621779703e-01 1.683122548837994153e-03 4.094002332675792943e-01
-7.095469754016565656e-01 -1.271685615594824181e-01 -3.838199542212346049e-01
1.598739253633940649e-01 -1.569062308630693806e-02 1.860482570026745358e-02
-3.242538200369136925e-02 -6.878878631023775669e-02 1.830797374351985918e-01
6.081447436598398371e-01 6.542651015167490203e-02 1.540742645316327264e-02
1.061499265925253815e-01 -6.205716153619763448e-02 3.455853321373035247e-01
5.374814205171697667e-02 -3.088433226001370546e-02 -1.638043251909761591e-02
-6.784286179779847048e-01 -1.048059388255408869e-01 -5.331620478880859659e-01
6.862104971911593410e-01 4.340040576661303301e-02 3.370599776703381845e-01
1.341011050572543384e-01 1.635208552861662154e-02 -3.083573752274255675e-01
4.196002717139644678e-01 2.654709406099690916e-02 5.918670881418766627e-02
-3.011102949842981436e-01 -1.085107691121746376e-01 1.056922079148062271e-01
-8.198611220199576721e-02 -1.868648008358012730e-02 -3.430332122866445732e-01
-1.772982660028265822e-01 -3.602928247341802281e-02 -3.415019602295951140e-01
-1.159098081810347597e-01 -3.295448409030684450e-02 -2.703387170697117980e-01
2.732364216609627916e-01 4.005248879893793384e-02 -2.961867741342306681e-01
5.092376545798913412e-01 -2.162267121596778141e-02 6.324243157103391910e-01
8.320711754052660947e-01 1.091432233305918292e-01 -1.467378117831958859e-02
4.901410572224668138e-01 4.231770562872883695e-02 3.189385937163412982e-02
2.946402544459158016e-02 -3.145998850691585080e-02 -5.024129210831630721e-02
3.902581583180286806e-01 -1.596200896629561966e-02 3.909362136604647153e-01
-2.822964278940944260e-01 -3.904589335657333848e-02 -4.832050048276391729e-01
1.712754491115672517e-01 -2.889584552892741909e-02 1.546029802238990392e-01
2.631177478277635928e-01 -4.881034731848402086e-02 4.795559665726603082e-01
5.061942091129801868e-01 3.181416567279184843e-02 1.512820913872734152e-01
-1.608984873233209600e-01 -1.177222815752181906e-01 4.129185586928346696e-01
5.551500214418556567e-01 -2.660298177461667066e-02 7.505297492736643372e-01
-7.639692104348082546e-01 -1.604291542560800088e-01 -1.747672413776180655e-01
1.523682436277693231e-01 1.481914762582172210e-02 -2.653647418891484366e-01
-2.361770805848013854e-01 -9.359700341668777956e-02 7.703228889806530699e-02
-4.765880570336367139e-01 -1.075510207432264220e-01 -1.846145337271479225e-01
-5.765444786642776043e-02 -1.023020133721663921e-01 4.412575858674513407e-01
4.030983612282519890e-01 2.755224193476071837e-02 2.373231121553749656e-02
9.157587873382312393e-01 1.009342200287696861e-01 1.928605640680267630e-01
3.294976696418963069e-01 -5.292231913029810109e-02 6.227857286907237944e-01
-3.376319551489355697e-01 -4.317937252041337270e-02 -5.352139717147763598e-01
-4.136096517455802035e-02 -5.139976611030026149e-02 1.375290141897290291e-02
4.739239786132781740e-01 -3.831410076451743224e-02 7.244857815070117057e-01
6.277414764521306312e-01 6.597844237402926415e-02 4.195350541127923494e-02
9.215854864356168852e-01 1.118844057060460334e-01 1.046226277324289466e-01
3.436229971064661687e-02 -3.708789070286806072e-02 7.782194334896583646e-03
4.626579146370970452e-01 2.696282403989142679e-02 1.246163149555449823e-01
-5.468125493038917817e-01 -6.572420531673262012e-02 -6.701506397137280135e-01
2.628775656863069909e-01 -2.363957292431148952e-02 2.548359095978103839e-01
-2.947930207854001505e-01 -4.838583663883790076e-02 -4.200277520265427444e-01
-4.208283033589554356e-01 -3.844182751686219673e-02 -7.110201711112531520e-01
-7.187206845013378587e-01 -1.190312061886977524e-01 -4.710737124585292479e-01
-6.976323561877353363e-01 -1.075834387261368347e-01 -5.392417597209370195e-01
-3.909585918750815292e-01 -2.916466334265910287e-02 -7.457430426593888440e-01
3.100710806948831499e-01 -5.698935502175727502e-02 6.278411838904933706e-01
-6.094614849134972756e-01 -8.643518450237845652e-02 -5.861553670481290945e-01
-8.267546462481788483e-01 -1.753758034692604884e-01 -1.423657027216942983e-01
6.629644150767731448e-02 -4.078408626858475231e-03 -2.351401340693585196e-01
2.660343887587109935e-01 -5.560187764604651584e-02 5.447685064119972553e-01
-5.590473303059421140e-01 -1.089961177708881346e-01 -3.041344918255247110e-01
-1.106798615059569058e-01 -9.200897518854440904e-02 2.643815446593548169e-01
-6.839442288405126469e-01 -1.091948527782828499e-01 -5.029019222771594633e-01
7.900838083426768854e-01 5.840227108734991762e-02 3.701383984019399054e-01
-3.873535771483660461e-01 -1.234406173549461999e-01 1.002793019995350393e-01
-1.895870259500727628e-01 -8.807531308471633347e-02 1.026268054742822539e-01
-5.948885156237690985e-01 -1.146515652388896828e-01 -3.112781529280366777e-01
2.287279442460781256e-02 -9.801260622673911571e-02 5.323255091239736947e-01
2.540285458110663752e-01 -4.222015354153135780e-02 4.062269664239679390e-01
-3.978051591153243804e-01 -3.879894696528238263e-02 -6.708706119543279556e-01
6.049810488854949764e-01 6.840985201453034237e-02 -1.626132894038653798e-02
1.337246658799500811e-02 -8.132426156606288592e-02 3.683366676650486338e-01
4.386201682656351575e-01 -2.256025017999609660e-03 3.464333615210827277e-01
-6.916547753105783958e-01 -1.081662566716995316e-01 -5.244495927979850869e-01
8.766300984039668200e-04 -4.978477032557797853e-03 -3.321585249996709677e-01
-8.519545191732726952e-01 -1.959621256115590682e-01 6.480374901156576561e-04
2.774920040033906354e-01 -2.344071516906705635e-02 2.765290237865326572e-01
1.332565171150653649e-01 2.958052583312540534e-02 -4.276118881250710047e-01
7.955345825973952900e-01 9.194852354382614112e-02 7.990952197513745414e-02
-4.073985758705809257e-01 -4.570662619397717480e-02 -6.247094643678101633e-01
5.084486367136620624e-03 -2.503186200425622232e-02 -1.466765471649185970e-01
-2.358288687501263470e-01 -9.209768198319823185e-02 6.422869404950434791e-02
-6.149910718407766153e-01 -7.661887653038076951e-02 -6.825216577597107426e-01
6.460649657878942964e-01 4.818143062676217420e-02 2.299901016976803325e-01
-7.175449002059861026e-02 -6.312638693005109825e-02 6.946549186696938938e-02
-5.690083754967952823e-01 -1.083523921169550625e-01 -3.258654825206584449e-01
-4.703185662287616142e-01 -1.444674719996933421e-01 1.544696754348889312e-01
5.032233699247710967e-02 -3.300898030230224600e-02 -2.945104160902163593e-03
6.044608508975942568e-02 -5.468742886468512532e-02 2.065190001665808961e-01
3.736102610802489732e-01 5.951464133715375637e-02 -3.084795123225130276e-01
-7.592493840387376514e-01 -1.284024578679958672e-01 -4.526267156795586444e-01
3.210542010570203164e-01 -6.713760044831533491e-02 7.359222421135092063e-01
5.918113734806540460e-01 5.846671754107370111e-02 5.121113872137850881e-02
1.858380623291626677e-01 -4.099371969532390053e-02 2.858074496915340990e-01
-5.541407665484001654e-01 -1.572295014352859677e-01 1.336234645752519268e-01
6.952159639609864494e-02 -6.582753250668661738e-02 3.203770690572440016e-01
-7.032876536735594986e-01 -1.799076100778908560e-01 9.626675335971231207e-02
-8.295169035720934003e-01 -1.738028764812006022e-01 -1.608195804959710873e-01
-6.357761797849474927e-01 -1.073562352643202128e-01 -4.419483550956161411e-01
3.327964576778895123e-01 -2.801391536701917147e-03 1.813798340338981518e-01
-3.975787183625946741e-01 -1.177976301841516665e-01 3.356837429668982353e-02
2.155019833867625745e-01 -6.155154427527417815e-02 5.166583558825197375e-01
3.782607680901072245e-01 3.719069183616468405e-02 -1.020504035358313077e-01
-4.048849775272392870e-01 -2.863747296032840423e-02 -7.728022971075095837e-01
-5.536092263292846649e-01 -1.318554873552500450e-01 -9.166886183412124856e-02
-1.435976602189119045e-01 -1.100252133321331753e-02 -5.104420306423228526e-01
1.630222786528456869e-01 -2.437887736772041680e-02 1.010939543088287679e-01
6.297654007191369474e-02 -5.524817701348101739e-02 2.155796490076102023e-01
-2.303933135347621952e-01 -1.167997806071535277e-01 2.931135458597904919e-01
-4.045748165201590862e-01 -4.990092755106952105e-02 -5.827938497164457665e-01
-9.964786222731580878e-02 -1.136561551869629400e-01 4.750252866555009224e-01
-4.238430773347976466e-01 -2.657316980076044124e-02 -8.216401514533755446e-01
-7.389806928911425432e-01 -1.312197597873006050e-01 -3.949734338322143934e-01
9.049367136522874777e-02 -7.781111440324171846e-02 4.608541562571870642e-01
-5.908851994565135213e-01 -6.747240184485721326e-02 -7.253343734867456760e-01
2.526126097263438064e-01 -4.431920944292646464e-02 4.226613180753053811e-01
8.301904666879991179e-01 8.184141123068865153e-02 2.256337660707114223e-01
