5.316356451807395800e-01 2.180239436128460218e-01 9.669584890844918901e-01
4.980022124444581921e-01 9.123368385585988172e-01 -2.828408771033577573e-01
6.258293345104261052e-01 -1.973099349214601367e-02 4.260054991792198709e-01
6.537778541113105080e-01 2.437434558907895232e-01 -5.253798469784046743e-01
5.278251542484225789e-01 2.984492899304286295e-01 8.211876135896741813e-01
5.916096976351874481e-01 4.641067738968368550e-02 6.704336872326598362e-01
5.761665078564425224e-01 6.129896876363699620e-01 -4.901025552652865658e-01
6.455850590440918024e-01 6.605484987921987627e-02 -8.641060161233749329e-03
7.434097234438309387e-01 -2.391297621425597930e-01 -4.324899529234964568e-01
6.641092496226194131e-01 -1.383387602896400392e-01 2.582200702348677046e-01
5.542586922488739187e-01 7.262026022582854790e-01 -5.014155886510149873e-01
6.039003983191189029e-01 1.077515529942452560e-01 3.811529499699494727e-01
5.492934951723382753e-01 2.606900979538802066e-01 6.589948835351963075e-01
5.657201391379169664e-01 5.933474168523636960e-01 -3.211686058988041381e-01
5.712889381811494527e-01 5.041668684836503322e-01 -1.752739509135212981e-01
7.491260612060622881e-01 -5.415421213954735302e-01 2.165569937308289838e-01
5.284545592089594512e-01 7.068135431071677077e-01 -1.530964762280331570e-01
6.845035237642914661e-01 -3.644226274018365630e-01 5.545221142748282261e-01
6.645138427754896382e-01 -2.388288875617811668e-01 4.914147783964107896e-01
6.627990225476397823e-01 -1.324822014238332124e-01 2.597083090306300801e-01
5.757155674009983848e-01 2.798551046775940576e-01 3.039643593831131141e-01
7.519382316215611484e-01 -5.345954162941175536e-01 1.671517567367773460e-01
6.985146249111778838e-01 -1.747232939749600311e-01 -5.884257695077345363e-02
5.898099874522364505e-01 5.403041659494044469e-01 -4.778950317073400456e-01
7.324950016556021071e-01 -4.659026615990328191e-01 2.323680832589338774e-01
6.305348396986494297e-01 3.535470283272461600e-01 -5.129725733045557012e-01
-6.153918052976194986e-01 -9.561520830198534660e-02 -3.306116767777962373e-01
-5.882689122092289447e-01 -5.904825545508707307e-01 5.232488687209637668e-01
-5.651284264856771822e-01 -5.583383284006810943e-01 1.759451137983810698e-01
-5.956563686647432521e-01 -1.099314077357467544e-03 -7.856911222482891866e-01
-6.737610785760783649e-01 1.450612942781243364e-01 -2.164190637887602742e-01
-6.957637064089710055e-01 -8.741037403398398131e-02 5.918765520522011325e-01
-5.521206013272275115e-01 -6.973045640653726673e-01 3.525388673211707347e-01
-5.131531066449163125e-01 -8.116088982720998102e-01 1.665058892580641436e-01
-6.679147706459945821e-01 -3.375993215753871068e-02 1.384707861767275061e-01
-5.544457458306381037e-01 -4.979498999490804545e-01 -9.223533227022547021e-02
-5.967108409312701367e-01 -1.852806262247965602e-02 -7.320662144951758377e-01
-7.084969491405987974e-01 5.829199145408430621e-02 3.961153141866243232e-01
-6.973248996441475667e-01 2.916063668715415322e-02 3.341609290361214901e-01
-6.931171962587625579e-01 1.811134586707343619e-01 -7.493862130377408615e-02
-6.768951442678599051e-01 -1.764828231001516409e-02 2.055674261576152795e-01
-6.763414789305990382e-01 1.747858418237134212e-02 1.159068416031140136e-01
-7.383458120362770272e-01 4.125811636810819416e-01 -9.294321442308836612e-02
-5.615108375957258424e-01 -2.561453705221421462e-01 -5.819709249083959701e-01
-5.878376636226543273e-01 -3.829472129546889619e-02 -7.892523944869961339e-01
-6.969270497930001307e-01 1.085193990800746300e-01 1.415959842466422702e-01
-6.907284459729643444e-01 -1.435805247834240350e-01 6.658633522868447896e-01
-6.713190982123462547e-01 2.803503385789762326e-01 -5.653694975152048219e-01
-6.911237824418697828e-01 3.895364491390612138e-01 -5.917955969961288254e-01
-5.756147370454616219e-01 -6.270413035054489548e-01 4.615110442644647648e-01
-5.355810642576807057e-01 -6.738394360263971761e-01 1.031446727108630834e-01
-6.542789189515731962e-01 -2.329379620852548571e-01 4.502713765173237959e-01
-5.435122245853190037e-01 -3.462606728814597856e-01 -5.795337079824445237e-01
-5.552714047771212247e-01 -6.725934911923943105e-01 3.309547377078728148e-01
-7.421787425032628782e-01 5.957638815789586539e-01 -4.817557184505630308e-01
-5.164289821155783056e-01 -7.170193496975801883e-01 -1.906779668243439516e-02
-6.758775481021622733e-01 -2.235838351730131124e-01 6.812473395917014729e-01
-5.824141636178105097e-01 -3.999860599831044777e-02 -8.487784997190589431e-01
-5.471779809104034831e-01 -2.482808712793338202e-01 -7.685655001457403213e-01
-6.900745284260351164e-01 1.306649434680580701e-01 8.852839137152204024e-03
-6.780741317268560442e-01 2.045305887151535329e-01 -3.066813179975840242e-01
-5.304564404399401134e-01 -6.585459631983053841e-01 6.875602603794305975e-03
-7.293208113386152602e-01 1.511333248975779142e-01 4.203339101157932967e-01
-5.296594930665164958e-01 -7.206260826306873923e-01 1.445265206128814039e-01
-6.134199483215841964e-01 -1.899371482971814740e-01 -1.303892304577631278e-01
-6.984911496409692555e-01 3.217661739099464402e-02 3.406876363986582890e-01
-6.946636030769102188e-01 1.139317063335548025e-01 1.022545758471261335e-01
-7.214244053835218162e-01 -3.415666155481699058e-03 6.937269339438192350e-01
-7.084382487960007024e-01 6.670682970743770090e-02 3.755030756762337552e-01
-6.396522345826730627e-01 8.801768542921099836e-02 -4.810908299367170904e-01
-5.244140213180711330e-01 -7.163952915406491817e-01 7.303493324562705669e-02
-6.575964595016666747e-01 -4.848100610795660209e-02 5.240169325271058082e-02
-5.295883618459322761e-01 -7.453883942002157426e-01 2.023240670389619134e-01
-6.638853281123813233e-01 1.313893995985247198e-01 -2.997857872591264683e-01
-6.318860243394003318e-01 1.181877061960864700e-01 -6.435419350596535137e-01
-7.493709318553471999e-01 4.924620792658574997e-01 -1.528734538507711405e-01
-6.736045416114235795e-01 -1.483047322431063075e-01 4.763662183786162574e-01
-6.391813620092077208e-01 -1.348805585977065624e-01 4.115993971571296067e-02
-7.350836845394962404e-01 2.414023066154683539e-01 2.741365525146244320e-01
-7.600242221655049146e-01 5.447955513936931782e-01 -1.519356496334826057e-01
-5.588730555933122401e-01 -4.712665128175147489e-01 -1.035294602501643652e-01
-6.714540108892054215e-01 -1.953434444830257771e-02 1.462660194179917494e-01
-6.283827592726830558e-01 -1.480577664786549875e-02 -3.697019026751436344e-01
-6.056264688543259167e-01 -1.539350087283391372e-02 -6.350017525729578782e-01
-5.172138515399958836e-01 -8.926688051473542496e-01 4.060258853264205325e-01
-6.692655423522131386e-01 1.395735152488758180e-01 -2.561105877005045439e-01
-6.221443367701252614e-01 6.926529974324878436e-02 -6.418728259576982342e-01
-6.015381541816599009e-01 -3.586700243454927217e-01 1.298812051632972919e-01
-5.640023638585025534e-01 -2.721026258024845657e-01 -5.149886603351927494e-01
-5.149936804364417808e-01 -5.962783107086978562e-01 -3.217743410076966959e-01
-5.246103864620803581e-01 -3.824028926260900074e-01 -7.154770099761216251e-01
-6.401902832318391301e-01 -3.630200935142752217e-01 5.931632032041243008e-01
-6.726885749521137603e-01 2.520072329051026849e-01 -4.822103489504248053e-01
-7.158046831513317221e-01 2.043309421338531662e-01 1.359730907245055576e-01
-5.492260236430500653e-01 -2.237545330768631879e-01 -8.026359830125242567e-01
-6.250342603665521857e-01 5.353299319670334899e-02 -5.707541839144656404e-01
-6.071851720401845176e-01 3.819271472701285530e-02 -7.436137933600256433e-01
-6.138507505977385259e-01 -2.814219743956449665e-02 -5.084317797494236624e-01
-5.403800464592992681e-01 -2.854337718268570856e-01 -7.602645376373360353e-01
-6.043014639180728231e-01 -9.397082135746365195e-02 -4.644780012858953366e-01
-6.478587069677024246e-01 -6.326591599260930621e-02 -2.671241811595562177e-02
-5.991255125931809200e-01 7.679142840792571763e-03 -7.658198914521361367e-01
-7.208253539035983648e-01 4.307573577704428835e-01 -3.413103576878971368e-01
-6.409516493799050085e-01 2.997122729078078099e-02 -3.284224135561804037e-01
-5.654941180138258749e-01 -6.220623031518666135e-01 3.311137839727014143e-01
-7.067545343390584378e-01 1.367921513510594600e-01 1.898257571291455670e-01
-6.202433572754485480e-01 -7.053310904187980179e-02 -3.331424525565278016e-01
-5.524105562659858970e-01 -2.301930543711532551e-01 -7.500701183360132251e-01
-6.899880828541968825e-01 3.588015016540806457e-01 -5.323324595433900353e-01
-7.359773753559227805e-01 2.440537955613244214e-01 2.783320417675458347e-01
-6.240354774124556858e-01 -4.336419732660617976e-01 5.710531340728477456e-01
-5.649590057150966071e-01 -6.336000860373613985e-01 3.521612365906592879e-01
-6.186370115828854210e-01 -3.101670571659575493e-01 2.154272855041430013e-01
-6.997817513051203253e-01 1.544991107132145658e-01 6.618270623649803730e-02
-5.077083243246309774e-01 -7.989011409328395930e-01 7.260708335461515950e-02
-6.606915439053644423e-01 1.226791341225514781e-01 -3.165914116183481397e-01
-5.757295030694610238e-01 -3.152659713348063830e-01 -2.753525549334446265e-01
-5.764407818792205429e-01 -7.204959108920862276e-02 -8.428943266423224445e-01
-5.368950694006500157e-01 -5.375171669412631692e-01 -2.042340649833180033e-01
-5.596506677878628766e-01 -5.135093893802278320e-01 5.604651672313507374e-03
-7.051316773614501043e-01 3.850723471457461189e-01 -4.170607166472626304e-01
-6.594722072616129305e-01 1.773163921805772092e-01 -4.602491938709882824e-01
-6.824903199450292890e-01 -2.262164095142888409e-01 7.649787551395922369e-01
-7.211806838351475513e-01 2.175816509054996073e-01 1.676024423415534148e-01
-6.691843552735027290e-01 -1.118106932258017688e-01 3.381549610958291541e-01
-7.077134565075406947e-01 4.731461297527085885e-01 -5.953410785946440242e-01
-7.204078382566114769e-01 3.375020955047403071e-01 -1.253975050271962099e-01
-7.338830589400060500e-01 9.314704952385445547e-02 6.110984672902729509e-01
-6.557293345608581348e-01 1.498610881338046652e-01 -4.391061204228633996e-01
-7.111528263208025669e-01 4.628931850394178427e-01 -5.307570273446441389e-01
-7.218373395914426949e-01 1.375904319995508995e-01 3.646979567094791319e-01
-6.018556774640585472e-01 -4.824221165322473137e-01 4.266174359690668716e-01
-5.368655264319226461e-01 -2.851530788953693940e-01 -8.021174280344859353e-01
-6.199176588671108101e-01 -2.351372240933150282e-01 5.278327884238627477e-02
-5.691386984686096495e-01 -1.548064185391068714e-01 -7.325226465231282624e-01
-5.614907711580918726e-01 -4.894620034652567009e-01 -2.976872506655959399e-02
-6.678188411056561469e-01 1.126538626906302132e-01 -2.093259175919971460e-01
-7.397308835589117004e-01 3.309323286642144590e-01 1.166137736082417525e-01
-5.508524640156630126e-01 -5.365836109735420134e-01 -4.287136976569866365e-02
-6.574521831655010251e-01 -2.350007695687679199e-01 4.923445493269941187e-01
-6.315928706291020767e-01 -1.357351249651890523e-01 -4.574967610736102586e-02
-6.404525020107336708e-01 -4.341736269290524114e-02 -1.605057165415633424e-01
-5.150868348423925935e-01 -7.403015237081390643e-01 2.032951994174202887e-02
-6.881329241869267310e-01 1.326259955265286505e-01 -1.854501143737848773e-02
-5.675530349143222963e-01 -2.547147886572452835e-01 -5.145469061303803437e-01
-5.967702739897401409e-01 -3.206559407077626545e-01 -1.600393447977938033e-02
-6.602123963466182133e-01 -1.121722031506230122e-01 2.338644140596279064e-01
-7.287655659252580964e-01 4.821352943975404370e-01 -3.699058893550374316e-01
-6.554324227118323298e-01 -1.968747111789157234e-01 3.784007603105585815e-01
-5.411020912623878409e-01 -7.454541079500504042e-01 3.374143543937696554e-01
-6.381702839777173564e-01 2.378999269177983419e-03 -2.956867907752824265e-01
-5.727465808660965330e-01 -5.202090329153880033e-01 1.749448189596548020e-01
-5.796580824300765489e-01 -3.721424574847326805e-01 -9.464195997543821404e-02
-7.503776944613057553e-01 4.406779805984258891e-01 -1.846251606716846350e-02
-7.167720323862039056e-01 1.681077133554073899e-01 2.330777480101785815e-01
-5.745204545028393950e-01 -2.626657069126018818e-01 -4.140666581194120677e-01
-6.340870770191522343e-01 -1.122946076805136639e-01 -7.202040040337413795e-02
-6.480015654941302383e-01 1.404060656208635516e-01 -5.072841950996490601e-01
-7.201469806561637821e-01 1.602256136435554479e-01 2.912932258899090243e-01
-6.479672838948979940e-01 1.503884276877655857e-01 -5.313217764385830266e-01
-7.081389169906088243e-01 -2.356920385544106558e-02 5.857468860089399820e-01
-7.175547790599738907e-01 3.848834056661477043e-01 -2.710213036043910839e-01
-7.113667000279749741e-01 3.809446615842277395e-01 -3.342162556873882751e-01
-6.112036717307438582e-01 -2.532659538227410856e-01 -6.415497934078662548e-03
-6.762139946490538511e-01 4.564716848846760849e-02 4.771639855757227322e-02
-6.420356540973077841e-01 -3.267516834619811905e-01 5.289151287193223361e-01
-5.254537223021192860e-01 -8.157148558095287383e-01 3.203843788575363449e-01
-6.021944675865864571e-01 -4.399247410921905410e-01 3.299643647138469915e-01
-6.050281580107437218e-01 -4.644938669461795011e-01 4.213474355918198633e-01
-6.402584205384056482e-01 -1.271701396139360979e-02 -2.354712486547889116e-01
-5.488046019708393564e-01 -3.531880314753979566e-01 -5.011075920882809287e-01
-6.290892369375962190e-01 -1.823966788299731523e-01 3.539236476253550256e-02
-5.304105597945105721e-01 -6.632728892391813735e-01 1.753012403744085707e-02
-7.436144539667693953e-01 4.159886431379440364e-01 -3.926566264747076429e-02
-5.581422725395174256e-01 -2.121888401238895827e-01 -7.255271235438569555e-01
-6.187855511750203208e-01 -3.337340946613205350e-01 2.729691352922125058e-01
-5.534581382820963347e-01 -4.488495646443945164e-01 -2.200672804494296086e-01
-6.059287609554655507e-01 -4.997913794411346644e-01 5.154779900813941662e-01
-7.279825676713546079e-01 1.587467616613484345e-01 3.866236395614632282e-01
-6.582048125778965364e-01 -6.524782445573182321e-02 9.923103428898812084e-02
-6.215177474968318627e-01 9.693834020945502061e-02 -7.147391820816187957e-01
-6.367888649548812952e-01 -3.700442724787441073e-01 5.699319744957637157e-01
-7.451663162934398787e-01 1.852310525187670365e-01 5.252995002961915461e-01
-7.476784950936992136e-01 2.910891862068114566e-01 3.040944170085423393e-01
-5.114512681411066408e-01 -6.431290863816863101e-01 -2.523581931056910754e-01
-6.602678090410936118e-01 1.891548322056319786e-01 -4.789557338029931111e-01
-6.397826077571917569e-01 3.575419124441515939e-02 -3.558156105109129830e-01
-7.521211254395865353e-01 3.811781364300698693e-01 1.428507969238291819e-01
-6.387226572602366925e-01 3.062063911377563633e-02 -3.560826480397483729e-01
-6.433907739577863216e-01 1.497753890215355044e-01 -5.835044749567698252e-01
-5.113310680466246483e-01 -6.999163411464712770e-01 -1.193083859745825009e-01
-7.156928625763467888e-01 1.934701718466072251e-01 1.603782917093849736e-01
-5.811025523647289637e-01 -2.655429313749261833e-01 -3.301154527423598717e-01
-6.703526463035770488e-01 2.856325216882021900e-01 -5.892027244464592695e-01
-6.521887594628175133e-01 -6.267256328244820429e-02 2.262854381546851312e-02
-5.999493480976316739e-01 -2.812642294381771380e-01 -7.201694898734881112e-02
-5.442421095024788658e-01 -5.421624797443723720e-01 -1.071317438644239090e-01
-7.189809636618940125e-01 4.190755801806565484e-01 -3.352659911093608391e-01
-6.367619523168092099e-01 8.772653695910015426e-02 -5.142740086031425406e-01
-6.896168247763739823e-01 2.947038733252674292e-01 -3.849157195922793262e-01
-7.153610446236322584e-01 -2.534295804282175185e-02 6.745861440073874782e-01
-7.274344855408577670e-01 4.264246474140314658e-01 -2.535960924168536024e-01
-5.231905086389397885e-01 -7.958125465937565535e-01 2.467368809461596701e-01
-7.325788026300678046e-01 3.232076929835849266e-01 5.108531553507347778e-02
-5.701374917518657881e-01 -5.174574892436782925e-01 1.378527130012537905e-01
-5.362415340990220880e-01 -7.817571056701145826e-01 3.664079684460000430e-01
-6.122828225209479003e-01 -1.474316961288707484e-01 -2.443583633001930322e-01
-5.175256549520285132e-01 -6.845085446544549868e-01 -8.319310786200394270e-02
-6.415678660038472980e-01 1.543455524565597314e-01 -6.156890139680666341e-01
-7.095613976736625528e-01 4.251997943885119646e-01 -4.601588776737545738e-01
-6.853168592533029901e-01 6.270473171381955868e-02 1.140088725814522030e-01
-5.613997562145750519e-01 -6.318962483668816299e-01 3.064144783093317725e-01
-5.905739566057496281e-01 -4.198337423239590915e-01 1.462076225345048386e-01
-6.251507324208082084e-01 -2.259045110440730530e-01 9.225124391787553613e-02
-5.388502849730291144e-01 -2.479434695765315999e-01 -8.669604864774335118e-01
-7.176090517753731524e-01 6.203014432046562165e-02 4.940531958556632075e-01
-6.681573150244697334e-01 -2.615490367393238924e-01 6.806627924854681266e-01
-5.646788612967272858e-01 -6.261106125315135662e-01 3.311448330382768535e-01
-6.965528719297735538e-01 -1.692144489238924243e-01 7.948174139215509193e-01
-7.124437786371247139e-01 -4.256922461181165268e-02 6.811849952172435163e-01
-6.013803140477286258e-01 -4.598056136787195269e-01 3.674960235765386551e-01
-6.769796326014295706e-01 -2.232241812813779147e-01 6.933116015177465119e-01
-6.679027273629183359e-01 -2.322673733369529925e-01 6.083472643006483382e-01
-7.072285431099427644e-01 4.419627715701243131e-01 -5.271893502204035853e-01
-5.272518813147412109e-01 -5.098507652351987884e-01 -3.827543726106726885e-01
-7.165318289827462550e-01 -8.432623667456495831e-02 8.279652454863570821e-01
-6.933370232584549209e-01 -4.625886924958393098e-02 4.660003232375281024e-01
-5.335295924695604430e-01 -5.188013231951472681e-01 -2.879902300103162616e-01
-6.855454342764505382e-01 -1.036229011732166527e-01 5.105112628379534501e-01
-5.306607099303530806e-01 -5.810507635531506621e-01 -1.742203626043537790e-01
-7.071946811131444299e-01 2.986742685107968143e-01 -1.883136684167920905e-01
-6.139928087106729659e-01 -3.653987386178473296e-01 2.917750009125293920e-01
-6.291335666112779501e-01 1.214315505002674100e-01 -6.834798926281331344e-01
-6.779009974711630582e-01 -5.481809235275595521e-02 3.053646047045329714e-01
-5.953765904959527067e-01 -5.568989054806916528e-01 5.270290611556772697e-01
-6.064402439683262980e-01 -2.688789722784136194e-01 -2.527244751621283286e-02
-6.427083037914937957e-01 2.003488839659201270e-01 -7.112484635407848588e-01
-5.740414623180444265e-01 -4.955002187638155586e-01 1.316156335541455447e-01
-6.425758315462295478e-01 -2.929670250786881036e-01 4.552518153470240803e-01
-5.263998270652399114e-01 -4.992573571643278973e-01 -4.178226171151441237e-01
-5.419545820589296570e-01 -2.751950408254675851e-01 -7.660546695672916240e-01
-6.663122561198655536e-01 -1.341714476655614940e-01 3.574403688922844768e-01
-6.054119751206785693e-01 -9.634358022556058221e-02 -4.458452902655813954e-01
-6.202385015861446860e-01 -1.047594983338183822e-01 -2.521595451793179898e-01
-5.327524633272940902e-01 -8.272565884204389208e-01 4.332497153285453928e-01
-6.083043185008079057e-01 7.620776672799407792e-02 -8.205084515906947429e-01
-7.316208194746319782e-01 1.035300972676444229e-03 8.026845887130175106e-01
-6.081370873494279516e-01 -5.184103210807622375e-01 5.854435347438966541e-01
-6.795847325184957155e-01 4.413366703391578133e-02 9.080323215704037831e-02
-6.795479732609783774e-01 -1.518637501038377358e-01 5.544469224308781197e-01
-5.110621972733201401e-01 -8.290078865771688399e-01 1.831981571914552132e-01
-5.169229873165223088e-01 -6.975979787002081212e-01 -5.926343258436222311e-02
-5.227831564335010395e-01 -6.744613442755419408e-01 -4.536736970287306298e-02
-5.891344009205072840e-01 -5.343882329978613122e-01 4.005741401201632912e-01
-7.515377548072935676e-01 5.051264542026937532e-01 -1.574656360425875923e-01
-5.172989248522917860e-01 -5.517057371127014331e-01 -4.002951969555250678e-01
-6.036217693951042573e-01 3.315099339565180398e-03 -7.027931893077478120e-01
-6.149717404732460979e-01 -3.114536577557411312e-01 1.755186458710665254e-01
-5.597131224114064718e-01 -2.931736705154338596e-01 -5.153651159388880076e-01
-6.048100654787469388e-01 -3.911816176953452073e-01 2.452058305319068654e-01
-5.961947458706524650e-01 -4.473140500357271621e-01 2.771469618891791997e-01
-6.445270831387185373e-01 -2.390301378090048112e-01 3.504099242518349255e-01
-5.955451752548361899e-01 -3.031652886293054738e-01 -7.177506492756315082e-02
-5.180506364434607214e-01 -5.025514902816342611e-01 -5.078709132449220620e-01
-6.101922378204286401e-01 -4.575383454680544970e-01 4.653986702180399337e-01
-5.235126185881586736e-01 -7.808935536584181714e-01 2.151872680058255494e-01
-5.995555210451631867e-01 -2.291113453893173484e-03 -7.371732685729788237e-01
-7.395450672568254502e-01 1.867097365416361399e-01 4.559203300125313496e-01
-5.929031329180789456e-01 -5.225530666029815086e-01 4.167188324674901967e-01
-6.892166859928444689e-01 1.008681735027397997e-01 6.935093493710821344e-02
-7.531396302368211781e-01 5.319143289087703286e-01 -2.021197304090542879e-01
-6.775137142352947173e-01 -2.074946504000663161e-01 6.623270244318564259e-01
-6.866191176669941276e-01 5.167170506924828946e-03 2.655056697361276030e-01
-5.491249686996574342e-01 -2.486173918973869634e-01 -7.449510548868081283e-01
-7.033166398239338868e-01 1.894292430749365264e-01 2.490358452193785696e-02
-5.823677296581944995e-01 -5.298389469303889099e-01 3.105007965782766166e-01
-5.072038187231271422e-01 -8.352368005446824117e-01 1.527286055634783091e-01
-6.844775919247428897e-01 2.300092981791311830e-01 -2.919636442903215667e-01
-5.317884625746056582e-01 -4.901308458538113921e-01 -3.762800898629157786e-01
-5.272108351360789147e-01 -6.856697690135448164e-01 3.306147384274355644e-02
-5.768368942789632303e-01 -4.488365260315477223e-01 5.388824655377452005e-02
-5.673150371225034183e-01 -6.779833202708691609e-01 4.848614189764932081e-01
-6.211897543559634638e-01 5.545789291894781536e-02 -6.203674159810934619e-01
-5.321184545585047054e-01 -4.189994930303043708e-01 -5.408346049100579700e-01
-6.117184034220565225e-01 -4.308506996666265909e-01 4.200946153499510172e-01
-6.963444932842228763e-01 9.547913656012735339e-02 1.656449247898152122e-01
-5.353151603151657945e-01 -3.049075103444611190e-01 -7.735131651794093788e-01
-5.674869601797148944e-01 -2.473345057243688805e-01 -5.327959916813516106e-01
-7.593400421728201399e-01 6.755038554419871000e-01 -4.694395267255578319e-01
-6.527779896591773268e-01 2.208542891143478459e-01 -6.417890221854699595e-01
-5.244982302858478551e-01 -4.943831604810263736e-01 -4.516492238931928416e-01
-5.142964271394536713e-01 -7.969216824764021601e-01 1.451292127989672887e-01
-5.586325429135939880e-01 -5.078640198121152638e-01 -1.969409223019305891e-02
-7.419120788608754014e-01 4.052145066867227086e-01 -3.370603008005308016e-02
-7.327098113345620334e-01 5.254729156593319628e-01 -4.262944699735725096e-01
-6.164437625963282708e-01 -4.616028957457289916e-01 5.482870379059741062e-01
-7.138392675284952471e-01 -9.537715043229741396e-03 6.193287444829856936e-01
-6.303881983208279305e-01 -1.218948208039484643e-01 -9.263827869828485106e-02
-7.442684206828144022e-01 1.491861166054345433e-01 6.001223405522382315e-01
-7.071302791983745673e-01 1.405356353105407796e-01 1.853656192443904338e-01
-6.140522107715261635e-01 6.234211676482957071e-02 -7.203157509626318955e-01
-6.597890407825344194e-01 1.497574090843074857e-01 -3.912830682149159300e-01
-6.719493682492984066e-01 2.611143110443858162e-01 -5.124368112652661900e-01
-5.224924493512486112e-01 -5.395208451574302622e-01 -3.682807712233409081e-01
-6.350747575178053994e-01 2.451953716749448106e-02 -3.843881296271159376e-01
-5.324649255974361894e-01 -5.963601304302215134e-01 -1.168270502394247179e-01
-5.216326021035502247e-01 -5.515658394092257666e-01 -3.498380830347088133e-01
-6.471981146093709336e-01 -5.605091953075112127e-02 -5.153757087239401596e-02
-7.445124501985632692e-01 3.847576902846299718e-01 4.520571269212307619e-02
-5.750723881365585877e-01 -3.411611349895728451e-01 -2.217401014742954313e-01
-6.304002503016714609e-01 -1.027055662581709827e-01 -1.379325505293874654e-01
-7.267123393899751482e-01 4.465844769559346172e-01 -3.097928568881926914e-01
-6.308184868110483512e-01 2.429659638201333433e-02 -4.337414546969830531e-01
-7.412315740859787283e-01 5.998654777742533639e-01 -5.025676089416524217e-01
-7.372513830169296067e-01 1.382218563927703203e-01 5.438471641243444177e-01
-6.731308995467473189e-01 2.762526503574225245e-01 -5.344338291435295485e-01
-6.795640678815658697e-01 1.198617589714906229e-01 -8.874475585235375164e-02
-5.613912920766187531e-01 -7.000651089160326856e-01 4.677226607998945518e-01
-5.783596531399993745e-01 -5.639797195173558153e-01 3.443653973215111685e-01
-6.802698575107947176e-01 3.229586983371178222e-01 -5.613577232191827582e-01
-7.170793918962123925e-01 4.063184099816413708e-01 -3.273454914684298389e-01
-7.340076586487838117e-01 5.116190784442490314e-01 -3.782818636143540081e-01
-5.845160367753171604e-01 -2.347124246714140661e-01 -3.631104428523219130e-01
-5.860067980301018054e-01 -5.186120825082681796e-01 3.265662132073552937e-01
-6.141113799030000209e-01 -1.634857308826867250e-01 -1.849165857154172754e-01
-6.697946297135027871e-01 -2.761551287019154421e-01 7.344349305529769278e-01
-5.550390189974740984e-01 -3.831678761677445588e-01 -3.570585674846343260e-01
-6.051395165239840113e-01 -2.289043044059279608e-01 -1.351666180684183427e-01
-5.395365323843527294e-01 -4.964679993069799901e-01 -2.704720475135581892e-01
-6.215631411099887815e-01 7.096672829224112689e-02 -6.527126967119414314e-01
-6.312638217745062397e-01 -4.107774566813738870e-01 6.016277814618115061e-01
-5.400952807302051850e-01 -6.372725495586852862e-01 6.946730799112237065e-02
-7.564981194655805430e-01 4.887782766836290538e-01 -6.062430894295857409e-02
-6.684192689205177285e-01 1.516857465727224907e-01 -2.947072903318816994e-01
-5.336243233043415080e-01 -4.360900963620842896e-01 -4.827202202024261091e-01
-6.105748022005672571e-01 -7.482931328935471527e-02 -4.362803256973563082e-01
-6.865957788536762862e-01 3.391519477087316936e-01 -5.255630388857727153e-01
-6.284615742127244165e-01 -1.897406473928661685e-01 4.542523815506727125e-02
-5.464029662103391249e-01 -7.068916810754434232e-01 3.082312451946718213e-01
-7.129507822142769902e-01 3.114826311856678798e-01 -1.511823765137860764e-01
-6.881005691540538205e-01 2.035178034755299459e-01 -1.867788535708122255e-01
-5.605041911303240143e-01 -3.722710730963086356e-01 -3.188106951325013205e-01
-5.948830433214460367e-01 -1.259702736498193310e-01 -4.990898410302225252e-01
-6.802378603749106301e-01 7.491504417212425937e-02 2.557468033830038318e-02
-6.527360352010738165e-01 -1.730648450700590646e-01 2.904245489318661999e-01
-5.694158592087940063e-01 -6.115214501423338334e-01 3.521162826254873868e-01
-6.973133100168352749e-01 2.991632465572580113e-01 -3.052757849897896336e-01
-5.381784606649315794e-01 -6.219222784954515637e-01 1.065748164712874112e-02
-5.368692053061142611e-01 -5.887269636953331720e-01 -8.328476272381693524e-02
-7.002563398164229902e-01 2.720915618081238274e-01 -2.066858613477682571e-01
-5.765604044835564990e-01 -4.970869398938868033e-01 1.648932478307177929e-01
-6.854051357322993310e-01 8.571304861375834971e-02 6.056529456581310339e-02
-7.385889296357999179e-01 3.471322166873894721e-01 6.487327262753717072e-02
-6.815183399886389770e-01 3.654006012967400685e-01 -6.472183457469278256e-01
-6.126722711697708545e-01 -4.629234910930082880e-01 5.072140448669013590e-01
-6.065323851812097766e-01 -4.426814793914813362e-01 3.873297067781218406e-01
-6.092725602179076549e-01 -3.720738038153872940e-02 -5.406215383481556280e-01
-7.144251458566348578e-01 4.083846410017383799e-01 -3.633441575729232098e-01
-6.087755712577748168e-01 -2.223836144853898467e-01 -1.079934364487337706e-01
-5.273628740534784809e-01 -6.355082843064704390e-01 -8.392697817704154739e-02
-5.607134988269746323e-01 -1.404509333900064438e-01 -8.652517554681129486e-01
-5.197944421644153934e-01 -6.540713566777991428e-01 -1.286720475359097449e-01
-5.574147086479258606e-01 -6.645043278245231777e-01 3.369199192284373368e-01
-6.314224902970735354e-01 8.821811819483844908e-02 -5.780135664664413087e-01
-7.438694167139332514e-01 3.353183712479373968e-01 1.547300597689542923e-01
-6.774737244014350512e-01 -1.624934280105331738e-02 2.090357225026922006e-01
-6.138554450034457988e-01 -4.703691349758530316e-01 5.387096877184804899e-01
-5.723127457768395487e-01 -6.272436106572240044e-01 4.232925035876265452e-01
-5.717358723326235737e-01 -1.006776310258866297e-01 -8.302490506691240224e-01
-7.177069428123786787e-01 3.186807977353879884e-01 -1.124862596871889636e-01
-7.149923943142971750e-01 3.143180358531099117e-01 -1.339693374766722789e-01
-7.326125353058476897e-01 4.779578108918733914e-01 -3.149302142282510153e-01
-3.773263685680370294e-01 7.025998855415902522e-01 -2.536295441798678274e-01
-5.244185095154424436e-01 1.694374206258645044e-01 6.899247109706405645e-01
-1.210984258980626060e-01 4.798800005696298165e-01 2.895202829710101788e-01
4.421378522729858540e-01 8.804772686932619274e-01 -2.070953243647520037e-01
-5.410609597809814542e-01 3.693461611425742364e-01 3.024668303823135895e-01
-5.424756318882981709e-01 9.896225269493653942e-02 8.152968789290485629e-01
-3.408206363080671514e-02 4.544365628784406419e-01 3.786531364851322690e-01
4.643758968268573706e-01 9.711711862660439287e-01 -3.689045379786276557e-01
-4.437099173691008147e-01 4.319706985317935954e-01 2.291945402471043669e-01
8.129614273481687581e-02 5.552863942674319819e-01 2.412412549179034360e-01
-1.356720670074792467e-01 1.347122543015411011e-01 9.382025513369566250e-01
-7.141444196890253115e-01 5.807765719578518171e-01 -1.802463204284028286e-01
-6.697046191238172907e-01 5.047618069607469060e-01 -1.504136970210826971e-02
-2.814363242488088224e-01 4.950905991558366415e-01 1.854315436436485276e-01
2.762047372812398427e-01 7.711330151372581820e-01 -7.726277375584938989e-02
-7.287943674694499219e-01 4.905123781006937578e-01 -1.569422888226538679e-02
-2.124868302233344775e-01 5.104406034110117174e-01 1.886186992328569012e-01
-7.562275191015962461e-01 4.749001043447549919e-01 1.088742826074288149e-03
-1.870477478861938270e-01 6.210887899963395409e-01 -9.584864097149242007e-03
-1.505655003432221917e-01 2.213290362505927200e-01 7.667208890694755530e-01
-4.968650942411722560e-01 2.528246369851499531e-01 5.444848772096989586e-01
-2.421993605447818887e-01 4.324818201353078928e-01 3.227365748724486672e-01
4.650083855337189820e-01 2.505203763239216008e-01 1.000000000000000000e+00
-6.656574204695053787e-01 6.021308100058451324e-02 8.311116345141107420e-01
-3.272575705551757363e-01 5.072129485866070375e-01 1.409185193574084005e-01
4.668523145642684558e-01 7.302201994974392152e-01 8.985363841455074052e-02
-6.034899359708438826e-01 5.746066972665609951e-01 -1.166296438483384462e-01
4.226306831971859967e-01 4.651925461715527010e-01 5.724341040142761905e-01
5.019203502372278081e-01 3.468930609563815048e-01 8.342884621720300098e-01
-5.842736125377846479e-01 3.868016438266653756e-01 2.490489908459771751e-01
-1.182164868512771555e-02 7.105807256277015815e-01 -9.735672214244259215e-02
-8.346952262048044219e-03 6.300868152533809496e-01 5.714119585211932528e-02
-3.307985320776188343e-01 4.878808284109269477e-01 1.759718975735693469e-01
4.077144042498627718e-01 5.319850728234760684e-01 4.385905182726039242e-01
7.182022828695135142e-02 8.305908067095677527e-01 -2.860413746653457379e-01
9.906249191543078925e-02 5.996089398147610439e-01 1.653998767598529041e-01
2.147776491971402357e-01 6.854120157432501692e-01 5.672174181946336435e-02
-2.156573377609896924e-01 6.366689523763024994e-01 -5.259208513779166372e-02
-2.353221839318167807e-01 8.175536974089195885e-01 -4.053385373755587495e-01
-1.127357880824943481e-01 8.203723298635747785e-01 -3.531958638048307009e-01
-6.575551653714936107e-01 6.498350128037234663e-01 -2.848555566727308253e-01
3.184601757996107785e-01 6.806827340039613983e-01 1.143325528995101786e-01
3.878951423922105124e-01 2.752566788362260652e-01 9.168548591147651639e-01
2.184140029680200490e-01 2.086081105814673320e-01 9.639387541277786298e-01
-1.266480885492938802e-01 5.048704751656181156e-01 2.394572720506939201e-01
-2.511909395931993805e-01 7.158914416968331640e-01 -2.197117179887835836e-01
-9.584747095877708956e-02 7.139660661133678810e-01 -1.431958064891518667e-01
-4.010555298475093067e-01 4.412796720657729543e-01 2.315214224159768686e-01
-1.022980998621329518e-01 5.564846681976449716e-01 1.528559908487314156e-01
-5.378945959700084933e-02 1.791491852434415055e-01 8.922158240131249363e-01
-3.407634139723363376e-01 1.876192342027745985e-01 7.415332560953449281e-01
-5.837305939436766566e-01 2.655725844186261897e-01 4.795331381577603858e-01
3.577606321885027363e-01 6.110163364265025487e-01 2.650706821676243052e-01
5.106055960663635762e-02 6.970002599690590106e-01 -4.207259641637547259e-02
-4.891545928079089056e-01 4.312348011079762955e-01 2.092775879535036521e-01
-6.200553137723182617e-01 6.618725481213723061e-01 -2.901281482005678702e-01
5.022238034503778703e-01 3.462156039377442540e-01 8.357173655206341367e-01
-4.902983204024883301e-01 2.266095883218882667e-01 5.973505573072616093e-01
1.924487417710117609e-01 4.946035679800138696e-01 4.086186124150056886e-01
-2.892721242636591694e-01 7.658095527767708743e-01 -3.323734658399580821e-01
-1.629243729384401984e-01 8.051478836379368786e-01 -3.478222063033383216e-01
-4.704451993720348835e-02 4.342256729998941189e-01 4.109565299203756794e-01
4.030642881167517504e-03 5.024473816907435442e-01 3.053501291373044713e-01
-4.324479445671204902e-01 6.406048360695242305e-01 -1.617462176553200182e-01
2.233689971827197140e-01 6.201045163570910734e-01 1.847785445990699216e-01
4.375508166263857024e-02 2.497921433397276847e-01 8.038062843708559946e-01
4.532831235218170440e-01 4.292136236899145030e-01 6.551393147576326514e-01
-4.941398344414939248e-02 4.557301294592955299e-01 3.690054932370722129e-01
-6.641591646166912222e-01 6.351991208204195161e-01 -2.601575448980874006e-01
-2.081790646156936042e-01 7.389740126898594053e-01 -2.433749865619088404e-01
-5.410862562843091750e-01 2.906137447130024420e-01 4.519778756772593331e-01
5.939595952485380442e-02 4.860143874872633885e-01 3.625259893126167032e-01
3.574985813875712903e-01 6.953418375231309456e-01 1.048028830962262486e-01
-5.275187307126899539e-01 5.573350445626515937e-01 -4.819646585632575420e-02
-4.613493386662638751e-01 6.793239332320845092e-01 -2.488340921596849942e-01
-3.921966151706114401e-01 6.583053935734183293e-01 -1.764831098920046359e-01
4.008312365028676161e-01 8.054273793685634564e-01 -8.393968136755741716e-02
-6.912569347592526503e-01 5.912126056301617583e-01 -1.893309653872842502e-01
4.868495747781196314e-01 7.466434575035656440e-01 6.804291349211941120e-02
-2.857951974452713206e-01 2.477599206636476870e-01 6.530996728186148070e-01
2.853967067932950893e-02 5.258921584849401976e-01 2.723207582303382446e-01
2.923709181304308125e-01 7.499572777364341691e-01 -2.946506383657301192e-02
2.575286180396221258e-01 6.961579450362344046e-01 5.636496024359520518e-02
-9.019883448684566651e-02 1.608204908640493425e-01 9.099475864139607850e-01
3.774766878163595130e-01 4.634604629812255627e-01 5.545453707704993684e-01
3.322118057430372695e-01 4.848636881755520323e-01 4.926677252105075566e-01
2.846196094661719855e-01 7.133590848019348840e-01 3.640404876135366896e-02
-7.618696835249949562e-01 6.428299119547408180e-01 -3.204776946149248684e-01
9.572561307968087407e-02 4.890434031568539619e-01 3.738128789653343276e-01
4.575683125225053494e-01 3.812203022002867980e-01 7.482946035770078330e-01
-3.984974421651253373e-01 2.957969845465798220e-01 5.090114158512791809e-01
3.111879509024818025e-01 9.353724439451669426e-01 -3.727665478519099906e-01
3.493848247633486032e-02 6.655693724774640607e-01 1.005707574925863122e-02
3.277919594352123878e-01 7.211657297537988898e-01 4.182698005703092831e-02
4.763260424038165963e-01 8.867554168614468768e-01 -2.029833438247222177e-01
1.951823349140613673e-01 6.046260737288468023e-01 2.009539414605125418e-01
1.603923423588362318e-01 5.012701027829733480e-01 3.809228813816466497e-01
-1.774842341607363871e-01 3.275725576118501126e-01 5.523254224200287998e-01
-1.244123628339153659e-01 1.403498400266189605e-01 9.327770961175353426e-01
-1.095347626681670156e-01 8.572661220199705445e-01 -4.217605362957978499e-01
4.160917902477880848e-01 8.169874290993131005e-01 -9.873616860384250293e-02
-7.511893345392728349e-01 5.623737982075414088e-01 -1.626719535493528213e-01
-4.762477401564119139e-02 5.006215957864349475e-01 2.845900448973070485e-01
-4.562198560263553415e-01 1.520559334937385265e-01 7.549209871357849266e-01
-3.467799546945483646e-01 5.094448331864386281e-01 1.275234738677131496e-01
-2.656564703153089790e-01 1.326075597482403445e-01 8.812341963372911646e-01
3.666928768875590827e-01 6.512389065927777221e-01 1.928722985298502168e-01
-3.366663578134352353e-01 9.856492039988087872e-02 9.125803729336270376e-01
1.600390508122844224e-01 5.832000729949725626e-01 2.251617074345320380e-01
2.473428067736253011e-01 5.906965920895816957e-01 2.518721715816318318e-01
-3.392784289754000593e-01 1.847609405074224220e-01 7.476580101370002840e-01
-7.502795318530993685e-01 6.917686693979289148e-01 -4.079826159389010054e-01
-2.114214603318209929e-01 5.128139136507210427e-01 1.846111611546487341e-01
-1.388180872951532037e-02 5.456658037786017434e-01 2.148715090183481169e-01
4.111944539452352942e-01 4.607762542419562846e-01 5.754573724028534398e-01
-6.243384550632227192e-01 4.118834516803362433e-01 1.826241759045919566e-01
-5.137265494631568785e-01 4.655747250066734066e-01 1.325369204014197888e-01
1.112162193815307704e-01 6.381062561466467331e-01 9.798891406116436165e-02
-4.757140683787000612e-01 2.929561702167159942e-01 4.781902515320883285e-01
-7.062395707824344893e-01 9.462073998712747236e-02 7.467332094095198158e-01
-6.410226204186755261e-01 5.509085153323817208e-01 -8.922739508267510389e-02
3.216282664052705353e-01 7.215979256185551804e-01 3.811528233697770995e-02
-1.060311574889216957e-01 5.914388587821050036e-01 8.472263752237670087e-02
1.646799560839591892e-01 6.965262122354011209e-01 1.211758452440918343e-02
-1.153315768210529252e-01 5.641665059415666983e-01 1.321542235135524102e-01
8.707136757273588323e-02 8.429575886666885731e-01 -3.023743649688446777e-01
-3.828157869622104692e-01 4.284009777727326163e-01 2.645345327811057801e-01
1.026597057061653939e-01 1.973852650249742491e-01 9.309611530947521363e-01
-6.228662624105241186e-01 4.102016775810305993e-01 1.865085691567762716e-01
4.522601135826015972e-01 6.001037332290661830e-01 3.301173673386637586e-01
4.941867563916877981e-01 3.869114895594610859e-01 7.546611381095733595e-01
-5.280282094357152678e-01 2.415877630265638731e-01 5.512089742096204503e-01
2.767071832145961419e-01 5.220210322765229671e-01 3.960683414692764415e-01
2.257809973004452353e-01 3.594929502115210007e-01 6.808444578981376338e-01
-5.785350244044785706e-01 3.389755251632560751e-01 3.425684151339435379e-01
-2.230623597514919398e-01 1.417378587887093977e-01 8.838721330091182660e-01
4.626562157749594673e-01 8.391142856173972042e-01 -1.189181919188055381e-01
-6.458356181313844591e-01 2.993516917400753652e-01 3.862537291350900404e-01
-4.950688268125862379e-01 4.959599205038215941e-01 8.358242228999433754e-02
-3.868374969588180279e-01 5.855602012889108421e-01 -3.581716302515504380e-02
-2.948011399689677292e-01 2.830362915108846633e-01 5.818813633297247323e-01
-2.857864526834917943e-02 5.238215679017840243e-01 2.494633739507189085e-01
-4.641439280018120894e-01 6.380149425164005628e-02 9.188108763283199254e-01
-3.255566326745206740e-01 2.800528687209770662e-01 5.731222864952404406e-01
-7.537239613255160009e-01 5.924103805130951361e-01 -2.209040515143825267e-01
-9.027690668738048985e-02 6.759332668612015871e-01 -6.835395274260677723e-02
-1.852843983600398203e-01 6.347848314408577330e-01 -3.476834697496392068e-02
-4.049987116879454896e-01 3.096928471454415410e-01 4.795721656863817794e-01
-3.446828791684915516e-01 1.113119843345002774e-01 8.846121528820892754e-01
2.813676568365042763e-01 7.686046119332534676e-01 -7.003949465305121802e-02
-7.103760620643780888e-01 5.465937069095760936e-01 -1.135612563170011052e-01
4.319322154826116256e-01 9.153842682456929669e-01 -2.781748326348523759e-01
6.531408393557150416e-02 3.727237269093802707e-01 5.804551423090126283e-01
1.277830666365231682e-01 5.963986647858809942e-01 1.849671568074903460e-01
-3.452070263947009665e-01 5.569757667067157803e-01 3.799389993920108954e-02
-5.713726247710489980e-01 3.774642567609340915e-01 2.728327174553420997e-01
2.739167527287569293e-01 8.190074692705909820e-01 -1.692555870973393162e-01
-3.120679701370210335e-01 2.108153621396886279e-01 7.109396189145814615e-01
5.006796227426567603e-01 4.815063695716870207e-01 5.780586767094879619e-01
-3.544654706972564795e-01 6.222380397002604813e-01 -9.028989445110167933e-02
-1.086664290223203072e-01 3.135193419700499362e-01 6.112912813724056260e-01
-2.101282216277121362e-02 1.995465661410923408e-01 8.688515310027810079e-01
2.020616645307986015e-01 4.870245619995788311e-01 4.275207767257967473e-01
-4.111269151964829782e-01 3.889632238796560948e-01 3.261533432394002618e-01
-8.822207456263581049e-02 5.681477042552515178e-01 1.373083504972892332e-01
2.723808974363569613e-01 8.565032968307708661e-01 -2.411852990708053812e-01
1.902717632288737637e-01 7.436632543055898825e-01 -6.539857627918048422e-02
-3.377936989058289430e-01 1.482890310900926434e-01 8.176191920298570004e-01
4.871355514154341870e-01 4.066203940114611060e-01 7.139242479873747493e-01
2.905929093815523001e-01 7.367721166995941928e-01 -5.258683558639212254e-03
4.875751490556010648e-01 9.745334313498371648e-01 -3.644089298906419971e-01
4.218939387690192055e-01 4.018251550307612163e-01 6.924313206175355395e-01
-7.140649791645119482e-01 5.107272746801018171e-01 -4.717650301725166695e-02
-5.776034612777863897e-01 3.850850619253894380e-01 2.554374412542430584e-01
4.024127065355024846e-01 8.176827212495049180e-01 -1.064723971876661707e-01
-6.819830702568678397e-03 1.970057754065941136e-01 8.803336306171640757e-01
2.596691808118228306e-01 5.622504747748082732e-01 3.116763103704545679e-01
-1.398936144438321094e-01 5.763465959415933204e-01 9.750256172697895074e-02
3.402322425613206192e-01 7.583842111780578765e-01 -2.302091121948307562e-02
-7.182187470392425999e-01 5.385675474682548591e-01 -1.019969402939581438e-01
-1.916526586105292973e-01 7.377869907577208064e-01 -2.333694458763261037e-01
-3.959995099036647259e-01 3.419207813627234693e-01 4.225880206135642081e-01
3.445004464970642943e-01 3.728757125233232439e-01 7.111108203438041286e-01
-3.881430173358822455e-01 1.204477944953314811e-01 8.468783576684163483e-01
4.885761517014830524e-02 8.098011630267640815e-01 -2.573291392512854214e-01
-3.509734739233414946e-01 5.607019935276981171e-01 2.821273346771029436e-02
-7.075425622394150293e-01 5.442528764312295486e-01 -1.077867489642386351e-01
-3.876833667120511140e-01 1.755682936812877903e-01 7.424130788332418129e-01
-2.161551013764986540e-01 1.609886518160109914e-01 8.505520699630506609e-01
4.033282606368205903e-01 6.664715443230618819e-01 1.811263458952910299e-01
-5.919291128461483531e-01 2.655393453376011514e-01 4.757509843793662485e-01
-6.495737232388484328e-01 2.883493641132984231e-01 4.053953033903228143e-01
2.430561471059604906e-01 4.299744550734502790e-01 5.550934935999662923e-01
-3.089684150267841267e-01 4.402862617349030394e-01 2.765988430105835727e-01
9.786251592440808889e-02 4.139420973595182018e-01 5.174420989136354621e-01
-2.940638753209044443e-01 5.897960247424965941e-01 -3.487387188625152711e-04
4.076680581565828576e-01 5.858507526159442147e-01 3.362709784786890865e-01
-1.346489049128744009e-01 7.861128742397401892e-01 -2.984104999495149069e-01
-4.984109590730042560e-01 7.214275125593631044e-01 -3.461768493610577480e-01
-6.250189954054778951e-01 4.505905982226357520e-01 1.087951753753702289e-01
-5.745038813511057496e-01 1.580768533986741387e-01 6.880087780787498275e-01
-7.196448965096804984e-02 3.823730216182265051e-01 4.977433407947017274e-01
-6.677225767358678787e-01 4.128604023824936076e-01 1.604207497207369437e-01
1.332426804851895852e-01 4.947129103317814414e-01 3.806420604098195160e-01
-4.368835644248319494e-01 1.229327484031919049e-01 8.192987638963253882e-01
3.894140696332059615e-01 6.182814859040085542e-01 2.661193685151604926e-01
1.871477800543336623e-01 8.012268767021899496e-01 -1.761844581483943684e-01
-3.520679522342309298e-01 1.283507705978792213e-01 8.487895668647460479e-01
2.765017925964754486e-01 8.405231717459455965e-01 -2.089042143653738470e-01
-3.648554432858269192e-01 2.833696921797345114e-01 5.483912406631221703e-01
-6.420382688998169662e-01 7.373163249883624148e-01 -4.437159833551668764e-01
-6.269316906254051025e-01 3.772332695162426974e-01 2.472130129133932319e-01
-1.891014323130017771e-01 2.092454060340702138e-01 7.715950770534411030e-01
-6.030490664074450446e-01 4.252358601906716662e-01 1.672514218143921483e-01
-3.812317501026081801e-01 7.893686351383090161e-01 -4.202461833531755397e-01
8.167396600849465005e-02 8.677324535133705830e-01 -3.519564917749997690e-01
-4.619930409045981401e-01 6.164493119443282820e-01 -1.297290696570645441e-01
-6.944739141810862826e-01 4.311963569080830005e-01 1.130514873405596282e-01
-4.150906077259708393e-01 1.214549178817830033e-01 8.323267110560176318e-01
-3.182349725700995280e-01 4.352341323980680743e-01 2.818472697994726661e-01
-6.248531834936084106e-01 7.484925363610149818e-01 -4.568808664310837764e-01
-7.303862422465307036e-01 4.358355689705522007e-01 8.739738878274802558e-02
-6.705798100052879906e-01 5.244709672118061938e-01 -5.288206418081681237e-02
-5.312642174846966547e-01 5.996778767072651339e-01 -1.303676222821911479e-01
-6.314808269758909187e-01 6.522743228993338471e-01 -2.772587009030546557e-01
-6.476269087042197947e-01 6.135658526262397494e-01 -2.113192286338617942e-01
-3.793868935920800545e-01 3.126883213477459345e-01 4.858958629984893030e-01
-1.143303169166378641e-01 2.727984714516276110e-01 6.859689295685030830e-01
-5.413767688632915576e-01 1.652141250105257919e-01 6.899915056306911154e-01
-2.224125674981972667e-01 3.194687789443764192e-01 5.466431925855630425e-01
-6.655877535849737958e-01 1.544396840598154796e-01 6.521959614484601486e-01
-7.131420455891469556e-01 6.661965052441455315e-01 -3.419995438816093580e-01
-4.001272610953348630e-01 7.872871923472730682e-01 -4.251556526971737027e-01
-4.859636749523182364e-01 7.930462018161224536e-02 8.791345375032846299e-01
1.201500630048863150e-01 4.658089519240536380e-01 4.293936524035432689e-01
-6.244328786414707899e-01 6.837042394644791132e-01 -3.336424877802995348e-01
-2.099216104931524163e-01 6.308645492075837247e-01 -3.887860493210365531e-02
-1.300947894202293953e-01 1.507530110077101859e-01 9.103549678996957217e-01
-9.631610513980295996e-02 5.311442636485860236e-01 2.037863363220266122e-01
-2.884077880303445932e-02 1.908597610995583782e-01 8.816774052604974266e-01
-4.146975103020168474e-01 4.068123443983621135e-01 2.905808999891897892e-01
-3.313403203075285242e-01 4.690929813979798912e-01 2.113983073774846622e-01
1.205175768030392197e-01 5.667552154923909402e-01 2.378561827016365260e-01
9.801284932638516800e-02 8.597216410823804722e-01 -3.290796539100705465e-01
-3.500990890839769665e-01 6.659421358974296767e-01 -1.712416269851472217e-01
-4.026647547851406328e-01 6.262628287872472610e-01 -1.205399679926661832e-01
-3.319623477146598639e-02 7.548439002874466341e-01 -1.914432751783697040e-01
-1.323234481182667677e-01 2.685265601302960770e-01 6.856426748392021597e-01
-4.670111692612543552e-01 3.338473609163967182e-01 4.046145042082761600e-01
-6.606555274694694835e-02 6.051554859453681656e-01 7.741772668115000366e-02
1.169074901209710277e-01 8.862271381092214906e-01 -3.705549897103730395e-01
-2.241901983224532380e-01 6.186782705236710811e-01 -2.242757594099582807e-02
-1.608622789281513241e-02 4.951147292954124479e-01 3.098405335988834164e-01
5.854655329988641549e-02 7.625069759437836936e-01 -1.629671231120740083e-01
