-5.057531245575518780e-02 2.930543176666496330e-01 1.359024003046268025e-01
2.330959530302874338e-01 6.013157692899294693e-01 2.456483470896116683e-01
1.646964023538860511e-02 5.826330372457536599e-01 3.543377498841367435e-01
-2.737058469962367832e-02 1.428124425041922552e-01 -1.096596980599298839e-02
1.052177833839864629e-01 5.332531082663751754e-01 2.591507489581503787e-01
-1.208970608307780997e-01 6.494033032218317347e-02 -2.604352058619789634e-02
1.591916658673942775e-01 5.099796555127855680e-01 2.072634638576499877e-01
-6.405683354010116570e-02 6.221325693219093705e-02 -6.133878442458391700e-02
-1.147984011349735267e-01 -5.858923254945350712e-01 -6.076544747065960594e-01
-2.557952300446211247e-01 -6.768598152911681209e-01 -6.069095898156242619e-01
3.400556600072456859e-01 9.394989691508054408e-01 4.841709356212120507e-01
-2.998421616903652540e-02 -2.388823986111501471e-02 -1.575216055530458126e-01
2.776434988929699643e-01 8.260561857149711917e-01 4.195040588124579473e-01
-5.757680343248767346e-02 -2.296182256898229856e-01 -3.242975783232528442e-01
-2.062163416735100230e-01 -2.240791291286259590e-01 -2.334133351305760773e-01
5.762233194374790507e-02 7.009540043261258679e-01 4.356327531090131711e-01
-4.567247784130219063e-02 -1.233175401806126531e-01 -2.367637322211497142e-01
-7.493284846037057134e-02 -4.972289613268057185e-01 -5.519576004831138194e-01
1.498427998306126573e-02 5.320584949168966071e-01 3.102753755579887862e-01
-1.187667194092628942e-01 -5.093465353135562257e-01 -5.373697836487477675e-01
5.090518903297541059e-02 -7.570925868001295023e-02 -2.503318079757497761e-01
-1.038702243830549876e-01 1.620772829949091998e-01 5.038834029838429318e-02
8.222016634112754019e-02 1.896144657371151010e-01 -3.277617818437569136e-02
1.480024294325036349e-01 8.973006323063200673e-01 5.577616482431374534e-01
-8.963984741011447877e-02 1.897173075828813282e-01 6.670881052905849873e-02
-2.727280416912509220e-01 -3.891827183267232426e-01 -3.415955433544798359e-01
-1.571983589746230869e-01 -9.770927231970726046e-02 -1.495179493460964126e-01
-1.196198235106136348e-01 -5.497086006742156472e-02 -1.332899503289173282e-01
7.727736254898429080e-02 7.626635786239057690e-01 4.790772472009136584e-01
7.008092547104648184e-02 8.899480595660056448e-01 5.962961096481448342e-01
-9.377843794896599527e-02 5.647915259419943046e-02 -4.924272797516231898e-02
5.598226284037445891e-03 2.211879941180011980e-02 -1.372359184197742554e-01
8.614394403145331225e-02 6.275912485765269277e-01 3.539751337315690249e-01
-1.743329937361281501e-01 -1.534876510799069484e-02 -6.645388216423217531e-02
-2.609385604309629181e-01 -6.469147504468391041e-01 -5.773371285682249443e-01
-3.357564063157609802e-01 -6.832220965207255192e-01 -5.663159042222364326e-01
-3.583704444373848191e-02 3.006341363727896843e-01 1.341112212771991552e-01
-1.583489461907123252e-01 -1.973760283146366035e-01 -2.373787183203053541e-01
-3.336734369982972265e-02 -4.458308652635641946e-03 -1.383069137813202343e-01
-4.765712211380394815e-04 -7.973189886298949480e-02 -2.241886415919020770e-01
-1.810117551511741252e-01 -4.701915501396051189e-01 -4.665926282003697856e-01
-1.148879802450141624e-01 -4.432610349097035884e-01 -4.809144243470120927e-01
-3.538975617691721975e-01 -5.863102997322927612e-01 -4.697449503401604498e-01
-2.513113595271484479e-01 -7.571736272338626117e-01 -6.808392853621010321e-01
-2.335306362334505503e-01 -4.931662817911111607e-01 -4.566254821983293244e-01
-2.388730050761998097e-02 5.359147834111721576e-01 3.361816330953853460e-01
-2.561700745337014973e-01 -4.729697185887657973e-01 -4.255931426244033977e-01
2.299671532144065556e-01 5.561811529147853150e-01 2.073683024077835058e-01
-1.172117561816993087e-01 1.408022283821127041e-01 3.920732076444493480e-02
7.121190962536876057e-02 8.255987225870097257e-01 5.384855218702180313e-01
7.802775715601778517e-02 8.782598532083081277e-01 5.813184119233940628e-01
-5.832451695801244007e-02 -4.019780935678336498e-01 -4.769589631721433687e-01
2.567226803139529001e-01 6.847244711486137891e-01 3.060694887100987582e-01
1.649949930591412817e-01 6.121633258671395073e-01 2.946689424734634244e-01
1.815554111444560026e-01 5.432279795366322661e-01 2.238614907541973953e-01
6.083123635928684020e-02 -1.564501826209527963e-02 -2.027220684571348908e-01
-3.208033196685873834e-01 -8.211592333125320442e-01 -6.974826756424634677e-01
-2.455556975962016053e-01 -6.083391237694550924e-01 -5.519699460120175427e-01
5.203467567740140826e-02 5.511837472787850523e-01 3.058350923710835279e-01
-2.145165593094803536e-01 -1.272525860887297744e-01 -1.426095204611388945e-01
-4.980346065780493544e-04 2.557397343698142311e-01 7.379703993670154449e-02
-3.777970943954287453e-01 -8.053188919235182430e-01 -6.504511165924582450e-01
-5.912742093087645923e-02 -4.827414217213585879e-01 -5.482303719731770331e-01
-1.181198121361841519e-01 -5.960280719530268723e-01 -6.147363599990979255e-01
-1.486954020712859537e-01 -1.181354331054114137e-01 -1.725785198490242256e-01
9.551459023173999863e-02 5.703742542002528948e-01 2.977343172155912931e-01
2.926626417698227067e-01 9.162162534487929832e-01 4.909000282734987120e-01
1.571058173185615678e-02 4.571368055653013962e-01 2.433082366448258427e-01
2.146536681020683526e-02 1.080058484199223068e-01 -7.012576954779781158e-02
-6.625109851183122456e-02 1.794709689420392190e-02 -9.938792666981367818e-02
2.354366940906816308e-01 8.860621784351113694e-01 4.972126121481048600e-01
1.382649032996438078e-02 4.245949736726841728e-01 2.154935140096624901e-01
-6.523479167960978542e-02 -4.727448861245267531e-01 -5.358190884945032151e-01
-1.692250180342469712e-01 1.036526952523926653e-01 3.629167676657799740e-02
2.449741215215373025e-02 -1.369187245172152068e-01 -2.894267066816691991e-01
-2.444082943741863745e-01 -4.947512805125506841e-01 -4.517423203246835328e-01
-1.303968681635194193e-01 2.114184497980986233e-01 1.095556857030586945e-01
1.815713452226354330e-01 6.657397473987587411e-01 3.326699168274342422e-01
-2.711637558310887597e-01 -3.231124182382584809e-01 -2.838151427399824844e-01
-2.132630745842705178e-01 -4.069314793961899546e-01 -3.917513938102981097e-01
1.580588699289875720e-01 5.090978217334973799e-01 2.071353417452757584e-01
-2.152771250830835259e-01 -3.091463194889966237e-01 -3.037316609609292395e-01
9.175213550943596419e-02 6.693197429843718016e-01 3.877958529826701639e-01
3.009536449064255104e-01 8.823422336309970637e-01 4.560173556840617648e-01
-2.284857120443099243e-01 -7.785537280592653708e-01 -7.130305613827863098e-01
2.106822301313734935e-01 6.987309424590829599e-01 3.451374106112032880e-01
-8.816994228296180791e-02 8.558237102967726495e-02 -2.663623189708424696e-02
-3.093433107624688483e-01 -7.532030795521751365e-01 -6.437503178910963797e-01
-7.847670687603801321e-03 5.276071579784387122e-01 3.195262469361486168e-01
9.370632402934327143e-02 2.552403075541817001e-01 1.887122244244894900e-02
-6.710273998918497851e-02 1.222084028733166211e-01 -6.288207183747907165e-03
-1.053759459106681368e-01 -1.942515547698523692e-01 -2.652399349132876227e-01
-3.215671203649670962e-01 -5.785712373128334418e-01 -4.815689556514374803e-01
-1.229923385471940467e-01 -2.006445991122431799e-02 -1.003348567603436770e-01
1.314529505413005450e-01 5.235555069349199231e-01 2.353642613952999507e-01
2.017360426490806546e-01 4.965284486809261044e-01 1.707106616267036470e-01
1.090955096094958221e-01 3.282553190100465090e-01 7.482456581664338746e-02
-1.830141126133683072e-01 -6.267148156572632800e-01 -6.044619835479941861e-01
1.898322284331733223e-01 5.003686961864363125e-01 1.810061141183512690e-01
5.421596802331466597e-02 5.021026880843636464e-01 2.609786880814842780e-01
1.302645463378352547e-02 -6.159598596112243751e-02 -2.158892752182002828e-01
-2.833293678688679207e-01 -8.526827404295046486e-01 -7.471552584983953693e-01
1.773108479105221444e-02 2.779292696443911859e-01 8.296363038675678980e-02
-3.459036076834533235e-02 5.249160488019851689e-01 3.326023310562779001e-01
-5.418533063724641913e-02 -1.355809320815299923e-01 -2.427330167661814753e-01
-1.288525263354631419e-02 3.612574391885952085e-01 1.746842139795866389e-01
-4.179408589636294802e-01 -8.343995159074999446e-01 -6.530643918548453275e-01
-6.511947787034461088e-02 -4.135421347446097684e-01 -4.833005958641765631e-01
-1.584245681786244919e-01 -4.261080192328233762e-01 -4.404997581418624852e-01
2.583555295675660779e-01 8.369805076227723184e-01 4.403622991934424413e-01
4.488023221630137172e-02 7.640054387019589166e-01 4.990056961267287372e-01
-3.145222882090343425e-02 -2.851944685802819124e-01 -3.887705222026549556e-01
-2.786279606874293435e-01 -7.967861896778536401e-01 -7.002257303343619732e-01
-1.460019808016933263e-01 -9.625172815776561475e-02 -1.546986479267957459e-01
2.592777354307537196e-01 8.311471819649913773e-01 4.346476621068397495e-01
-3.940147923326383639e-01 -7.723819720187682369e-01 -6.118164664186556134e-01
-1.067125849720408498e-01 1.436749040468619509e-01 3.568679621723650636e-02
-2.222422842226056405e-01 -5.050783444985770254e-01 -4.737345512835564598e-01
6.557333534672359077e-02 2.802158277165327505e-01 5.732548031546644968e-02
-7.450906713052975194e-02 -4.351670682026790860e-01 -4.970779547210125715e-01
-1.535530596540055359e-01 -2.198255005544751117e-01 -2.600924887624335158e-01
1.468690378560996990e-01 8.352372043519368239e-01 5.032910357047476468e-01
9.729818395523361085e-02 5.547902886051534477e-01 2.828607720395767688e-01
2.769893651297856696e-01 7.677461914586843905e-01 3.680901541703001101e-01
-1.372900677363040299e-02 1.843900941517510050e-01 1.807473317441269864e-02
2.376098752457169727e-01 7.864250246241295539e-01 4.074558659246950154e-01
1.780210297686400378e-01 5.337016231127984511e-01 2.174440485044455695e-01
7.208107930634763405e-02 3.153674276581370228e-01 8.478420971540820417e-02
-7.547716659356451530e-02 -2.950630390278535242e-01 -3.720745893357627065e-01
3.747739787109037601e-02 3.031265084426146630e-02 -1.483949824405599027e-01
-1.204555715248058767e-01 -2.740999543497931179e-01 -3.274418747454449496e-01
-4.577440206419094298e-02 5.149756780119904009e-01 3.302412619061245724e-01
-1.347314662105617844e-01 2.165875196538196712e-01 1.166538415230986420e-01
6.732543641223867614e-02 6.030255460649559529e-01 3.430388465861408664e-01
1.753063956328881068e-01 9.243692779090025846e-01 5.660136182444387432e-01
1.590686130961434797e-01 9.064617142318301957e-01 5.594986977847994369e-01
7.454183241643469460e-02 1.431193001942434873e-01 -6.963351171612774948e-02
1.017015098346630148e-01 7.615272123378901137e-01 4.639424230459996967e-01
6.368559069570592368e-02 5.280007642308878202e-01 2.785052594910442103e-01
1.400730846883021796e-01 3.452578737072161674e-01 7.201101535474349613e-02
-2.166740498540358217e-01 -4.949019040159831628e-01 -4.679159500865324173e-01
-2.899367499551780969e-01 -3.664785100403041840e-01 -3.114766706366357552e-01
1.051116630563297683e-01 3.801359549477785760e-01 1.232101061010882348e-01
-3.996948074788200245e-01 -7.087417878698221152e-01 -5.520048739381224756e-01
-2.536858560079949809e-01 -7.546777730752857183e-01 -6.772491449334128166e-01
9.117539224593433286e-03 7.355171806722697880e-01 4.943848212626581473e-01
-3.246028321343816941e-02 2.860446136607973366e-02 -1.094644257146412392e-01
-6.409763333516925454e-02 -4.306837958293715518e-01 -4.991171697999571832e-01
-2.262009408411801842e-02 5.539041897152267857e-02 -9.136353217160861351e-02
-3.391496366671282181e-01 -5.077254724332455060e-01 -4.084735072342439155e-01
-3.009938201589527629e-01 -4.002022474640309913e-01 -3.350360806371484035e-01
1.261708218029458373e-01 2.224227555493363817e-01 -2.905358829084621688e-02
-6.701476674913194043e-02 8.056032410499302382e-03 -1.077317268268475209e-01
-9.441692839555186623e-02 -4.490852339997744025e-01 -4.979268484781182447e-01
6.435345458756824844e-02 5.071274047804068541e-01 2.595788305709905708e-01
-2.542536144010077576e-02 -3.118879895416316606e-01 -4.159658762129104792e-01
2.105036357694199944e-01 7.489990897185025975e-01 3.898899708037742995e-01
-4.011204570275599401e-01 -8.380594821445536136e-01 -6.660431773981725367e-01
8.176182580941689093e-02 3.371127373156855289e-01 9.850010126843398994e-02
2.167287724073662103e-01 6.520174796293931596e-01 3.001485259946025663e-01
2.169216630481522745e-02 -9.323470973120683014e-02 -2.490032179921302102e-01
-2.296319702866311541e-01 -5.816420897366576526e-01 -5.374663941270066969e-01
2.087048683067271176e-02 3.650158454044841183e-01 1.585001945596237194e-01
2.189244111046956265e-01 7.800638847813086141e-01 4.126123264797564305e-01
-3.628585816030802658e-01 -7.475276312441436755e-01 -6.077592004056352470e-01
4.336606431087000613e-02 6.570815391022083451e-01 4.049092464193234098e-01
1.333826536109312261e-02 6.867682738659224295e-01 4.486439544291161985e-01
4.935383251386886438e-02 1.031597216276117501e-01 -9.055924078780404340e-02
1.839414331022470595e-01 5.883934189487044497e-01 2.625984918076295638e-01
-7.498122167936749349e-02 -2.380186492809040766e-01 -3.216933353481468694e-01
-1.765566951348754576e-01 -3.603916287106544991e-01 -3.716424704050593775e-01
1.852389702081010669e-01 9.278102994457638752e-01 5.633255968758801302e-01
-1.909314889627202472e-01 -4.849330215447265058e-01 -4.739493407908285105e-01
-3.727832005698368811e-01 -6.955148704227070988e-01 -5.558205133652158736e-01
-2.751666226546061744e-01 -3.415202254168636098e-01 -2.978503402953284196e-01
-3.240594655465771634e-01 -6.872533170873967867e-01 -5.766613398427410386e-01
-2.009065070192975200e-01 -1.193728230423028586e-01 -1.434817892603172107e-01
-3.025044822398553768e-01 -6.324159579902490780e-01 -5.404197181338666889e-01
6.746782448927000908e-02 8.846383088625667801e-01 5.930911351985370672e-01
-1.939377760200483303e-01 4.242991865567106481e-03 -3.771380987276088531e-02
-1.058740771031442540e-01 -3.290942631682723385e-01 -3.847220988188090884e-01
-1.534476606671885401e-01 -2.524438966318080513e-01 -2.891258206705012435e-01
8.201324089308158205e-02 4.700743865212032024e-01 2.164541530782632117e-01
-2.375501850797601677e-01 -2.095347047084617775e-01 -2.023730208700171562e-01
-2.824291316205821412e-01 -5.469048196248121885e-01 -4.760772405580933619e-01
2.120321934185648294e-01 8.608607348669899961e-01 4.883639123185408715e-01
2.157485810795922998e-01 8.920454924877911917e-01 5.139135602781732537e-01
5.797264734864206182e-02 8.827111224506329901e-01 5.968708134115214836e-01
5.800189123992531559e-02 7.386361672342495188e-01 4.688833627503931623e-01
-1.856405571389977138e-01 -3.000342449250769095e-01 -3.127781500584382313e-01
1.141173142022330333e-01 5.779269312118856528e-01 2.936840581375513293e-01
2.027179530290013632e-01 6.953104624665410460e-01 3.467053308728133554e-01
-1.790598450300286970e-01 2.885196875257029295e-02 -2.446008959267476426e-02
-2.600117816011074390e-01 -8.225700136671030283e-01 -7.338939829926639513e-01
-1.253030413659866615e-01 -2.812366153040234962e-01 -3.309773245092782479e-01
3.681029315109276417e-02 9.656280301648668962e-02 -8.916432924560450946e-02
-2.057795747234701933e-01 -6.331687595367504473e-01 -5.970283246542161804e-01
6.110742484126197027e-02 9.065589970563759925e-01 6.162400496671381900e-01
8.061950663439748643e-02 1.584636276708865921e-01 -5.951930965779074489e-02
8.904525015353320638e-02 3.592228899536540898e-01 1.139265233640048558e-01
-4.201855608773714945e-02 5.679490106118275650e-01 3.751211800802567442e-01
-3.164694226446180814e-01 -8.490337734198032393e-01 -7.247479231042491810e-01
-2.533567378821834359e-01 -1.856436541124801831e-01 -1.720108923459082451e-01
-9.909631217563830141e-02 2.317075020174481914e-02 -7.575243895884974099e-02
-1.142125223157372388e-01 1.247961642339488475e-01 2.325580420557803521e-02
-1.047876124548523941e-01 -5.602728227964153263e-01 -5.906883166817088471e-01
-3.309465555892995292e-01 -7.814206454706779104e-01 -6.563197433813908743e-01
-1.127388929182107369e-01 -4.039036487038311779e-02 -1.243187567294568169e-01
-7.302535730775890077e-02 -3.588062932831430629e-01 -4.301107280787088705e-01
-2.019215587768744824e-01 -1.543715129211866155e-01 -1.739813480926196698e-01
-1.595301938491070215e-01 -5.833605767139877774e-01 -5.795355031205985386e-01
-1.022450865566089384e-01 -2.718004383632477983e-01 -3.359312589720582221e-01
-1.418555295339202216e-01 8.139628606112175868e-02 6.941561810018556742e-04
2.524394702808368529e-01 6.736040419044718730e-01 2.986692340879244512e-01
-8.851668058162256991e-02 -1.407744695937137580e-01 -2.274908134916885094e-01
-1.154008216382207581e-02 -1.154845278195762784e-02 -1.572281293569797456e-01
5.773713549056935096e-02 9.020598845165189728e-02 -1.069134363280138944e-01
8.571445017078874185e-02 7.912792093655021120e-01 4.996147673072550144e-01
1.945539334066331283e-01 6.314500836882886992e-01 2.947047255828579293e-01
-1.957188627923588942e-01 -3.900373932432017465e-01 -3.868922275565484514e-01
-1.195489121591594428e-01 1.629815722816677082e-01 6.025917330861297466e-02
-9.588633113584965617e-02 -2.557043408077764868e-01 -3.253118789303601766e-01
3.676518383711339238e-02 6.578953187441219930e-01 4.094496212581649752e-01
-1.455353860884866513e-01 -3.658988298978291254e-01 -3.944749732757742988e-01
-4.260920880116901288e-01 -8.230506536213622049e-01 -6.382698956671593038e-01
1.971971658697938556e-01 4.752465744997683705e-01 1.544326510509728689e-01
-3.825165219873851719e-01 -8.422416053546417647e-01 -6.805172440277821311e-01
1.667080672028317390e-01 5.641384963176856449e-01 2.510214941865899219e-01
6.252509352952694693e-03 2.987147005826009671e-01 1.080642338605754121e-01
-5.108875483911023974e-02 1.611764237880164152e-01 1.906250481948961253e-02
-2.562277591533853593e-01 -3.719707068788856152e-01 -3.358502420895506102e-01
-1.438205789725730509e-02 5.544789195997966713e-01 3.471734375911039172e-01
2.060543828211942041e-01 6.194004637814376490e-01 2.773508106107003268e-01
-1.132746274954146981e-01 -1.015136479057030527e-01 -1.782999612872611661e-01
1.324748441758274442e-01 6.956916587622924419e-01 3.876683672185169405e-01
-4.112256382670669702e-02 2.402077560060148290e-03 -1.277282086465194033e-01
1.570634165432910345e-01 3.809503594993471354e-01 9.388766411648812038e-02
-8.792813657044250275e-02 -7.381413517250715040e-02 -1.683555536127644137e-01
7.723793879146456653e-02 4.913712254700480786e-01 2.381322245137520999e-01
1.648610005116276506e-02 2.223250440933549621e-01 3.429476207456674808e-02
6.014563022087868541e-03 -7.900059120589358885e-02 -2.272931652635994948e-01
-1.755476362491739661e-01 -6.836796951686681112e-01 -6.593776071725004906e-01
1.322589867704254685e-01 3.629658672698952149e-01 9.225885487072006674e-02
-1.777698168926259564e-02 3.803380026565938432e-01 1.944610753320871743e-01
2.445776360353447976e-01 7.837639896819089680e-01 4.010625365578294188e-01
1.174465415703749294e-01 8.868331913967270053e-01 5.661359513354433659e-01
-7.643296911731332910e-02 2.781315755886821783e-01 1.376022287364169483e-01
-2.361628155822963204e-01 -7.576618925632561119e-01 -6.900339930018694057e-01
6.918926740393058217e-02 1.112865038467651807e-01 -9.481249392680241028e-02
-3.376174877379931744e-02 4.545344544531976783e-01 2.696086340014381966e-01
-2.186557153540813758e-01 -6.232179572348629515e-01 -5.807430073144335125e-01
-9.337906738784029770e-02 1.022081280947856330e-01 -8.856220419310027389e-03
-1.283588062558946863e-01 -4.165846530323715630e-02 -1.164114796034750460e-01
1.517494809064633687e-01 9.212117189297940323e-01 5.768329278315104114e-01
-2.182018855369684540e-01 -1.907108061904307372e-01 -1.968431303037285751e-01
-9.851284461855802643e-02 -4.759606168453880404e-01 -5.194293183519622659e-01
-3.727700464851597950e-02 2.651151144400769599e-01 1.033952339461090136e-01
-2.063941394638481586e-01 -7.229847471045585117e-01 -6.764494285020372644e-01
-3.273714103378252277e-02 5.466569499197846405e-01 3.508412842343262561e-01
-2.611299642043231062e-01 -6.957577036625092193e-01 -6.206098151433572241e-01
-5.490689158082059235e-02 -1.928543889259128619e-01 -2.931872502432972816e-01
-1.813521964683863785e-01 5.210158726221615633e-02 -2.483507935795904557e-03
-1.241167836755362464e-01 -4.749793820082939128e-02 -1.240515619598237668e-01
7.807288490168452777e-02 5.582020974759415166e-01 2.970099886688013502e-01
1.034052114331242278e-02 6.462289110844435802e-01 4.143697200692856852e-01
-3.008445328655423578e-01 -8.296526623349133045e-01 -7.165697046596336550e-01
1.317019632577727251e-01 6.286209063463977786e-01 3.285416411905431877e-01
-9.577380155742275247e-02 1.697635822872806399e-01 5.253298912400884008e-02
-1.383361750268214119e-01 -7.631621286944723082e-02 -1.414249332074311027e-01
-1.756873394588516143e-02 -2.426275880343313485e-01 -3.589910748207095215e-01
6.937576389913707731e-02 9.447994324925098608e-01 6.454241267358578060e-01
1.261362958846066196e-01 7.498189957595107202e-01 4.394112965744284560e-01
9.303392154888062704e-02 7.755531818580569947e-01 4.814134162105900283e-01
2.925513831860429570e-02 7.851174763630041076e-01 5.267944992897913847e-01
-2.483024478492095732e-01 -3.157616171910271885e-01 -2.905076249804920963e-01
9.843494694430497682e-02 9.579840829927697143e-01 6.403289141719717970e-01
1.689970729043938913e-01 6.289065936492520548e-01 3.072261147410820792e-01
-1.861921104466388865e-01 -6.898605305615872485e-01 -6.587114280782372377e-01
1.482260069295700255e-01 5.338584741247794918e-01 2.348150416716617284e-01
-5.236459215027289976e-02 4.131409641400330401e-01 2.436008089424921697e-01
-1.549594217793437770e-02 -6.682514571998479647e-02 -2.040382664827110615e-01
-2.520355537831414083e-01 -8.173096089645425222e-01 -7.338345533250625330e-01
-1.514377823174697657e-01 1.411307652198617035e-01 5.929343864215183557e-02
-1.962164963922506944e-01 -3.600523179863406864e-01 -3.599710237591995932e-01
-1.360909109857596222e-01 -1.843099832091797761e-03 -7.657480709095340621e-02
-3.688374328653288292e-01 -7.220170182214934451e-01 -5.816423008679366680e-01
6.467855264140605354e-02 6.200017575802231340e-01 3.596482909275128814e-01
1.384662976727963624e-01 6.140145481218196588e-01 3.116558632333492618e-01
1.267951131340654125e-01 6.371944814565791981e-01 3.389947099800668107e-01
-3.761989146644987847e-01 -7.409978750839016914e-01 -5.942440699623571243e-01
-1.844058769687540247e-02 2.786102207996134505e-01 1.044880168890912758e-01
-3.224600893947726643e-01 -8.671829907736501308e-01 -7.374038098807008668e-01
-1.413121177117810101e-01 -6.582285172135790008e-01 -6.565711063380550438e-01
-2.195574153957780272e-01 -8.111976234620967841e-01 -7.471891832471112549e-01
-7.184408571735007021e-02 2.126710805847237262e-02 -9.320436768808726402e-02
4.210750861271012752e-02 8.301143067608760528e-01 5.593286227905758246e-01
-2.642732168064920173e-01 -7.386749724147221308e-01 -6.569120043601174297e-01
1.931869832372374030e-01 4.221286820435335430e-01 1.095714248814425029e-01
1.182999133061601177e-02 -1.644679638735085658e-01 -3.065704606466855275e-01
-2.885124815898222894e-01 -7.723092212089250896e-01 -6.727681288265199289e-01
1.761896963130938909e-01 4.285438907405073050e-01 1.250997770459316982e-01
5.116713413150555945e-02 3.435706067228214700e-01 1.219302783280084984e-01
1.359823498460767388e-01 5.347807256644859786e-01 2.427152110604986757e-01
1.720236002398665698e-01 9.296943834316141464e-01 5.726420680754269465e-01
-1.329735024084361117e-01 -4.094307141373829673e-01 -4.404059971234582926e-01
-1.096868240054326704e-01 -6.655851627590149144e-01 -6.813956352007615180e-01
-6.899006909153114486e-02 -6.272482787766602008e-02 -1.694584428454202762e-01
-1.561968465900593628e-01 -4.192767373266847453e-01 -4.357204456879866794e-01
2.286003886028670218e-01 6.471473984652315048e-01 2.889569740680382748e-01
5.925764074620316901e-02 9.264616239048743818e-02 -1.056253903614136347e-01
-1.411916239144031804e-01 1.005822465259508941e-01 1.735158375847148729e-02
3.160251131750220210e-01 9.151671987835999778e-01 4.764567665989546952e-01
2.229630397196646074e-01 8.084655246857677113e-01 4.355035831311348526e-01
-1.591670248475638705e-01 -4.966450972045972634e-01 -5.027229461976804314e-01
9.600727554167742817e-02 1.398156873014330948e-01 -8.498219281510629997e-02
-6.051516209613277963e-02 -1.847509602093155567e-01 -2.827461158333575697e-01
-1.343347380115048617e-01 1.831411635447309505e-01 8.671660979738439468e-02
-1.440550135111021701e-01 -1.085627473414379762e-01 -1.667595758423955909e-01
-1.814783465225870696e-01 -3.065962698140625720e-01 -3.210138604459836231e-01
1.155596824035890480e-01 4.643964894519955200e-01 1.920096474767983563e-01
7.391542707663079081e-02 1.419843213424421269e-01 -7.027934913674847850e-02
-6.831693092479300400e-02 6.780317069508919048e-02 -5.390991257443045193e-02
7.823071772391759771e-02 9.255454957092555945e-01 6.232011771733362293e-01
4.435338914530638499e-02 -2.188433978798576957e-02 -1.987341609394293052e-01
-1.796503328335181393e-01 -6.709365485152004593e-01 -6.456861081430972371e-01
1.624638655759291506e-01 5.837078360950740397e-01 2.708580059131779350e-01
7.584336951115218384e-02 3.696709018888154619e-01 1.308418619236166869e-01
1.427041217888641751e-02 -1.555764267168331383e-01 -3.000841968966434514e-01
9.392145825215827970e-02 1.497008696088877044e-01 -7.499564385416267187e-02
-2.821734772730911112e-01 -3.213236580421063304e-01 -2.758589565569374291e-01
1.892696156115853956e-01 4.591961456676881270e-01 1.447611328915630324e-01
1.038926877252610848e-01 7.408917120537014123e-01 6.940072837960639118e-01
5.771135356200318006e-02 8.551588182709453090e-01 6.213641833891765387e-01
3.921120012463476939e-02 6.507812031736697200e-01 5.506592080618510909e-01
-1.090508610506500942e-01 1.840000075749366470e-02 1.512563104928348612e-01
-3.776082648669479291e-02 4.703422210734207742e-01 3.678973629908419141e-01
-2.183388167625381106e-03 4.842999585441956634e-01 4.408226662974613630e-01
-2.060841460617617305e-01 -3.777213514031954045e-01 -1.071887002033990871e-01
-2.038658111611148516e-01 -2.662314608365313751e-01 -8.424388644539140825e-02
-3.345911162119369342e-02 3.106426564960290126e-01 3.498736611953711662e-01
-1.980228750453820810e-02 3.967581125742490888e-01 3.912981520137418512e-01
1.274004929433127375e-01 8.415674876710075303e-01 7.574027888731027502e-01
3.738591800671799831e-02 8.077267169627727617e-01 5.731393833141871230e-01
-1.432369903453322435e-01 5.075165757411859851e-02 8.879404944774413333e-02
-7.127600438537962102e-02 2.634943932346425766e-01 2.669840306524470797e-01
-1.114955533504222857e-01 1.811701199423497097e-02 1.463577196180257389e-01
-3.333746437312704036e-01 -6.426282011023894958e-01 -4.038565586092515147e-01
-8.639101554054931520e-02 3.489236245521540325e-01 2.511962892744767917e-01
-1.069004303768619629e-01 2.521006181523108847e-01 1.943919063688624438e-01
-2.742419519341688927e-01 -6.220061871401910691e-01 -2.830771586395607331e-01
-2.255661605876861098e-01 -2.175833961756542534e-01 -1.192176004746044876e-01
-4.006621099380698325e-01 -8.394358587290973173e-01 -5.701216250751637293e-01
9.098274777806460156e-02 7.825854460551240344e-01 6.753216451160383160e-01
-6.532453877117701301e-04 6.666939234336911602e-01 4.741942004041442282e-01
-1.782473117200046031e-01 -1.299085706796325734e-01 -1.073101175849356693e-02
-3.928717983729838603e-01 -9.449638334032871567e-01 -5.722125833544845497e-01
6.964459833407440903e-02 7.253154900414980899e-01 6.234509126229980103e-01
8.116110311588814463e-02 7.001151267616051443e-01 6.421143633868124923e-01
-1.529683439507244502e-01 3.453961007508074554e-02 6.678572962536270807e-02
-2.862850699324820392e-01 -3.083365184423474403e-01 -2.548087617916226510e-01
-1.940340808407290119e-01 -3.941251717092412177e-01 -8.600338991341628658e-02
-2.777079639328549621e-01 -2.887349349172312896e-01 -2.345273297978986149e-01
8.197413174860897211e-02 7.505125775831934520e-01 6.521097074613921851e-01
8.082292616089543913e-02 7.247363248120362034e-01 6.455381336094724309e-01
-2.977912237089705982e-01 -7.248015130476279655e-01 -3.469074687491995879e-01
-9.857788243555118401e-02 3.185321175766147594e-01 2.219567056025777418e-01
-3.525468049616118371e-01 -5.934010966876497317e-01 -4.337167451394409734e-01
-2.239305532129128029e-01 -3.492965646472531716e-01 -1.378776575571214191e-01
4.275094194415356152e-02 6.025726888704783235e-01 5.496660508368361731e-01
-4.292359742681626372e-02 5.293633977981485605e-01 3.674679100604070214e-01
-5.077931711274018267e-02 5.101406182590502159e-01 3.486810800939323940e-01
-2.383565551297482099e-01 -4.355907754206554960e-01 -1.808583219650120866e-01
-4.002454088709043734e-01 -7.407733029014592629e-01 -5.528855630915020525e-01
-5.063828641668320640e-02 2.726115296544549538e-01 3.094561866573316000e-01
-3.077606488469196711e-01 -6.092275733182755948e-01 -3.474701915217562886e-01
-1.050290435836881003e-01 1.705769413009929347e-01 1.845470475246032693e-01
-3.595153354023638004e-01 -9.367634247090871336e-01 -5.046523691938694656e-01
-3.002291936654943871e-01 -5.380933480566345573e-01 -3.206931905066631172e-01
-3.402326874444935867e-01 -9.068365497148578314e-01 -4.614083860211956600e-01
-2.066205214431669213e-01 -2.724486803129560486e-01 -9.074466685471561933e-02
-1.633410142572929713e-01 1.358864112543205771e-01 6.305656751507809910e-02
-8.661335214582596698e-02 6.984196760600978882e-02 2.043394519668075004e-01
-7.508435656910775191e-02 2.266194966688713230e-01 2.532934363063219507e-01
-2.921091026884103381e-01 -6.934483968584533864e-01 -3.304167121063898982e-01
-2.702074652879237759e-01 -3.224478730794672621e-01 -2.252494715935726144e-01
-1.566631149013492375e-01 1.117934515039721299e-01 7.230191771574498438e-02
-3.491178777281353507e-01 -6.764693272730437634e-01 -4.407275268190467554e-01
-2.341203829106487111e-01 -4.020423807472261468e-01 -1.668719617297566848e-01
-5.847949429198805171e-02 9.276862993418516501e-02 2.639845388615127963e-01
-2.376409077342901133e-01 -4.714953424443754648e-01 -1.854095961437874640e-01
-4.214828451132446863e-01 -8.732001490166845237e-01 -6.170561851314678714e-01
-2.395286535269530726e-01 -2.084346990268574340e-01 -1.454047893312160888e-01
-3.371757973663982444e-01 -8.449812007670964853e-01 -4.450544419454706135e-01
7.219027662941925050e-02 8.140868367317342091e-01 6.432668977026351209e-01
-8.442534446719490715e-02 3.717413513506025446e-01 2.588921323251213158e-01
-4.119192692851341153e-01 -8.472606737645099750e-01 -5.937630005348696338e-01
-1.876660463135030044e-01 -1.132873037890110429e-01 -2.665824552877735579e-02
-2.794153330351294984e-01 -5.135893724471951582e-01 -2.753124070093417308e-01
-2.929989452209229017e-01 -3.681076650617037815e-01 -2.780734080917200979e-01
4.539658609415408302e-02 8.627256131261090699e-01 5.981838334858521344e-01
1.454960413013900444e-02 4.136212314565675396e-01 4.622745510704631688e-01
-2.733185306609505205e-01 -5.321887684834971655e-01 -2.663065869182069667e-01
3.232205580225429309e-02 6.611476171510328737e-01 5.387117019039846522e-01
-1.865504333537931422e-02 6.012157936889994669e-01 4.275793567165079301e-01
-3.385449357937787562e-01 -7.727996957702214509e-01 -4.357666123673162861e-01
-3.389697629881891633e-02 4.726822428148290123e-01 3.759544086742300784e-01
-2.368727122271286900e-01 -5.112633097692821371e-01 -1.904991312526629343e-01
5.822624726412999746e-02 5.267450669602372626e-01 5.677656974710095783e-01
4.945414837292155807e-02 8.600002667238093590e-01 6.057828542041279185e-01
-3.034574475270218619e-01 -6.193728788788359640e-01 -3.406177510207314962e-01
-1.943134767838665955e-01 -3.953955242850953899e-01 -8.676913433371889750e-02
-6.831505066503963230e-04 6.938258381439429412e-01 4.786473114347570834e-01
6.253867472952759354e-02 7.025194867093024209e-01 6.055577807544002544e-01
-4.506279380090421477e-02 2.623031128275388757e-01 3.188063787813877337e-01
-2.641619511563609787e-02 3.798342364181578334e-01 3.753580584519441432e-01
-2.864659946648049904e-01 -3.419510360252016046e-01 -2.607584249417562172e-01
-1.080141213662157845e-01 9.056888721977880696e-02 1.653165395789454317e-01
-5.525881435628725996e-02 1.482786117352951905e-01 2.796081932059933939e-01
-2.192097128046024690e-01 -3.768513952098024311e-01 -1.330918805241728120e-01
-5.589145784624364836e-03 5.835555017534929112e-01 4.505716295047443865e-01
6.319206439153289556e-02 6.686059539578461663e-01 6.012140951226413454e-01
-1.089583485255129630e-01 4.597299385066243305e-02 1.560257191948113686e-01
7.841469603226938756e-02 7.901616396758127658e-01 6.516402122438493816e-01
-6.569923844746784758e-02 3.563974334380112241e-01 2.935024155024709702e-01
-1.812615252566792887e-02 5.733700758931487007e-01 4.239977731224684465e-01
-1.479005135844761176e-01 -7.052574102020559010e-02 5.936891147933516522e-02
-3.317326576284493345e-01 -4.787399566983955301e-01 -3.733408581760238598e-01
-3.877241809710197940e-01 -6.682875366173246512e-01 -5.159815073345395131e-01
-4.206592374793657885e-01 -8.843715191619765381e-01 -6.172796965561626603e-01
-1.025481919248892038e-01 3.985051091029679499e-02 1.677284991802499847e-01
-1.070533992258184131e-01 1.445577214865498838e-01 1.762022862069844154e-01
-3.558012299654636501e-01 -7.377309750682240486e-01 -4.641794931635624955e-01
-3.237401649921416991e-01 -7.823552251232629429e-01 -4.079755740255376351e-01
-1.265989873100080154e-01 2.350461242733132838e-01 1.524634227118494834e-01
-1.086523608132980295e-01 2.559243586717264984e-02 1.532433531802227800e-01
4.154869381796153643e-02 8.526334802338592089e-01 5.888691602013268467e-01
6.230444826760118959e-02 5.345513802100686496e-01 5.771572543362425423e-01
-2.371932735133128467e-01 -5.477038843798438528e-01 -1.971959221696023279e-01
-6.706801676331920238e-03 3.870817714122567477e-01 4.156769979655670078e-01
9.085505137504260031e-02 7.671925082567002674e-01 6.725081455962479415e-01
-3.640409135371692750e-01 -8.562993689971515332e-01 -5.002510209585427914e-01
-1.691986492252143814e-01 9.721566779891131771e-02 4.500046614386775390e-02
9.516100166067012131e-03 5.315588183623843888e-01 4.719003428578169013e-01
-1.577590621117179737e-01 -1.682803568763004964e-01 2.354637799146016078e-02
-3.457482233862909649e-01 -6.731600614133845806e-01 -4.334900192546922715e-01
4.673376363060690458e-02 8.481936240269702942e-01 5.984205855434410193e-01
5.662421822116076031e-02 7.221984453675224236e-01 5.970933765438851681e-01
-1.430043588190604564e-01 -1.209625008253629730e-01 6.069698260016007790e-02
-1.294463563466431155e-01 5.376922661338887771e-02 1.166636206046563901e-01
1.145510343536043918e-01 7.951318157620859139e-01 7.241798894553322929e-01
-7.452637894269693863e-02 1.539868564447606225e-01 2.423208161905228697e-01
9.214561780522144419e-02 8.275394405709286527e-01 6.851059230490107455e-01
-3.758025489926529183e-01 -9.954414103395173852e-01 -5.467336272527500984e-01
-3.991919107526726296e-01 -8.356737069145955266e-01 -5.665782904071718917e-01
-2.281042696607848141e-01 -4.456781963313941053e-01 -1.621902151240880718e-01
-1.516189059129418801e-02 3.639205659628922396e-01 3.950456902277469928e-01
-3.682977794993321230e-01 -8.962129093243025313e-01 -5.153370706375193233e-01
-2.939917288864990486e-01 -5.517350183650382434e-01 -3.105836772728524653e-01
-2.526158771408478221e-01 -3.131023874948639651e-01 -1.887844240616901870e-01
-1.866484140072318110e-01 1.227591556915202204e-03 -5.593137361663424664e-03
-2.381269711252949894e-01 -5.514290771116332479e-01 -1.996684152258732525e-01
-1.488558711404948040e-03 2.896131987096949856e-01 4.098221377377483376e-01
6.418109148239674322e-02 7.911559740392322126e-01 6.235588016907017694e-01
-4.019881911800537999e-02 3.584749749976566813e-01 3.444538753757729332e-01
4.043764244467011604e-02 4.910129864675004674e-01 5.265211677368221155e-01
8.992326575196436800e-02 7.282564077447809536e-01 6.641833269300356779e-01
7.456282221591103987e-02 5.738178474412521934e-01 6.080147882520489100e-01
-1.768756802326957311e-01 -2.316559874171834899e-01 -2.493116342503474622e-02
-4.055807161450165066e-01 -9.003340183540433639e-01 -5.900109749582026497e-01
-6.213629624325886502e-02 4.426501532908434511e-01 3.149182880855576072e-01
-2.097104839742218174e-01 -3.334387814670369266e-01 -1.070203395422459486e-01
-2.347353341666132964e-01 -3.593089833169066383e-01 -1.609851142876883578e-01
-4.021466757477237253e-01 -7.508555166795345404e-01 -5.583354818248519313e-01
-1.432541100731636596e-01 -1.137527915435571357e-01 6.140043425947878941e-02
-2.269560649391214602e-01 -4.174767290583362711e-01 -1.552212457526869205e-01
1.046999016815557820e-01 6.748490028448110856e-01 6.846252843187083936e-01
-3.144093401261152110e-01 -3.999789763331977333e-01 -3.258633242185172141e-01
-2.289313218620052104e-01 -2.609295782940538322e-01 -1.331049515096588420e-01
6.690513604107882484e-02 5.710673820364576825e-01 5.923605597851610005e-01
5.303535589552622886e-02 8.170687684799494699e-01 6.057496358377373324e-01
-2.002294457510919445e-01 -3.005098001913123484e-01 -8.272848871892128642e-02
-8.049854321294115655e-02 3.747892242710390565e-01 2.671918318922830715e-01
-2.574355582418272892e-01 -2.503578414802379859e-01 -1.879137564417535933e-01
-3.113447713128021377e-01 -7.177361431025410798e-01 -3.726295895894256582e-01
4.435114161873211780e-02 7.554190473478610279e-01 5.782623886733895269e-01
7.251819525932459709e-02 9.062375195526046756e-01 6.592437442594014652e-01
6.282541456893205034e-02 7.830506748321779398e-01 6.195204052842979703e-01
-2.180325664060332180e-01 -2.742153286195384010e-01 -1.136858478760783830e-01
-1.708608102647954929e-01 -2.628019721384062257e-01 -1.817463157761216655e-02
-2.204655025173194449e-01 -7.418239951604352345e-02 -8.524546499993634896e-02
-4.108566276047289079e-01 -8.028219845954994716e-01 -5.842633304030023789e-01
-9.827324412934880515e-02 1.063728686057571621e-01 1.872758914563593113e-01
1.279126080916721253e-01 7.729590671327367657e-01 7.470084441767247396e-01
9.376461136855804290e-02 7.064525912003795094e-01 6.681802172779244264e-01
-1.082008151033494320e-01 2.287191556501936285e-01 1.879225752242283387e-01
-2.192755477159899768e-01 -7.735139724490165680e-02 -8.341103681241232581e-02
1.039845504345698370e-02 3.910400489562104731e-01 4.502809378621455694e-01
-2.658053489777367218e-01 -5.578347498020382877e-01 -2.556618990330309926e-01
-5.407892545794366901e-02 5.201993894547981556e-01 3.438058916322470626e-01
-1.476225533539929635e-01 1.306445212704387404e-01 9.337826153484374281e-02
-1.685733324545905520e-01 -2.716943294697047873e-01 -1.511403735453855680e-02
4.232495500732665755e-02 7.376090201336880092e-01 5.712793098011857973e-01
-3.098906106442679831e-01 -4.671647531092355532e-01 -3.280698800068681531e-01
-6.832929357260296432e-02 1.041246220737933187e-01 2.463261544579548601e-01
-2.729168261031421627e-01 -4.874638622348133055e-01 -2.580709532476769263e-01
-4.321481152896808897e-01 -8.933199116864672940e-01 -6.415677888493542813e-01
-2.163525517448839086e-01 -3.945807208044966319e-01 -1.303704669226442292e-01
1.103505052271359366e-01 8.050381790413728700e-01 7.174914635260792872e-01
1.604489462175807263e-02 6.351277823622913932e-01 5.020819499042533662e-01
-3.307888876581440707e-01 -7.890684987565067532e-01 -4.230803825024617160e-01
-3.287536967587765813e-01 -7.058522357581751283e-01 -4.052013632339055982e-01
-1.628239576694018309e-01 -7.940326301185994529e-02 2.827666209715793549e-02
8.834442415279490646e-02 8.548973236630708072e-01 6.821124422192483827e-01
-1.477524696904285173e-01 1.363318135656932661e-01 9.406632568168792063e-02
-3.876068096285320008e-01 -9.569042817908337550e-01 -5.637500225853102620e-01
1.059124159457796310e-01 8.129139126582258790e-01 7.099938710039748191e-01
-2.684903473377598937e-01 -2.458910503165915584e-01 -2.091092406414108151e-01
-3.775883782747788131e-02 2.977333340508517834e-01 3.391937749603661234e-01
-2.362684810571070437e-01 -3.768887900357452692e-01 -1.669514598217455292e-01
7.143245874628931236e-02 7.220373897977458988e-01 6.264537472695447251e-01
-4.415122722927599108e-01 -8.720468899080064951e-01 -6.566130536691863195e-01
-2.655210529463709057e-01 -2.510529063612518819e-01 -2.040751318331491815e-01
-1.895670779448946699e-02 6.133850151897740632e-01 4.290046296962856665e-01
-3.391085216982246964e-01 -8.627033441472061748e-01 -4.518374271954065380e-01
-2.518561539714745390e-01 -4.131320893283718654e-01 -2.039132335667574181e-01
-9.302520609663164630e-02 2.374308378409029779e-02 1.839480804790817048e-01
-3.069863366522398440e-01 -4.518286445309869226e-01 -3.197556756963852442e-01
-1.267264552535191657e-01 -1.465944999388272552e-01 8.873770693203830717e-02
-3.746895515490479833e-01 -9.926713507500866118e-01 -5.440641646701132039e-01
-6.701180898842525047e-02 2.584637405769626417e-01 2.746097094540079220e-01
-1.424676633036192075e-01 -9.524121798870666122e-02 6.603991041871495882e-02
-3.188672398201917169e-01 -8.005172019918476156e-01 -4.013258054657669605e-01
-3.856444009233655490e-01 -7.306111586057644214e-01 -5.222195400439856305e-01
-3.167570496427805221e-02 1.891760722502348890e-01 3.332110796689843890e-01
-7.218454639390010918e-02 1.929934366187841255e-01 2.534556142134172241e-01
-3.251631560376666008e-01 -4.579248502776394059e-01 -3.568417170374218461e-01
-5.868101894521920298e-02 3.463987408003978974e-01 3.057672308891215551e-01
-6.421280316452417092e-02 1.021265423239510473e-01 2.541630745804331348e-01
6.885270572424193047e-02 9.277480603585043228e-01 6.555470664181316520e-01
-4.221186208199463781e-03 3.194121987889241843e-01 4.093552367335520081e-01
7.394356939073867818e-02 8.142982022984944779e-01 6.467814846463900702e-01
6.617887684161762041e-02 5.744482441013430973e-01 5.914815782144580147e-01
1.045471464927032468e-01 8.182520064100810009e-01 7.081722827862303449e-01
4.895423260183570657e-02 8.271703535275566344e-01 5.993306408314521549e-01
-2.581198648007293484e-01 -4.790884135803237243e-01 -2.273132132666785543e-01
-2.243658739148359504e-01 -3.249647607713381792e-01 -1.346948011736973094e-01
-2.141453896404066914e-01 -1.465176200216013469e-01 -8.473358303703172612e-02
-2.545492578982287424e-01 -2.570657832043905522e-01 -1.833014884851395243e-01
-7.958268851247098097e-02 3.981493462834786445e-01 2.728945086630794048e-01
-7.183912724611951628e-02 3.546982755895637385e-01 2.810351255300085338e-01
-4.023345484754664025e-01 -8.909180782809937860e-01 -5.820028937738550567e-01
-1.726410089958384242e-01 -1.179128926660397841e-01 2.389840289759330959e-03
-1.948382090405862965e-01 -7.405300393186871333e-02 -3.436622852387592741e-02
1.004259719194349476e-01 6.719289582221246171e-01 6.756579632868215946e-01
-1.558630304970305691e-01 -6.573408489957148493e-02 4.436411399063704825e-02
-3.787209285076875154e-01 -8.290155980888024301e-01 -5.248459981576258926e-01
-1.839245144974427371e-01 -3.368049784782274347e-01 -5.640757961877714000e-02
4.852341525067600109e-02 4.955213967498343641e-01 5.433173134980475716e-01
-3.095076272132009088e-01 -4.746126987324755797e-01 -3.285485529785018288e-01
-2.241411977561361957e-01 -1.752192970016115681e-01 -1.093439355273193858e-01
-2.424100987995412848e-01 -1.760331705532270918e-01 -1.457341804266922280e-01
1.320537885172462511e-01 8.300543457755932275e-01 7.647225038375363715e-01
-7.618738159535229371e-02 1.863603248145505320e-01 2.444087434108982437e-01
-1.648811445051225760e-02 2.610710753561799047e-01 3.753083155874072929e-01
-1.212506226355956479e-01 -1.314537150499293927e-01 1.021227193064244976e-01
-6.146492843317154925e-02 2.355213829722814789e-01 2.818019002854325605e-01
3.027165028996764429e-02 6.596587173426584627e-01 5.343950168690058122e-01
-1.418128611456869748e-01 1.326670298505905621e-01 1.052440500782469285e-01
-3.054095659124838047e-01 -4.209406420480110156e-01 -3.114893987088264704e-01
-3.165027154170814150e-01 -6.044348609388137117e-01 -3.640218403435579453e-01
-4.221751246649151123e-04 5.798673473415261181e-01 4.602121564948090104e-01
6.714528652920698226e-02 6.247202825917085312e-01 6.017604510841951804e-01
-2.669559768247170561e-01 -6.336721560686788823e-01 -2.705582724734375000e-01
-5.118192690022796421e-02 4.360431848795812138e-01 3.355585432420350456e-01
-1.398371323110628173e-01 2.992437762367917975e-02 9.207721480185078466e-02
-1.804875905629230171e-01 8.516151626257174173e-03 7.845301966720667763e-03
-3.184306213704019561e-01 -5.639646952351657916e-01 -3.611169800683586839e-01
-3.260561984375036637e-01 -8.234495773471695035e-01 -4.194064022401318703e-01
1.233140013897177367e-01 7.903168513229252845e-01 7.407693146763650871e-01
-1.218214467440232873e-01 2.615948928762893907e-02 1.272034310049637018e-01
-8.379441685796619466e-02 4.191194947742652444e-01 2.680239367762224378e-01
-1.319888164084101201e-01 7.266385063523453369e-02 1.147605426557452291e-01
-3.524086227248851566e-01 -5.385529794719867702e-01 -4.243204281713879311e-01
-9.688479116122121482e-02 1.086943695181316755e-01 1.904173970479646760e-01
-3.307983486280113294e-01 -7.648477650729236244e-01 -4.190708743254663582e-01
-5.642325929490401432e-02 4.896061494702600436e-01 3.340653987075208886e-01
1.014869693684503638e-01 7.551323908159859322e-01 6.916015483740213243e-01
-5.319036916562516759e-02 1.378274293639576431e-01 2.819748574096100358e-01
-3.420275591216480615e-01 -7.357811380610917995e-01 -4.365211660147732542e-01
-2.296707633287725092e-01 -2.610973461534278894e-01 -1.346002856558229932e-01
-1.786235992929774419e-01 -7.880242357990678570e-02 -2.978014852691365181e-03
-9.236675735531515996e-02 3.349835485792331813e-01 2.370188967430588156e-01
-4.863641887256241192e-02 3.278141619334100088e-01 3.226099740745350664e-01
-2.147535629139620816e-01 -3.150337731969146682e-01 -1.139673607010901341e-01
-3.473833631944915901e-01 -5.473770606914888370e-01 -4.158153131355742937e-01
-1.725154219991699711e-01 -1.354674655524818749e-01 -2.805282791633747575e-04
4.357858430408489275e-02 5.838502281828271689e-01 5.481946829297238422e-01
-1.069789177542506270e-01 1.484238463816921483e-01 1.769930922325005096e-01
-2.015682409217938453e-01 -3.852538249585581998e-01 -9.947959156966264260e-02
-2.484418229901895481e-01 -2.304286338836278314e-01 -1.667510290100293335e-01
-1.494581102190867539e-01 -6.268031175832972091e-02 5.758265610404166707e-02
-2.990134013092681231e-01 -6.604009632825463827e-01 -3.386220869047414372e-01
-3.195704788092967874e-01 -7.182007595624962937e-01 -3.890308920467766551e-01
-3.074288846532958336e-02 3.319660182270167126e-01 3.588104490813914804e-01
1.342268443863635086e-01 7.718413592171116111e-01 7.593532406927352429e-01
-3.280421601616579919e-01 -5.965226523822075855e-01 -3.856061039959469139e-01
-1.558604676864364658e-01 1.064143648664409303e-01 7.300015661973276171e-02
-1.823507449172075134e-01 -7.362817126538030721e-02 -9.514028152320498991e-03
-1.661442362296446373e-01 -5.086117916074440332e-02 2.643451482444073367e-02
-1.517612144756236292e-01 -6.589856470206927053e-02 5.247686869597725096e-02
-9.493745894837340993e-02 8.343449060099257519e-02 1.900807950096819743e-01
-9.337993410301442809e-02 2.219503873597934024e-02 1.829866539800190373e-01
-1.756732624701223267e-01 2.403462989511711417e-02 1.998036578891954421e-02
-3.310094433608780085e-01 -7.897475738986557969e-01 -4.236310190511654028e-01
-1.353051690113547534e-01 -3.083703879871777312e-02 9.096539245600546164e-02
1.141800414162681132e-01 8.124282474268221810e-01 7.263203136753456635e-01
-2.802785361199192637e-01 -3.002271614105114228e-01 -2.415400010942055087e-01
-5.137926753605644853e-02 1.864440513059121007e-01 2.936547116004745717e-01
4.973045351314048235e-02 6.469738910100890639e-01 5.709015958769183552e-01
-5.862063651431013295e-02 1.576302384011974700e-01 2.744919314770670193e-01
9.370193218207288621e-02 7.172604108063226347e-01 6.698533375681902102e-01
1.074400591866264409e-01 8.518931228334152284e-01 7.195083471043111079e-01
-3.459776131877217442e-01 -7.113773624765786785e-01 -4.403013762682932430e-01
-4.075696463072219777e-01 -8.286115264636548794e-01 -5.820294715902958327e-01
3.669486784566158843e-02 6.227009872375449673e-01 5.409953367345883279e-01
-3.861085099186496034e-02 4.676730920435877570e-01 3.657665601345576611e-01
