-7.926928964422521595e-01 -6.314039633642160032e-02 6.377073099506644360e-02
-7.710839892305850762e-01 -6.753984246038406691e-02 4.621813581091794298e-01
-5.404904732839664883e-01 -7.683225505784655462e-01 -4.313199797187807771e-01
-8.820491393987537343e-01 1.449569128699635667e-01 -8.935799007642585001e-02
-7.437277668921157270e-01 -1.721742184419573773e-01 1.870159349266578008e-01
3.036628312443395705e-01 1.178659103683062231e-01 5.049568010797366169e-01
-3.325926540901714690e-01 -5.590737881621493655e-01 4.765014378437886222e-01
-2.154981765742685906e-01 -4.610530353645586055e-01 4.779940986833364214e-01
-3.245248999962006553e-01 2.103435682841168497e-01 5.841128128752547388e-01
9.053511796105999654e-01 -1.999853201294108651e-01 3.968203065653487793e-01
-6.317723785890913546e-02 4.874553641374418378e-01 5.956675773687133413e-01
2.282342265267907344e-02 -2.278177396579808278e-01 4.857874433186447627e-01
6.272547636051836739e-02 -4.759104458675202376e-01 4.466152810507574844e-01
-5.006473179503513338e-01 2.536723488176694796e-01 6.087584108898240753e-01
-1.953704232601372048e-01 1.901972294979227540e-01 5.676787305110893023e-01
-6.970522767329169478e-02 3.841176170249055999e-01 5.817877256426996491e-01
7.464859653286399777e-01 6.026439111298543400e-02 4.502276509224572010e-01
-5.853228604262749046e-01 -1.622702833955618484e-01 5.590377881909709412e-01
-9.835965468026107439e-02 2.624291783645496534e-01 5.676499972053452581e-01
7.270179506614103948e-01 2.831939152883096722e-01 4.837019111564118679e-01
4.185312753572233424e-01 -5.455394371829955409e-03 4.754823866919495878e-01
-1.521228880893914781e-01 5.317240346743538383e-03 5.370651895721189062e-01
7.524388426012909026e-01 -7.898434808366570914e-03 4.399925404873177293e-01
-6.451483004079137940e-02 -1.614712596886791474e-01 5.043327367651383453e-01
5.636251356055113071e-01 -3.948662963159280115e-01 4.053174021256465975e-01
4.063927803046216702e-01 -5.952692354652143747e-01 3.936172008156394453e-01
-4.553927451032955820e-01 -4.058215523212030384e-01 5.110298975629641305e-01
-4.619461976389481750e-01 -4.612785496754840397e-01 5.039022127445780264e-01
3.948499585171968973e-01 4.008565943931097220e-02 4.843946380559437936e-01
1.868422042351413626e-01 4.335992842930104785e-01 5.617599672680936296e-01
-4.222898138455131178e-01 -7.787639765598147745e-01 4.549739970348067875e-01
-4.058055099653120057e-01 -5.790477647006790907e-01 4.813918400929269037e-01
-2.356671168170792474e-01 1.312782220521823140e-01 5.636146722854714630e-01
-7.287945824061768940e-01 1.391134698436861938e-01 6.166233298636748517e-01
3.174874118626470620e-01 4.981347411892468602e-02 4.939087149890555861e-01
-7.029152463940898654e-01 -2.153763286957678658e-01 5.639289148485883141e-01
-3.500030308729460971e-01 4.064681770775809694e-02 5.628732946028061068e-01
-1.139331051569426739e-01 -3.800562066097769587e-01 4.787215389877444438e-01
-7.265098192842914804e-01 1.275469230096805962e-01 6.147523742593220542e-01
4.827850282627750844e-01 2.986341266927980409e-01 5.115851863335020289e-01
4.317843690898083286e-01 -2.835290169605502175e-01 4.348889171209167070e-01
1.000000000000000000e+00 -3.457392997168346471e-01 3.663118988724118341e-01
2.561025983055202904e-01 -3.531825807086710345e-01 4.435616330451266354e-01
-6.957748620964003816e-01 -2.362247662923434022e-01 5.602384632394928898e-01
1.404811372290643567e-01 -2.866033066706710208e-01 4.651166932585193980e-01
-2.842013118929268001e-01 -5.554265466817002173e-01 4.719221353976975619e-01
-1.678381294930414158e-01 -3.981674014518504778e-01 4.818422802115628345e-01
-1.960705314285990097e-01 4.656426198210179002e-01 6.065804472191442809e-01
-1.426373529645192928e-01 -7.090873756917397408e-01 4.353610863183315360e-01
5.320459944443801659e-01 3.796717695476636845e-01 5.178236522079264770e-01
-2.579112897105798607e-01 3.305557368723119338e-02 5.521100759324079066e-01
2.244026170764396033e-01 -2.436280873194765773e-01 4.623415131634399655e-01
7.253927530474076901e-01 -4.501387070500793008e-01 3.804990915578125299e-01
4.103676737851131850e-01 3.137059837879388469e-01 5.213320770855619513e-01
-4.162010313621719582e-01 3.230302097876969758e-01 6.096470085929547311e-01
1.441071449201691314e-02 5.827230560358450662e-01 6.009304163553497169e-01
-1.828629653867764326e-01 4.683649070694786976e-01 6.055740298486521622e-01
1.990714415530462356e-01 -1.327095714274733607e-01 4.806433229698766074e-01
-4.993979080173721052e-01 1.485561164477904594e-01 5.938092450954550738e-01
5.598138222784984075e-01 7.612944970739590200e-01 5.686962115312240718e-01
2.031355907752181444e-01 -2.753660050340542287e-01 4.601060552106048251e-01
-2.308643761942145434e-01 -6.135165071152912653e-01 4.581195292329616198e-01
1.431904696188787407e-01 -3.832027138610924477e-01 4.512144333836929921e-01
-4.667278490680448200e-01 -3.274139389452961346e-01 5.232756661714368374e-01
7.552877822004464559e-01 -3.912794902729072044e-02 4.352904217222302030e-01
-5.055810165984622184e-01 -3.007424438462497074e-01 5.311248934787878850e-01
7.716638671575742903e-01 2.181331570401295605e-01 4.698314436652538673e-01
-7.160798101701693064e-02 -2.661972464431266450e-01 4.903166785840213371e-01
-3.697580718159257929e-01 -1.671802864350499518e-01 5.356563651774161050e-01
-1.901004048345766861e-01 -1.425708476563259698e-02 5.383032304241880395e-01
3.968376234463091845e-01 -4.622803282616949061e-01 4.133696467622170467e-01
6.095452369679587035e-01 5.949021768827635892e-01 5.400063147531461993e-01
3.747866697031025374e-01 5.623284204198188974e-01 5.601241001687392584e-01
5.093056977822880693e-01 -8.533432843854079144e-03 4.654940243430438218e-01
-5.266238913836595037e-01 3.078316741497391651e-01 6.191271201398085289e-01
4.013637003537825348e-02 -1.638299911103115458e-01 4.929851699924633901e-01
9.241784642484306422e-01 -3.104629325268938866e-01 3.792652159946220958e-01
6.052512689997873174e-01 -1.386482045207846903e-01 4.370537004618365584e-01
6.726767171637327847e-01 5.059831817422970612e-01 5.208269830988134785e-01
5.730706107853625886e-01 -4.563393255672949511e-01 3.956577020204956052e-01
3.004774948482158772e-02 1.709588343888231721e-01 5.412403939793595242e-01
-6.184253636657811581e-01 -3.016024497431700757e-01 5.428811027514265364e-01
2.795200081502893230e-01 1.575005750342791944e-01 5.130850370156176954e-01
-5.765454291808829179e-01 -4.165495853116354952e-01 5.222695597386420863e-01
-4.078458021573699299e-01 -6.547459621067187874e-02 5.540021855146717300e-01
4.937341929524408646e-01 -3.781592548934383236e-01 4.150288781966955387e-01
-2.974817078682042704e-01 -5.140834947189988624e-02 5.443686467997674860e-01
1.090463490569413552e-01 5.966815302831522949e-01 5.929371856639988891e-01
3.471167092554478667e-02 -4.812466470103327065e-01 4.488116610640551229e-01
-2.204675880443676683e-01 -2.438197694261780568e-01 5.091393371319100636e-01
-5.442994169813909489e-01 -5.674185771818104351e-01 4.976083287140343758e-01
2.848693657583315983e-02 2.032572597608393594e-01 5.459576094260270018e-01
7.898279843741187189e-01 -8.278127911382235360e-02 4.255013196936828779e-01
-5.511742855692063348e-01 -9.188013245387796624e-02 5.653659912950855793e-01
-1.623355964546582819e-01 -5.201894154653611269e-01 4.640623362828276144e-01
4.028417588447746889e-01 -1.884746021093186008e-01 4.513345733778490465e-01
4.349449207573906073e-01 -3.580204527640209466e-01 4.240556036675614537e-01
1.603588983809626778e-01 4.391584862079439544e-01 5.653311196857809806e-01
1.523804931700573351e-01 -6.503590566227318570e-01 4.125875716391972925e-01
-3.239571955905553025e-01 1.085257584091289113e-01 5.697003605817755334e-01
1.549727772066356313e-01 -4.008472880428980978e-01 4.474870268793057493e-01
-2.491561269917879351e-01 -2.020771465944708467e-01 5.180431800132205833e-01
1.939258038775468207e-01 4.698093196131276628e-01 5.661187126833960859e-01
-1.097496598220041308e-01 3.808790658893731473e-01 5.855460843294065798e-01
3.955372486539578403e-01 3.749983087446269181e-01 5.315330975780599987e-01
3.448006322758283559e-01 3.519405802609519296e-01 5.336230620699485838e-01
-2.703713490029285293e-01 -6.428543801347273712e-02 5.396999315102916084e-01
-7.340863647265492009e-01 -9.312796825461397074e-03 5.962574795903223812e-01
-5.356309030833639184e-01 -1.980469713229606743e-01 5.487642141875700430e-01
-3.488327125617319419e-02 -4.615395776444276010e-01 4.589148790789606136e-01
2.186599614737213815e-01 -6.172915621996282187e-01 4.102726650224380323e-01
-8.512781118470870564e-04 1.035061324674338146e-01 5.349842356388870845e-01
4.004301169120479398e-01 -5.317706826173513868e-01 4.031958442823296851e-01
-8.159269592345509692e-03 2.980430260126034486e-02 5.253640958424383722e-01
7.301667297315931338e-01 -1.408284867715052235e-01 4.235983725275559997e-01
6.251560618783011947e-01 4.877634527684844290e-01 5.232604376530900492e-01
-3.768894888835732648e-01 -4.929599767842192670e-01 4.904836058432873735e-01
5.331688576829263226e-01 -3.426716709276401152e-01 4.158806700016012270e-01
-7.030401735504011596e-01 -2.016536459536982240e-01 5.658764754280871667e-01
8.283845934443616610e-01 1.873514379010304473e-02 4.357532547851546978e-01
6.025816123364202692e-01 -1.393036437509656278e-01 4.372423016840159549e-01
6.224733827462614055e-01 4.631241495471432462e-02 4.613138703181392519e-01
-2.843870073481270799e-02 -1.314011624355763790e-02 5.214449694585311379e-01
5.805131862268554377e-01 6.173262506192892518e-01 5.462230840240547280e-01
-2.867738528679073667e-02 -7.314594954542080751e-01 4.202125469173991212e-01
5.444043827751123693e-02 -1.946151995795739886e-01 4.871399722122863873e-01
-7.909174876907746343e-01 4.504291867947431485e-03 6.041869626383178371e-01
-2.708788487891405361e-01 2.837763327829502802e-01 5.888177083062561268e-01
6.035432403196683282e-01 6.280512641683986264e-01 5.453109004497329604e-01
5.397160610160401939e-01 7.818277426091622961e-02 4.745170878145767435e-01
3.996170883223720827e-01 4.892754591345345461e-02 4.851392657451254475e-01
-3.519785648300654546e-01 -1.364237806779789453e-01 5.381205579541842310e-01
-9.494452299904442005e-02 5.160301792489752071e-01 6.030392802216271164e-01
1.814454994990752912e-01 5.831082903253053118e-01 5.834034628218883745e-01
-3.178330363113701096e-01 -2.732269136770853479e-01 5.152421802281536012e-01
-6.055153604061890293e-01 -3.374047048842450380e-02 5.792812943470753151e-01
3.999733165736607532e-01 6.733605979923475982e-01 5.731246753337675415e-01
3.854579289544554088e-01 4.748565086591877149e-01 5.466704601258549623e-01
-7.386547404486781820e-02 -5.362336242391078089e-01 4.524887432408892241e-01
-2.492706373089055294e-01 -3.451558066051653717e-01 4.978862184123569179e-01
-2.480513541479110462e-01 -2.891100725633530873e-04 5.463718504446166691e-01
-7.297986281291712896e-01 1.551985213745147862e-01 6.189964323074147456e-01
5.170768694173026869e-01 1.318486529306852340e-01 4.844649622366470343e-01
-3.477155126804756802e-01 2.856425239917969594e-01 5.971682234467157180e-01
8.344697426898933790e-02 5.520110412585794712e-01 5.893346956665646008e-01
-1.834219348892676248e-03 -9.580841007741666346e-03 5.191464444413251833e-01
-6.180666568512670558e-03 -4.931006271759951209e-01 4.514447962833179617e-01
7.047099793785724930e-01 -4.702729047912337923e-01 3.798378508505020346e-01
-1.977075185683649025e-03 -2.214453824685059247e-01 4.892960977033320447e-01
-3.905250082394362554e-01 3.603698014471992117e-01 6.122080345485655384e-01
-4.732025122268673778e-01 -7.660783525299419416e-02 5.593119188941528819e-01
4.344202921838818954e-01 -1.461706639623673587e-01 4.539741269220439746e-01
3.262636044113601530e-01 6.125888764178615276e-01 5.723163397478295833e-01
-3.398085603573539060e-01 -5.752186717679028671e-01 4.749850928181772458e-01
5.882747023904129069e-01 -2.528141224274813581e-01 4.227472265317889222e-01
-3.004029524599136775e-03 5.456654831542978590e-01 5.975396035347237955e-01
1.802074935848863302e-01 6.427929001771760520e-01 5.919471815000955095e-01
1.914241024486885989e-01 3.348300396438572690e-01 5.473547402551738328e-01
-6.179664548859294948e-01 -2.459157249755408725e-01 5.506826526103769659e-01
-1.863130559778506112e-01 5.723506776996625800e-02 5.479824496039971127e-01
2.959881221038873633e-01 -4.030937930244445910e-01 4.323277694634078960e-01
1.202138923577911467e-01 2.335354304367440181e-01 5.405710300684484215e-01
7.784910060660750475e-02 -6.701800223707802262e-01 4.176383256514399345e-01
2.753111500676800882e-01 -4.314695901113158039e-01 4.305041450227833355e-01
6.745733864132068547e-01 -1.724573285173576151e-02 4.468706371211604855e-01
-2.356976569889673023e-01 -3.131950971530648720e-01 5.009629194394120688e-01
5.864753201348802403e-01 -4.749144931299715267e-01 3.916283488582698036e-01
4.312781558076190375e-02 1.325344204934489067e-01 5.344471717167647018e-01
1.249834892618631593e-01 9.446294144911068780e-02 5.204647193913567449e-01
-2.919010696439567898e-01 -1.561980424315537533e-02 5.488261713758333382e-01
8.477554200930650374e-01 -3.185079271819061253e-01 3.861750700196234787e-01
4.634035347091329804e-01 1.418470555102632480e-01 4.915237728136815920e-01
-1.421520241436911025e-01 4.210435554553231263e-01 5.946183653628044352e-01
-2.578841666043779068e-01 4.163031762617845910e-01 6.061315347874688397e-01
-4.768429136322323569e-01 -1.070315341998150371e-01 5.554064275289969377e-01
-2.692302580243240429e-01 2.927267033873229840e-01 5.899058704519347662e-01
1.474418811532761733e-02 -5.954949628341345003e-01 4.348083810438042596e-01
-3.800632277568150030e-01 -4.819727841096598242e-01 4.923664622720737016e-01
9.378007338869961407e-01 -2.239786901256422547e-01 3.900226126310528674e-01
-4.831472519789425379e-01 -4.245178559716293321e-01 5.113156846735114058e-01
-3.448222352393289780e-01 -4.689127631556123665e-01 4.904981687197341733e-01
-3.612966890675931020e-02 -6.595798605277389814e-01 4.311294156629313923e-01
6.161326663558775590e-02 -6.991187019493475541e-01 4.152679024559259302e-01
-1.007872626069217237e-01 2.324701059891036425e-02 5.341893161732007567e-01
-2.373228450377407317e-01 -8.205247297667883632e-01 4.296185014225500365e-01
-3.453395589118112285e-01 -7.726387390638497221e-01 4.477380337594643600e-01
-4.071190653772760459e-01 -7.467246749289712104e-01 4.578936035730399867e-01
-4.612172405266325992e-01 3.796489188320132935e-01 6.223664218648652380e-01
-4.095143604500618428e-01 2.341502817486259547e-01 5.964142863360233360e-01
8.019065146913487707e-01 -1.819745268161760132e-01 4.102472647617462220e-01
-2.262949407257998091e-01 -7.127965112860865649e-01 4.436436150171939041e-01
3.359747458796249475e-01 3.821396035467594099e-01 5.388090221273330593e-01
-2.637595724378173356e-01 4.381174650111836488e-01 6.098249917429737765e-01
-6.388937067335134223e-01 -3.932790505981523244e-01 5.321123517409207526e-01
-1.876391541999609391e-01 -3.784046838371068477e-01 4.867122804121591928e-01
-2.303936106895810854e-01 -1.433349023360434016e-01 5.243489022241669684e-01
-4.757724241449018399e-01 1.448922473478521933e-01 5.908060676063280336e-01
-3.146708611428138402e-01 -6.306087995939707591e-01 4.645311798516337798e-01
-1.497517542730467111e-01 2.859812846293082189e-01 5.763792875334567967e-01
-1.802385799363461494e-01 -2.478262357490527978e-01 5.043402604934398292e-01
-2.918299444773534423e-01 1.593391939697353932e-01 5.734816960027180333e-01
-4.275151524787821344e-01 3.493498399801132220e-02 5.702266724593575420e-01
3.577613867759068533e-01 -4.061177952546256575e-01 4.253995431812604977e-01
5.181290686644935972e-01 1.407457182965195230e-01 4.856083834656683695e-01
-1.640691055795025916e-02 -4.506611661189368068e-01 4.585036184910771806e-01
4.617289553371324295e-01 -5.378015088793739462e-01 3.958936982663980308e-01
4.991117076524782536e-01 7.696319258834422028e-02 4.786189841055262240e-01
5.898468563667099707e-01 3.374684669626001332e-01 5.057906502499738277e-01
-2.850630784474749713e-01 3.955715715995004184e-02 5.558844319247338017e-01
-2.522880891169956286e-01 2.969655133832624361e-01 5.887201430960381510e-01
3.003308740503277674e-01 3.540242581118471232e-01 5.385974542058210579e-01
-4.437534236858748926e-01 -5.505139798879545854e-01 4.894083016201219993e-01
-2.680522391466619858e-01 -5.404983843220994011e-01 4.723267048405719870e-01
-2.080733393384996688e-01 -7.104901304663543415e-01 4.420508169586998548e-01
-6.033753036848912288e-01 3.324943648173300237e-01 6.306821596841269972e-01
7.031019588821033617e-01 -1.559209516397541129e-01 4.243195748228376640e-01
-5.992094749575019863e-01 1.829236771570229847e-01 6.091595251491495056e-01
7.972660254424763782e-01 7.393449722256521806e-02 4.468097920908851717e-01
-7.587458743945628692e-01 2.621583233693385306e-01 6.371208136932653421e-01
-1.056059904737727539e-01 2.808065384476727058e-02 5.353778839015237434e-01
-1.238658379979464402e-01 1.743125193523828720e-01 5.579133299074866548e-01
-1.713581621628559315e-01 -2.039375152447838735e-01 5.095923038499535762e-01
-2.285061560289664284e-01 -7.151826551397850729e-01 4.435399950185260898e-01
-4.029839502584619537e-01 -4.642452908611943707e-01 4.972779320582803586e-01
3.625504088241610079e-01 -5.318136531445414317e-01 4.071768182688867421e-01
-9.903321939200815383e-02 -4.820295264893686427e-01 4.627786305567677672e-01
3.539416592450624899e-01 -4.503789390513547319e-01 4.195623380516620426e-01
2.132678009718372569e-01 2.689105992572908832e-01 5.357632780867548350e-01
-3.064444019935058106e-01 -8.717203088527825106e-01 4.296771355550030314e-01
2.227571560629498099e-02 -9.843536374217727591e-02 5.040834165637082531e-01
-3.745123325616322996e-01 -8.806145893056629426e-01 4.355878523555409276e-01
-2.496759121896960643e-01 2.170725922182082102e-01 5.771831310817835403e-01
-8.448071242447960927e-01 1.621100038701229762e-01 6.320759333564615057e-01
4.852376759937316320e-01 -1.290526876445457494e-01 4.510383669454374189e-01
5.618385658757980572e-01 -3.695372600083681736e-01 4.090759430496107019e-01
6.571160180729760381e-01 2.551233867047683276e-02 4.547354845955520752e-01
4.856654558168685965e-01 -5.284397506342302098e-01 3.946939359873620212e-01
-2.808453870621914206e-01 -4.921918207655558430e-01 4.804827599772448221e-01
-4.310627211566182004e-01 -6.213073392280475948e-01 4.780931890432004727e-01
-2.334520830337764585e-01 -1.027012878749423291e-02 5.434282336536832014e-01
-2.280211668097389954e-01 2.603357060459426942e-01 5.810024233548454209e-01
6.284318669500810195e-01 4.196004180574172127e-01 5.133070732064830555e-01
-2.880704236809507601e-01 -7.923576503221664291e-01 4.389305001247628124e-01
-1.480439979465666966e-01 -2.012645319051440881e-02 5.330492077026716125e-01
5.080268421881526386e-01 1.092033127219628197e-01 4.822253340063136218e-01
3.460109942921468229e-01 3.229478597672325590e-01 5.294087204522569534e-01
-2.101138906426445185e-01 2.356478708910492714e-01 5.756374829665793502e-01
-7.572215660472466636e-01 1.045398617539529812e-01 6.147417619901572872e-01
-1.520241861016363993e-01 -1.648887136230946793e-01 5.130618003686455708e-01
4.317223713721572431e-01 4.336693959800776987e-01 5.359949715249041624e-01
2.077832129155456897e-01 3.098447637502064200e-01 5.421108235647627005e-01
-1.954724016565274058e-01 -1.221017622493836691e-01 5.236663873065091623e-01
4.277364688929862768e-01 2.189743886563484329e-02 4.783692723692576365e-01
-2.794246593924401556e-01 -5.903414752624129846e-01 4.664976024168958069e-01
2.951932556212901737e-01 4.172180823391052340e-01 5.480463015843338725e-01
4.654227230774041213e-01 -4.065342182794850490e-01 4.140089408786868375e-01
-1.596240810603176963e-01 3.491141062451489502e-02 5.420264561180612173e-01
7.426157406164964891e-01 -4.187226488648327916e-01 3.831148343148069735e-01
4.313266800154758052e-01 5.836357146849405764e-01 5.571765499286571721e-01
-2.319849858703513512e-01 -6.845081406458874973e-01 4.482301776559031170e-01
-3.046626533452007068e-01 8.249291667221413105e-02 5.639998052010809504e-01
-3.030895477968579277e-01 -5.272708228402708253e-01 4.778791760295425517e-01
-4.244856481001132442e-01 3.392716406215747216e-01 6.128084719777725509e-01
6.618060939931745823e-01 3.293546920502679054e-01 4.970728213223374881e-01
-4.372944248118994515e-01 -3.748337858988456395e-01 5.134931331714023273e-01
9.945639814208669105e-02 5.663070009469945987e-01 5.896648457162524393e-01
5.601877683970422073e-01 -1.615533788500030377e-01 4.385680454815889528e-01
-2.824244554290030185e-01 -3.621288977995772429e-01 4.989832222168680276e-01
2.669354855617645517e-01 3.461389432112380593e-01 5.410009385242273705e-01
8.474879223810116713e-01 -2.591736840899442895e-01 3.945672485080446434e-01
6.387514155096266633e-01 1.639266271129808106e-01 4.761799556149199919e-01
5.845758221134110810e-01 5.598361474599377052e-01 5.376914063007754985e-01
-3.166525406979652235e-01 -4.859560601963914817e-01 4.851306654057129242e-01
7.967982505661601600e-01 -4.395340234606454621e-01 3.744781850703326476e-01
1.755856832422446334e-01 6.498152047957603261e-02 5.109827476419442904e-01
4.641043484844325495e-01 5.718646931775361875e-01 5.520672377798645503e-01
-1.037793332229028087e-01 4.984007039538080469e-02 5.382529246389696764e-01
4.449076578380176117e-01 -2.719257058308084396e-01 4.351432796165536909e-01
5.934803967101491828e-01 9.866964064471056561e-02 4.717460401781422563e-01
2.204976571732500945e-01 -4.159286107095996887e-01 4.384642697009779044e-01
9.426188500551316851e-01 -3.465378723673405159e-01 3.722389853869900178e-01
5.796058503257786043e-01 4.769299711117661600e-01 5.265276918107243409e-01
2.015061636843368531e-01 -5.622663720531599907e-01 4.198347886256230121e-01
-4.731290034892846608e-01 9.391531279045582659e-02 5.833418951555726650e-01
-6.694296780358250931e-01 8.792586732139556771e-02 6.031592369959872801e-01
5.733173182051403138e-01 1.403481133302429962e-01 4.797434922338820185e-01
1.850008146257599850e-01 -3.442633572705529055e-01 4.523027502615168394e-01
5.707917147793247770e-01 -4.754123693330758460e-01 3.932089449503198830e-01
1.919588326960826319e-01 6.502649357059822610e-02 5.092657302688815557e-01
-1.920191777054641447e-01 -2.749512086709933190e-01 5.017565693872475530e-01
5.479303743194520182e-01 5.962119738874873676e-01 5.466762263053730475e-01
7.660548240716988921e-01 -3.930091512750640698e-02 4.341327538990997215e-01
2.864369485141052274e-01 2.231154163355177078e-01 5.216063584766919003e-01
-1.020729236183717803e-01 1.970197131484688335e-01 5.588204238267268087e-01
-4.231271138151446870e-02 -3.567683229098624897e-01 4.744658947743443100e-01
-5.159418622938450882e-01 -9.808537613292665769e-02 5.607828809493443645e-01
5.421235225997770302e-01 -3.349826469518974448e-01 4.160220256849111453e-01
2.237205356166780679e-01 -5.159981792237910980e-01 4.240187868810577632e-01
7.472108399680356117e-01 -3.157503032125104081e-01 3.971466239199241133e-01
1.475029266640001391e-01 -5.257540292663457487e-02 4.973672450516907206e-01
5.168018468643831298e-02 3.673863248941117848e-02 5.200431843980374280e-01
-3.918789078157406958e-01 6.412784748258959500e-02 5.705909349916508111e-01
2.181985177256387243e-01 -6.055961618990312045e-01 4.119698707862922693e-01
-2.016550848831264175e-01 -1.238487294208147627e-01 5.240708856731589593e-01
-3.819750617442947971e-01 -5.728381515528806478e-01 4.797588997363841923e-01
-4.162918777286993971e-02 -1.380993113135839945e-01 5.052185223436209682e-01
9.813274325352724925e-02 -4.090466634667905277e-01 4.523139075943473086e-01
-4.311386016274153521e-01 -7.841307012351042332e-04 5.655729310523239795e-01
6.554448203157225983e-01 -4.739374558350989419e-01 3.845066869172153456e-01
-2.831613350521419159e-01 -5.403691676217105000e-01 4.739352287496356175e-01
5.149083365508149157e-01 -4.996402714926163058e-01 3.956756792497213571e-01
6.162807446261284738e-01 4.686372965289306580e-01 5.214985003851346779e-01
-3.671419657597204678e-01 -7.286752781906367105e-01 4.562301356930919538e-01
8.789711769151853371e-02 -5.689151602437295674e-01 4.308554734290240829e-01
-3.087008535486485683e-01 -6.325354358587754744e-01 4.636312189345118684e-01
5.161286912386515713e-01 -1.534283581597642998e-01 4.443508263366505728e-01
-5.787936789712803121e-01 -4.879729233025648649e-01 5.124380429888318877e-01
1.076812375755678008e-01 4.829057147109259290e-02 5.157772032002745366e-01
-6.907989531891958190e-01 2.800232035102954292e-02 5.969613676012121006e-01
-1.937921352464945512e-02 2.681475776502326713e-01 5.601429967858302383e-01
2.860417677611697407e-01 1.842033471658573174e-01 5.161627321664236101e-01
1.300121711946475023e-01 2.324629451879222097e-01 5.393885291822861916e-01
-3.350303711270251061e-01 -1.894138082608778639e-01 5.288669609338948474e-01
-5.580781101226874874e-01 2.178062567570820673e-01 6.097474465177010750e-01
7.838865577627858183e-01 -1.823186851653554041e-01 4.120954424641530833e-01
2.173641493370250255e-01 6.035453514830622090e-01 5.825037433202524539e-01
9.015042848374366091e-01 -3.295445899348940499e-01 3.789619516781319031e-01
-4.486998635639974364e-01 -1.560154640409700533e-01 5.455392327628655336e-01
3.072055966184375486e-01 6.460201206760651793e-01 5.790349109261545557e-01
6.472316729594478069e-02 4.510992056814763784e-01 5.770804829739197839e-01
-5.359598920139528877e-01 2.389457084772238227e-01 6.103993045637233772e-01
-6.249566687520988727e-03 -4.079277581583393708e-01 4.634584008263084032e-01
-4.769028695136748874e-01 -2.846863749984097081e-01 5.303697091266293961e-01
-3.491316748105280920e-01 -1.379757507388794380e-01 5.376021356353063441e-01
1.513416684707257487e-01 -4.944845994894948860e-02 4.974039860268599789e-01
1.212703739944503284e-01 -1.776481647031993849e-01 4.824975325847460361e-01
4.301133808457587304e-01 2.769792909482082233e-01 5.140765807510510044e-01
-3.913186698219195958e-01 -3.728556580123134068e-01 5.089327977308074624e-01
-6.095267298363080677e-01 2.757120965493259704e-02 5.883462827747465429e-01
-2.645881641825472697e-01 -6.081897689078362701e-01 4.624200099661077146e-01
-2.066184973701904598e-02 -4.173469476221852159e-01 4.636475951740129942e-01
7.371788250791501407e-02 -6.819688531721240787e-01 4.164113504437765290e-01
-2.316430094545070262e-01 -1.406011607700833332e-01 5.248657683410572483e-01
1.400233852703369197e-01 5.933290761095344479e-01 5.892041184776196650e-01
3.673326849170982511e-01 3.488164300463206802e-01 5.308110549737232731e-01
-6.464677987280067484e-01 -3.859418776110222493e-02 5.829075441700583005e-01
-3.591685355373272492e-01 5.616145035892382981e-02 5.660250231517632846e-01
3.071956400038207136e-01 -4.200921390951248835e-01 4.287519577219606193e-01
2.829094243490632432e-01 -5.707050881282966781e-01 4.100771232225338681e-01
-8.970724561497211980e-02 5.243862667999423799e-01 6.036659420835193135e-01
5.595341009886819483e-01 2.412085385761998935e-01 4.954119869832293577e-01
2.739915437649718677e-01 -1.175087135321586373e-01 4.749003840184700675e-01
7.398578193649786305e-01 1.738862269428261831e-01 4.669419442462580672e-01
5.047813099330452635e-01 -6.038884519673919093e-02 4.586604658750941255e-01
5.168096863053413259e-02 5.427233103394336622e-01 5.913689882813359944e-01
1.519784528798535095e-01 3.696418540280542731e-01 5.564138254877515344e-01
-6.116000304632279727e-01 -9.201561051812907899e-02 5.717070096715004546e-01
-5.687775320666168533e-01 1.532462809197072673e-01 6.017729490201244591e-01
-3.864553600468544348e-01 -1.389207752677533714e-01 5.413974277901381083e-01
6.324926481899434405e-01 -5.634799831560997202e-02 4.457878161292487817e-01
-1.250371624615178590e-01 -2.344232393422055194e-01 5.004193783951048635e-01
-1.853361757936771992e-01 4.903937689116454890e-01 6.089396356808617350e-01
3.167963958222458909e-01 6.726372764751076261e-01 5.817775052363288735e-01
5.722967827488580905e-01 3.667339270310211452e-01 5.117632759501531403e-01
5.410115141831985941e-01 3.178363203337110643e-01 5.081633814906025837e-01
7.278265040796126628e-02 1.044046655993290974e-02 5.141149346092586114e-01
-6.199547670579728109e-01 -8.129990184296793931e-02 5.740969227641675721e-01
7.426339200802294371e-01 -2.215482901474783994e-01 4.109075093384478294e-01
-2.443272701518347245e-01 -3.276897712455923983e-01 4.998279952204952581e-01
1.062777520249481022e-01 -6.187245238805653136e-01 4.218994655318122899e-01
-2.498299872999887039e-01 -1.940955036878223849e-01 5.192392356746198256e-01
2.146486707781989078e-01 4.882870114985124466e-01 5.665422248247308223e-01
-5.318221186212607199e-01 -3.016011519612162364e-02 5.720294101229104200e-01
-3.536517949303098485e-01 -5.263708359613267218e-01 4.833279750809383879e-01
6.443933153719359763e-02 -2.979381490890538609e-01 4.715226681972067291e-01
5.181740235655599852e-03 -5.009925893354609805e-01 4.491363587213021979e-01
3.687128342585561103e-01 -9.757233046255864295e-02 4.677408106441753866e-01
-1.116640779346698004e-01 4.261572221570281704e-01 5.921302000301569279e-01
-5.631969415095708920e-01 -6.111977426819013501e-03 5.787217034430448548e-01
-9.559352284673569566e-02 -7.731978311607317078e-01 4.213721852358908171e-01
-6.393446475832508247e-01 -3.608561823526811874e-01 5.367302895566076204e-01
-5.001645257293120261e-01 -1.636856186510788902e-01 5.498749297040727013e-01
-3.751530800071006810e-01 -2.660070861086588079e-01 5.222931449249028635e-01
5.455292080099541918e-01 1.987468073384794920e-01 4.909004754750571631e-01
-9.169280388032018114e-02 -4.929445892688767983e-01 4.604673780448635956e-01
1.300385864799101510e-01 -6.388146453228569221e-01 4.165665229582540263e-01
-8.343976135779117564e-01 1.250614534040269399e-01 6.257577485166717635e-01
-1.272847562269430466e-01 1.820033726984594258e-01 5.593573258206909760e-01
-1.973728298360397093e-01 -3.927357936266132610e-01 4.857166211287494706e-01
2.117407269952864823e-01 -6.454209433233316640e-01 4.070357048670028011e-01
-2.247522364234380010e-01 4.465076421044673616e-01 6.069019891537011935e-01
5.711244338401050280e-01 1.551782134140165526e-01 4.820648223452100312e-01
5.550011061290319736e-01 3.212638135313078958e-01 5.071740609462038751e-01
8.753108255132535653e-01 -2.220907266631267363e-01 3.968661281381165584e-01
3.121814580801579586e-01 4.871670950537470603e-03 4.881319938863442620e-01
-2.561848517950413018e-01 4.741410987836131574e-01 6.141057681788784084e-01
3.189266656219177931e-01 6.420374620382407471e-01 5.772397954373832407e-01
7.444599637813293924e-01 5.598754802719843604e-02 4.498380147304849030e-01
6.565818533921594646e-01 -2.112636876573938394e-01 4.214146896318500257e-01
9.263957818153188695e-02 4.193671021738575311e-01 5.696690385201866880e-01
-1.028072696791239166e-01 -3.848338073224703004e-01 4.768770162183792460e-01
4.658911400477530607e-01 1.002810905021092047e-01 4.854026135045034773e-01
5.179762849048912265e-01 5.660376716875015202e-01 5.455755400918805842e-01
-5.944870871599449158e-01 2.849624888959343405e-01 6.230463218415862592e-01
-7.047325773754044287e-02 -2.295397658589705125e-01 4.953646473002873973e-01
2.135545251464576466e-01 5.239463950275985438e-01 5.716840970224642549e-01
-3.789524643324179154e-01 -6.807723069673629057e-01 4.642258698060595101e-01
-3.414805961703051840e-01 4.131965078759743948e-01 6.144925527760939366e-01
-5.874217254870049976e-01 -1.445341682888115660e-02 5.800956377759194371e-01
-5.126379197905906425e-03 1.597877568688178263e-01 5.433679237754661662e-01
-4.042355586621538266e-01 7.893849102029425191e-02 5.739793103673894725e-01
2.810651334424321135e-01 -2.693562891387015212e-01 4.527507324900547081e-01
7.166747047385154668e-01 2.921673270182814641e-01 4.860555228868785327e-01
-1.430532439776550646e-01 -3.071423453269181980e-01 4.920648485578340003e-01
6.297790659461459661e-01 -2.426651431972065912e-02 4.505957853557399639e-01
9.379940361827970863e-02 -2.648897868583153792e-01 4.730910182342967785e-01
1.808200002893642355e-01 -6.424153902866691634e-01 4.107139444405810136e-01
6.747486419763795151e-01 4.950256040207013930e-01 5.190642728430960862e-01
6.414871494060171708e-02 2.616776752552535390e-01 5.504392321979122427e-01
1.114803269077346698e-01 4.025115036619688058e-01 5.653099128787221206e-01
4.485227143148722284e-01 -4.089654509091932288e-01 4.154450349383958518e-01
-3.568965625945613174e-01 -1.193379805057904475e-01 -4.887226977673706507e-01
-1.575356644254028715e-01 1.072752765848138529e-01 -4.777620143195839275e-01
-4.013061394302602780e-03 1.289836095497874369e-01 -4.908609418663220647e-01
4.747872672646765158e-01 8.942123612957540990e-01 -4.333870013156998491e-01
-1.561175071226578726e-01 -4.441684907598036358e-01 -5.556452876168865851e-01
5.537560866083802297e-02 6.316029073244286973e-01 -4.262604132425462100e-01
-2.213334837206109296e-01 1.104018329662215664e-01 -4.706062369033998660e-01
-4.515826085845738858e-01 1.622924340970411661e-01 -4.390566156764005301e-01
5.142674253533721096e-01 7.627404416467900017e-01 -4.560753639256707181e-01
2.682259692845172516e-01 -2.519826400634920804e-01 -5.732182038305245753e-01
1.200091016154023055e-01 4.955085831558803666e-01 -4.522478868878274105e-01
-1.651688612662095546e-01 4.021529943729389989e-01 -4.353912862004804540e-01
6.079111209356190537e-01 3.639321280291185623e-01 -5.221496594460495189e-01
-8.189927135354496679e-01 3.983538602710869070e-02 -4.176469383542359970e-01
4.383063035424830112e-01 -9.262674435530719730e-02 -5.686564941458699396e-01
-1.613799507479817819e-01 -5.532591858214611254e-03 -4.932592905349744150e-01
-6.017250965251564887e-01 7.040258393953253979e-02 -4.362065661453031762e-01
-5.266884309073934789e-01 1.923591868286360917e-01 -4.269130018136779170e-01
-2.932535412906965844e-01 -1.068192294665593761e-02 -4.801047995780057254e-01
-2.645250857566535108e-01 -6.207336188540604205e-01 -5.691242586332327935e-01
5.682418641013810001e-01 3.164010103828895915e-01 -5.246744701670763567e-01
1.644759631686296963e-01 4.423865762810456070e-01 -4.644165676016778210e-01
6.950841885477712645e-02 4.165929236271211367e-01 -4.580567419501294091e-01
4.871790388216753476e-01 -3.456193261006016426e-01 -6.094635747205199294e-01
-2.005001858757329836e-01 1.016136742270364879e-01 -4.740378656790236178e-01
5.134168875720686032e-01 1.332936586456115735e-01 -5.447155030949071275e-01
9.205194460950243129e-02 1.331297828402550065e-01 -5.003878074258947262e-01
-4.603865647329106747e-01 -6.961490156783390892e-01 -5.591397401457296468e-01
-5.072690512907551685e-02 -5.755806199017865499e-01 -5.852626302387272661e-01
8.088753858293602494e-01 -1.030290794286035788e-01 -6.091271287978887727e-01
-7.147472413884415898e-01 -5.201921003593118487e-02 -4.415675416575807199e-01
-7.416943544696748269e-02 -1.565933485426498628e-01 -5.237328461864926288e-01
-3.484236690320169916e-01 -5.276455830096103972e-01 -5.471713972868541553e-01
6.868205321336847691e-01 -2.310156744604650314e-01 -6.143218054150655361e-01
-3.409874779834810854e-02 -4.343250229345948510e-01 -5.671008009052735943e-01
4.210192843608619451e-01 -7.352144800888295480e-03 -5.548162548887179968e-01
-3.140903993619061363e-01 -6.260159479396514293e-01 -5.646518790817304234e-01
1.470853200353758050e-01 2.957324881252750282e-01 -4.832591371491451460e-01
-3.062107520345223599e-01 4.994874333704270031e-01 -4.068252098791708682e-01
-5.004548427475039585e-01 -7.541445099957585496e-01 -5.630976576818162993e-01
2.263671769344309248e-01 6.261683256872369041e-02 -5.244649906062084366e-01
-5.676937327135455069e-01 3.856651992330253353e-01 -3.953476969939039853e-01
-1.406040867134349392e-01 3.480388447123240470e-01 -4.456050282944522545e-01
1.978121348040346936e-02 -8.955594387840895565e-02 -5.241717328070838455e-01
2.857493708365261842e-01 2.043847170452734174e-01 -5.107310260001141078e-01
1.111209020386834945e-01 -2.239993143349902904e-01 -5.527374430310663111e-01
-1.445297645783165941e-01 4.977767510560221487e-01 -4.240840989540300976e-01
1.260810312614116246e-01 6.966526325866018166e-01 -4.245328142208212863e-01
2.810452728005000123e-01 2.241859487981495702e-01 -5.074446247380879349e-01
1.978001374903634244e-02 6.230364640877357196e-01 -4.237213609720372198e-01
-9.169173492060029851e-01 3.554279956180790845e-01 -3.628525138234016123e-01
4.379221661554852374e-01 -3.068318206593954184e-02 -5.598842173165183844e-01
2.181713317034398858e-01 7.935625982203702300e-01 -4.205649185638877241e-01
2.318638186421624892e-01 6.818066243017762984e-01 -4.377597492621694286e-01
5.591486280957129740e-01 -5.477615778306098998e-02 -5.760401717066098159e-01
-4.853999292429843626e-01 -4.638170806100483379e-01 -5.237563974061378858e-01
1.643530515448486879e-03 -6.082567966504597023e-02 -5.182127018701775389e-01
3.294502240625072353e-01 7.922709788969256595e-01 -4.324596586052835145e-01
4.691393012381768757e-01 8.157049939738910682e-01 -4.438592774794044016e-01
6.390076954931079856e-01 3.836145640764199727e-01 -5.226482064442776743e-01
-1.975055498032677881e-01 -1.789960501790964220e-01 -5.139090809475411747e-01
7.468040115148987246e-01 1.304476377023347511e-01 -5.696818690099254567e-01
-4.220806422995337925e-01 4.709096412671358589e-01 -3.986577712289392506e-01
-3.591671012945180097e-01 4.788318843122684743e-01 -4.041629851829313669e-01
-5.244841610098558427e-01 -2.778890134698444037e-01 -4.934333234472604302e-01
1.240022185642451896e-01 -1.834556577931475696e-01 -5.483780498808958903e-01
-6.969727787607241654e-01 3.623426393778264032e-01 -3.850280754377263803e-01
1.244966939131289946e-01 -2.560093133381109443e-01 -5.586575870253418508e-01
-3.934232341247607956e-02 3.280983176992908756e-01 -4.590742490108786766e-01
8.239300687943473811e-01 -1.307747755415785418e-01 -6.146228691875902372e-01
-2.638945931435592862e-01 -6.051030852997496545e-01 -5.669872705432401627e-01
-7.280564590724343255e-01 -2.751692298450734153e-01 -4.716229140842486678e-01
7.006923367608183240e-01 -2.511905967780934668e-01 -6.186258313816689336e-01
3.239789155953589489e-02 -1.697774216881313691e-01 -5.368080841142301995e-01
-5.970917095042207468e-01 -1.135085632809225697e-01 -4.626191999022045698e-01
-2.622689649632631848e-01 4.232832203481828315e-01 -4.221923959135958637e-01
-3.858176473483849733e-01 -8.868477647917696535e-03 -4.701063267215823682e-01
-5.718626201196785885e-01 3.563459261156691760e-01 -3.990418776732504447e-01
-3.517012407162298238e-01 3.908323977926218551e-01 -4.173536100875986921e-01
1.968672869132133130e-01 -1.320445020035190542e-01 -5.488003188989036829e-01
6.306298225226746323e-01 4.770932409527334772e-01 -5.085892161824328017e-01
-5.716681274847841276e-01 -1.368574159611869734e-01 -4.685865205655096455e-01
-8.391836979766882365e-01 1.813145165042679696e-01 -3.955781974022512526e-01
-5.242187654836035771e-01 -4.742833520625829857e-01 -5.211458910150145174e-01
-1.605952539825034608e-01 -1.522104435128577016e-01 -5.140182565562630979e-01
4.051115857095836659e-01 1.237559334424644109e-01 -5.346603018628603987e-01
5.185518874014000135e-01 3.089795517630382071e-01 -5.204905105573287560e-01
-7.557178699799141919e-01 2.072323902552654085e-01 -4.007098983367264888e-01
-9.030304848850366495e-02 2.556105256266771875e-01 -4.639285810474458871e-01
-7.511799437658268630e-01 2.565360154921883518e-01 -3.942374762920009545e-01
-4.881280380196185986e-02 2.749816111765207571e-01 -4.655650038900440157e-01
2.847682184485094137e-01 7.362267106332045508e-01 -4.356569042815677806e-01
9.811500822638681563e-02 -2.445882537204087936e-01 -5.542708166978256301e-01
2.239030233490363342e-01 3.719572096479757395e-01 -4.805996086932384226e-01
2.199498716984170099e-01 4.085147787503334293e-01 -4.750301993216674568e-01
-5.416520604948648066e-01 -3.630820753693372871e-01 -5.036355139303828610e-01
-2.052598639111694878e-01 -5.244962347683171933e-01 -5.617961671822788716e-01
-1.766769165238379069e-01 2.830862282360290805e-01 -4.509641943829424404e-01
5.073637280415946860e-01 1.518050370095962720e-01 -5.414689298332521217e-01
7.073593361382255473e-01 2.154709005367499430e-01 -5.535448536703863054e-01
-4.415965338527167994e-01 -2.788398342146418685e-01 -5.022916983900499455e-01
-4.015275015742354459e-01 2.360337231087761001e-01 -4.339302641551615047e-01
4.145792215962004063e-02 6.135841670747076426e-01 -4.273355092233070973e-01
6.203786876635472014e-01 -8.244608604469218227e-02 -5.863854239896933995e-01
-6.512860052054560978e-01 -3.659159346080064767e-01 -4.924954590664035736e-01
-8.630159786323672311e-01 1.751667846806997386e-01 -3.939363411016069683e-01
-5.165715455838508774e-01 -7.056565574686701758e-01 -5.545662121322075810e-01
2.547163872410684315e-01 4.650799747135587192e-01 -4.707158657268652457e-01
6.995944555544447718e-01 1.009271246296361696e-01 -5.688741688240042116e-01
-5.811674995071302030e-01 3.976229568915953805e-01 -3.922438951853550737e-01
5.311918097689268814e-01 1.359518333484927288e-01 -5.462116954488903664e-01
8.384024316031614410e-02 6.538099214862346242e-01 -4.261260592692253102e-01
-4.987868044004105106e-01 -2.663130871328915905e-01 -4.945063056219806685e-01
-1.676609384000035119e-01 1.808859172453523845e-01 -4.663197893990509990e-01
-2.921257365423837182e-01 3.982806347131164215e-01 -4.225742967880855572e-01
-8.251023206647009056e-01 1.985040616244606315e-01 -3.946372178011878229e-01
3.948275205228467533e-01 -2.801207852669662102e-01 -5.905101389863074424e-01
3.854251994401619585e-02 -8.528068397013861823e-02 -5.255437954685043822e-01
5.263448219578474585e-02 7.164612643564540750e-01 -4.140098783604326815e-01
-4.349058168423353132e-02 -1.688537630198681527e-01 -5.286902344918466001e-01
2.445795412611466713e-01 7.138519120288481234e-01 -4.345808949804554899e-01
3.116116295754110532e-01 -6.082152478925007683e-02 -5.508378299795886335e-01
-5.788895966766131052e-01 2.187254095571521673e-01 -4.177018625971128385e-01
2.766295785571887267e-01 5.973207674910122611e-01 -4.543810805431653943e-01
-5.595721420529962131e-01 -5.495127793121337145e-01 -5.280294488850254542e-01
3.092381788503513751e-01 8.140743060916828533e-01 -4.272587428663018327e-01
1.631653792508226397e-01 3.066956486689064731e-01 -4.834062282534708488e-01
4.624685780523661860e-01 4.110464503739783698e-02 -5.523483151360703003e-01
-5.879331368771976152e-01 -6.987231338442467798e-02 -4.574320231517400304e-01
-4.472634725862691951e-01 -3.602191730563969463e-01 -5.131668236621254042e-01
-5.557107447546987267e-01 5.142872536497148372e-01 -3.784778212760021576e-01
-2.765870307520868487e-01 1.917715434752230719e-01 -4.533202789233800045e-01
4.475130312053207104e-01 4.437041841943653031e-01 -4.940219178950961965e-01
-2.596880155851982175e-01 -1.686396024159431128e-01 -5.059041695213797318e-01
-5.497830002622674517e-01 3.076078666097438741e-01 -4.082362066779479659e-01
6.618057768193628121e-01 -1.350762419696657224e-01 -5.981648197164476377e-01
-4.508160514753507542e-01 -4.846885199339492911e-02 -4.688471628753243525e-01
-3.325099743313499889e-01 3.775511103387205886e-02 -4.691449578266578824e-01
-3.849134596404846786e-01 -1.322835499692391059e-01 -4.875986432864902742e-01
5.007775703851788940e-01 5.566903488278414081e-01 -4.837012403907264280e-01
6.872134172482075032e-02 2.406756504096567092e-02 -5.133060461990209822e-01
-1.766210925277194033e-01 -4.742713781915627175e-02 -4.975607275903692339e-01
6.357140723012554284e-01 3.022172968376071189e-01 -5.337756624764204982e-01
-1.924603197890361328e-01 -2.534977700697840231e-01 -5.249422160425991635e-01
5.105271072245546465e-02 4.159575770903449765e-01 -4.562037464271090914e-01
-2.251784117777328176e-01 -1.302016691263178927e-01 -5.041180955155368792e-01
-1.884165242700186829e-02 -3.439743606664155684e-01 -5.559704499506976649e-01
3.108400754686975985e-03 2.488366532523671459e-01 -4.747154852831603211e-01
-3.989496064991852053e-01 5.620107379275581794e-01 -3.882504077985625690e-01
-4.002490276188115925e-01 -2.226987787971113908e-01 -4.987298361953548809e-01
-3.522165056818030715e-01 4.838294520987867497e-01 -4.041900908711261176e-01
-3.842999936681609080e-02 -2.563340502600841564e-01 -5.415545029897314011e-01
6.472160107276822005e-01 2.733251696199997527e-01 -5.390590646013803111e-01
-2.892230169354574332e-01 1.392042545301224732e-01 -4.594003998861077576e-01
-4.577127603799242550e-01 -7.207391749576140816e-01 -5.628875115672007379e-01
-5.986409306660785967e-01 -5.984822346605718213e-01 -5.308202165117767990e-01
-3.145549313686520354e-01 -2.735331033724983096e-01 -5.149154103277695516e-01
2.498440335212276930e-01 -4.111545271584447492e-01 -5.937210003014148363e-01
6.158488691399493370e-02 -1.059736802194837652e-01 -5.308860996538119492e-01
4.222558432955783037e-01 5.363950510722463871e-01 -4.782973474237065536e-01
-8.301389498485687302e-01 2.995742139935385073e-01 -3.798597816999280119e-01
-2.321938931374826695e-02 -3.495531645699699874e-01 -5.562960843557127610e-01
4.541651114773339604e-01 8.709957515874318101e-01 -4.344891330805958907e-01
-6.746276715053378670e-01 -3.217943412386533031e-01 -4.838190512010777100e-01
7.587530477998097322e-02 -2.062205188000822698e-01 -5.465214858940214970e-01
-8.388680426507476584e-01 3.511179857585980946e-01 -3.716751574706738670e-01
5.997734033568976608e-01 -2.676495408745772631e-01 -6.103237291624274974e-01
-2.397988233889258025e-01 -1.819200494032393867e-01 -5.098696796404855736e-01
3.068221500299333493e-01 7.298801779442089244e-02 -5.314713152585456291e-01
-8.252390270718545917e-01 3.618992435050767953e-01 -3.715899056469486594e-01
3.856076323752478247e-02 5.927549995270356975e-01 -4.299667421303522974e-01
3.347988769444483204e-01 7.191364714212351572e-01 -4.433320020558205177e-01
3.797678119563076549e-01 -1.267110443854125024e-01 -5.672996980838914682e-01
8.288680038579054887e-01 -3.433911362093716030e-02 -6.015486052528942196e-01
-4.807200018178675038e-01 -4.500764175973438475e-01 -5.223120375492023015e-01
-5.969119161304454746e-01 2.084165256413426093e-01 -4.172581089667727339e-01
8.486408298475426326e-01 -1.678637700927116116e-01 -6.224520343112396326e-01
3.388930140020094406e-01 -1.268545672435334067e-02 -5.469238563433492795e-01
5.409123829356256991e-02 -5.155038406813096108e-01 -5.878265769603449042e-01
6.116216343042617520e-01 3.161834071952618896e-01 -5.292710852218261985e-01
-5.079338418849626002e-01 -7.251838305954075858e-01 -5.582280268857617855e-01
-1.665502350232523909e-01 -5.021748867017603590e-01 -5.627240337812018378e-01
2.767328942789813728e-02 -2.569367914354169780e-01 -5.485971743633549780e-01
1.336538592616309806e-01 6.370253139449923996e-01 -4.337352290099028007e-01
8.330584772119762477e-03 -4.898383852760243573e-01 -5.793921176360137260e-01
-8.459161982729341833e-01 4.064291498047233331e-01 -3.631363917627967175e-01
-7.459076067422234502e-01 3.769470877901727190e-01 -3.778187276831435626e-01
9.954603442564444529e-03 5.488989627425533424e-01 -4.331379438952678296e-01
-4.723811112490550884e-02 3.985029754311871231e-01 -4.483186186610712554e-01
-8.432448478716694784e-02 -4.992550253297863838e-01 -5.709671139824726849e-01
-6.288395929659473804e-02 -3.301518737351051835e-01 -5.493862936691529253e-01
-2.408010276124137872e-01 5.284448685947832347e-01 -4.096279440585322562e-01
2.412459471487782559e-01 -6.387130539135570106e-02 -5.438613960411968762e-01
4.981493083419375606e-02 6.293941801201381470e-01 -4.259864758780960159e-01
4.999300913810205693e-01 -3.515028636698101505e-01 -6.116350576829882035e-01
3.626477355840785899e-01 -1.247443380939296798e-01 -5.652204874509489940e-01
1.856659684333581972e-01 4.001899968023774345e-01 -4.725951435793904754e-01
4.103711058148812874e-01 -2.654401946643052401e-01 -5.900767377528459701e-01
6.195461200905654636e-02 7.131520782431153282e-01 -4.154573470979245342e-01
-3.409804050824570276e-01 -3.324006047018265853e-01 -5.204322242266938847e-01
1.122839488557988985e-01 3.048373946827466208e-01 -4.783126476407030259e-01
-3.137747117230856309e-01 -6.384418065612845750e-01 -5.664367119815665319e-01
-5.343894994270730336e-01 -6.465734939393623648e-01 -5.443621665705667967e-01
2.000447103391315984e-01 -1.532724291742143807e-01 -5.521271433511695248e-01
1.626402878436307986e-01 1.398618696801794403e-01 -5.068686030178757296e-01
-1.713910781777299996e-01 1.101979122548019663e-01 -4.758916738530874491e-01
2.122461406787053695e-01 5.060025915322663437e-01 -4.604770200058070917e-01
