-6.250510202520297154e-02 4.297491947058924844e-02 1.280735759427044373e-01
1.010024320149161270e-01 2.115030312697713799e-01 3.631566176167441706e-01
-2.598032510429122977e-01 8.332485104664096032e-02 -7.673984991288689272e-01
1.671502032488777212e-01 5.339295105725024859e-01 -1.800093432073011646e-01
-2.438794511627314088e-01 5.467363116288546931e-02 -6.313742655771734658e-01
1.427501929537151326e-01 6.917482230410783306e-02 8.885067672345589029e-01
-9.377788432893488513e-02 -2.426072594225963663e-01 7.191255570344990966e-01
1.392385042897782352e-02 4.488670211522381992e-01 -5.832422638980804264e-01
-1.190974898921457470e-01 -2.455033029325968397e-01 6.244778420861840651e-01
1.897995414398609970e-01 5.903188391719673689e-01 -2.304011155677283262e-01
-6.513068685771597477e-02 3.477635961988678193e-01 -6.476446811615198529e-01
-1.018707484932641627e-01 9.834507221823880763e-02 -1.693861263096938519e-01
-3.711398214374146964e-01 -6.464630316885416894e-01 6.165216448034355201e-01
-2.238652004026879527e-01 -5.568338681334696755e-02 -2.737684931869520666e-01
-1.725429716815203851e-01 7.575982501838113281e-02 -3.971616618106627028e-01
-3.614217399449392576e-01 -6.480230146837626659e-01 6.595556815028209563e-01
-2.754931384787593918e-01 -8.990631753861279274e-02 -3.956702615518698507e-01
-3.216239657134135621e-01 -3.340205905467591996e-01 3.147207866020881178e-02
-3.142469484144282399e-01 -7.839175014227380001e-02 -5.805709352913092092e-01
1.222591628286352483e-01 3.979719447004750332e-01 -1.939600911722061741e-02
-1.683763369031344992e-01 2.129387922070152539e-01 -7.247675939434520265e-01
-8.175027800538324507e-02 1.022786332910239626e-01 -9.827089841019920335e-02
-1.203185358664378563e-01 2.107547226262234397e-01 -5.258394577998438679e-01
-2.579924309281605987e-01 -2.485573958894974830e-02 -4.885300462909025754e-01
-2.180989378154071234e-01 -1.105866422106463742e-01 -1.127271903121933733e-01
2.004924557996340118e-01 6.928497393384914771e-01 -4.447556412233351630e-01
-1.625065690217353809e-01 -3.259540383153963772e-01 6.517106348814463157e-01
1.166348981859152145e-01 3.144523953857976672e-01 1.676345539565288478e-01
1.359081196556908844e-01 6.417654675391091246e-01 -5.764811340992893607e-01
-4.856062681000534315e-02 3.823442877205898704e-01 -6.677581524066709129e-01
-3.562133413346025290e-01 -5.507495496647852873e-01 4.363229536708359002e-01
-1.476247059067886946e-01 1.833637665930531180e-01 -5.669909338762540996e-01
-3.325071624629024059e-01 -5.353823230216112616e-01 4.931682156368328296e-01
4.333726414796824217e-02 2.280258370464639459e-02 6.047578870359477943e-01
-2.573349658697196007e-01 -4.101077531165360779e-01 4.812633139432620499e-01
-1.962702468714933035e-01 -7.772268998365029248e-03 -2.829689476078480204e-01
8.612994735706985816e-02 2.133193570786030835e-01 2.987312333268643538e-01
-2.807819649130552375e-01 -1.393091754415685113e-01 -2.929369208372308853e-01
-1.418757031360642629e-01 -6.473187888902480480e-02 7.897620337643718180e-02
-1.359756267791381035e-01 -1.447050323287187579e-01 3.034922798042422598e-01
-2.125243505353419937e-01 3.724686944831244462e-02 -4.614131977757403025e-01
5.907385813809166303e-02 2.553732283288776550e-01 8.425025809073263816e-02
-1.408871402001972972e-01 3.405558307327853640e-02 -1.650432423662961390e-01
-1.765021739570165893e-01 -1.083331307725069470e-01 4.905336387741784238e-02
-3.317670905966831341e-01 -2.344848046436881772e-01 -2.592339276686099203e-01
3.688879350140745333e-02 1.609161256047983990e-01 2.320772043715967903e-01
-5.001932790000984674e-02 3.986372090520525768e-01 -7.145319875928853870e-01
1.127318993750286019e-01 5.929759664695142263e-01 -5.472890086156598777e-01
-2.102862241316117153e-01 -3.689581102885824415e-01 5.673436199872889940e-01
1.498180711026786127e-01 6.258802383153196924e-01 -4.806112481790268953e-01
-3.539872240478799115e-01 -4.729305285683306770e-01 2.499247182597477412e-01
-3.172890898716750896e-01 -2.784608603114349656e-01 -9.055753802811776498e-02
-3.239122270067543718e-01 -4.706287277223010213e-01 3.652059273977788512e-01
-1.961552527859637129e-01 1.798140369992083654e-02 -3.471587706831735787e-01
1.669711362205395788e-01 5.007944238826802508e-01 -9.754693262075665727e-02
-2.727718159574602508e-01 -5.109483842327450231e-01 6.722789640277921919e-01
-1.454189719702665695e-01 -2.427873049078304313e-01 5.117086945321966951e-01
1.808028902692510320e-01 6.474260972791688884e-01 -4.099785624271482520e-01
-2.952799244595386563e-01 -4.173588137907191520e-01 3.467282092951936567e-01
-8.454286629769615369e-02 -8.885783286068649200e-02 3.703222685599266706e-01
-1.703038263893204840e-01 -1.285966030495561407e-01 1.248732895453941311e-01
-3.051987389146937346e-01 -2.222635733809051606e-01 -1.829698828592122850e-01
8.891449372037890653e-02 5.384130198993520855e-01 -5.061840105807310364e-01
1.802953807887084370e-01 4.819949526155128394e-01 3.281320936278284400e-03
-4.615572347456554231e-02 -5.130091487243557125e-02 4.305566506359235768e-01
1.180625962949696517e-01 2.207139564128559606e-01 4.087048794503265747e-01
1.133596212356551836e-01 3.423111351140530889e-01 8.451338906399689932e-02
1.329559697433231324e-01 1.757502397399078875e-01 5.815327031255164147e-01
-2.552031076806772769e-01 -3.896237680623750865e-01 4.384210590740315605e-01
-3.336532847085322828e-01 -4.047142958451300787e-01 1.605222869385076467e-01
-3.254961561550245852e-01 -1.634397728961311802e-01 -4.123451156757942382e-01
1.236191198295890775e-01 1.288534005088114442e-01 6.616805171410632402e-01
1.298599888608293895e-01 4.735203391968522135e-01 -1.784593979474887182e-01
-5.860580272876756563e-03 -9.598370372531722650e-02 7.049279774831490597e-01
-4.703858356405411084e-02 -9.039735971514893664e-02 5.251516624111647324e-01
-2.185058918769309522e-01 -1.795845751908846655e-01 5.884895778612578982e-02
-8.987839363299922335e-02 2.208097428130340739e-02 7.034164937869069600e-02
-3.021936295453800936e-01 -4.048891239334200809e-01 2.875945014301011238e-01
-1.702597333381511979e-01 8.813160934889563425e-02 -4.190294877993193112e-01
1.620910311518744540e-01 2.832973831698357148e-01 4.288197214286116887e-01
-2.868854916255501042e-01 -8.156496672671299797e-02 -4.624678045240653845e-01
-3.629416796788506594e-01 -5.358042502641664484e-01 3.717205593317175483e-01
1.656574592444597649e-01 3.745395455133313511e-01 2.141187762936618277e-01
-3.015409142100217502e-02 4.042348095281184661e-01 -6.486215919177178435e-01
-7.423408473679103670e-02 -2.435516650153445317e-01 8.001653112328308559e-01
-8.076042837916005968e-02 2.855847254472939079e-01 -5.544629799855536056e-01
-2.998968839686907972e-01 -8.223558584918842784e-02 -5.131585139566251508e-01
-8.585759130870075639e-02 2.882814834217253819e-01 -5.817504037572965858e-01
1.063793127730876670e-01 5.263247012947506187e-01 -4.055367202177214137e-01
3.396422492764135381e-02 4.031624510560408159e-01 -3.878365597680744625e-01
-1.248595127633632049e-02 1.156138466669825449e-01 1.470590171591655559e-01
-2.056832719656906117e-01 1.398997861425947675e-01 -6.915786811547818269e-01
-4.363435723231670615e-02 1.223870177315617563e-01 4.675006405648001948e-03
-1.370549706405611579e-01 9.211213764218789679e-02 -2.953644771745483344e-01
-4.083254700201797288e-02 4.309227726305367434e-01 -7.586033339030664457e-01
-1.178957186380528814e-02 4.265825332152584082e-01 -6.308019278632974736e-01
1.701500112718510038e-01 4.153778701075929169e-01 1.296808553016917109e-01
-1.669228690933785841e-01 -3.514216387816857523e-01 6.978684156061787380e-01
-2.301578613811887386e-01 -3.498552216739371223e-01 4.393986953770825377e-01
-2.153567769221420014e-01 -2.681966382730903153e-01 2.939790450309517911e-01
-3.247083777342295585e-01 -4.384784273922334163e-01 2.812902447071043421e-01
-1.555672174949964404e-01 -1.994605786087601806e-01 3.620907931216333919e-01
6.262595641539202979e-03 -2.864713154890013644e-02 5.846834039931880778e-01
1.509875456887029704e-02 8.285135739896733187e-02 3.403424800360500546e-01
-2.691616408945504135e-01 -2.370964179158102370e-01 -6.743924013368541616e-04
-1.757371268514572871e-01 -3.182162792750411473e-01 5.790291112039824828e-01
-1.844606572519612575e-01 -1.868020138105292993e-01 2.140087609338018615e-01
-1.703988466843320837e-01 -7.990328403866467713e-03 -1.782823885995077628e-01
-2.612745205907174642e-03 -8.333508462698310804e-02 6.862479316607392743e-01
-1.691506569256424619e-01 -3.231861948178302857e-01 6.180179794323843456e-01
-2.069187350661033098e-01 1.378660634738417268e-01 -6.914462310990121541e-01
-5.749118693542806108e-02 -1.089833576739987070e-01 5.297359893891308014e-01
3.603668285207106692e-02 3.803830343284374527e-01 -3.223083227598961265e-01
-1.725853443416908439e-01 2.237867405041074065e-01 -7.689429248824888319e-01
-2.603572984521499434e-01 -2.312132264673816828e-01 1.999606327581224599e-02
-1.248499415627376957e-01 2.371335390061760917e-01 -6.103016297827497105e-01
-5.976347635085108717e-02 2.782113512691973267e-01 -4.514344544628223210e-01
1.302800732567000776e-02 1.508389305090988841e-02 5.021324252614499661e-01
-2.497456609763167371e-02 1.397089220958600275e-01 3.630016598629297320e-02
6.131662782941371855e-03 -1.108810919567254638e-01 7.905986844273720227e-01
-7.088089888637734426e-02 -8.737325029058340409e-02 4.215883169413048859e-01
-2.795745066299578085e-01 -7.570469891142189711e-02 -4.477509541634441814e-01
-4.298743498026366683e-02 -1.446082334519968766e-02 3.508254938912406251e-01
1.319577138449416487e-01 3.002373560369068217e-01 2.649986979736593806e-01
-1.598816784736729890e-01 -7.525827924940449443e-02 3.292320916802491532e-02
-2.831628939196202399e-01 -3.686807324818877629e-01 2.732996703430764507e-01
8.960585792208144648e-03 1.630802469630580065e-01 1.142260127265144198e-01
-4.914917547108549334e-02 2.540303946725925299e-01 -3.480046076403774391e-01
8.705753662023878181e-02 8.987709018459785759e-02 6.123577691261937739e-01
6.338299053980429865e-02 4.440546613307919110e-01 -3.720752426423891146e-01
-2.972846155613125818e-01 -3.111248008029198764e-01 7.196611539607178365e-02
-8.290742506885814822e-02 -8.823416788445336001e-02 3.753396811450042114e-01
-1.905987659802197698e-01 -2.894150599322609652e-01 4.469037892192969097e-01
-3.930991096987634936e-02 5.044659972205772780e-02 2.026831680706936423e-01
9.805673568968989451e-02 5.796325423889192585e-01 -5.728626855478781144e-01
-2.439085333384865550e-01 -2.053146615102504347e-01 2.119018950147212241e-02
-5.009325249859161028e-02 9.482109577652549082e-02 4.787849048045231953e-02
-2.593597294109225432e-02 3.023195901894029092e-01 -3.757918895659486669e-01
1.824041421560158027e-01 6.160194479150806757e-01 -3.246890186251275012e-01
2.677008060367223538e-02 2.180317312546593278e-01 4.796221036613855515e-02
-2.217509516939875081e-01 -1.049955688988324087e-01 -1.414634781745989500e-01
1.277755015215755463e-01 1.913667789920956985e-01 5.214757915856109705e-01
-1.706813550518880007e-01 -3.452079348685793692e-01 6.671404814319830123e-01
-2.884611529391238882e-01 -2.947553483780680078e-02 -5.995769464314641972e-01
4.700683898559578772e-02 5.383678045391675215e-02 5.416198111604132448e-01
-2.445177235109841640e-01 9.887802887751304115e-03 -5.215119449694040066e-01
-8.578297047064335767e-02 -5.934344478607363194e-02 2.912368215702563212e-01
-2.859255707935106638e-01 -4.282048314142118950e-01 4.116100546610534372e-01
-1.055049369661954506e-01 -2.077639107789220896e-01 5.844494416964008954e-01
-3.374036906545223036e-01 -5.662273303615040776e-01 5.508925379691693713e-01
-1.494901477588438943e-01 7.012793931782371204e-02 -2.902295943837926440e-01
6.822359319474835537e-02 5.136334751172615398e-01 -5.272630568051099864e-01
-1.667308966873023990e-01 -3.914868796079935542e-01 7.992219998334724185e-01
1.239163057605648516e-01 5.304787259650444176e-01 -3.453741210879491264e-01
1.847139856428022670e-02 4.094763303936466148e-02 4.591144753198924122e-01
-2.738414228723408117e-01 -1.489996954308346333e-01 -2.406720891114530192e-01
-3.254831126360330784e-01 -4.923691366196374375e-01 4.134604030076048375e-01
-2.149752562615211970e-01 -4.406591490458215410e-01 7.284692350246397829e-01
4.132827563691673922e-02 5.058165238211276282e-01 -6.158998460466750258e-01
-1.381192529276452363e-01 -6.149011408843927523e-02 8.595868321246963317e-02
-8.068106886968406943e-02 1.861784458752535620e-01 -3.045913715555621515e-01
-2.398252675197121431e-01 -3.939076990045682902e-01 5.110753726330772295e-01
-1.170956556913893692e-01 -9.353652529595554710e-02 2.510343104293283889e-01
4.987784080901959405e-02 4.963156474838788523e-01 -5.576343628065683067e-01
-2.871939589889075939e-01 -2.592977245003213471e-01 -1.752442826510491880e-02
-1.991734144004737028e-01 -1.855378715432324521e-01 1.516125377852853839e-01
1.917723402327938809e-01 5.723738864654468461e-01 -1.774105995113943457e-01
-3.327863377465147265e-01 -2.020419413655186180e-01 -3.447820894751686960e-01
-3.228490681906424631e-01 -4.517130525236928151e-01 3.219990054109790889e-01
7.245670918045686582e-02 2.779768508700751761e-01 8.137499112595932005e-02
-1.479431473177215961e-01 -2.419646443808410319e-01 4.994830012294076416e-01
4.606944699189145093e-02 2.033229642015412508e-01 1.625724758954127380e-01
7.075200147068182177e-02 1.762086743904144881e-01 3.299946322050336112e-01
-2.299557082682657239e-01 -4.521601833529181880e-01 6.970415086899214296e-01
-2.696150617010814043e-01 -5.866342576516484636e-02 -4.504424543454227936e-01
-1.723324338403905628e-02 4.524851364380892971e-01 -7.177407096791150742e-01
-2.183250382435015235e-01 9.472386967336103580e-02 -6.290542681512688583e-01
-1.312421709125247693e-01 5.113230505232180256e-02 -1.690895807581684618e-01
-3.291165758003302688e-01 -4.568028335856324507e-01 3.095481734042790922e-01
-2.544490324311940443e-02 -4.350872757864291535e-02 4.943613925067807391e-01
-2.915623577434787728e-01 5.370524878887903211e-03 -6.995385792811369408e-01
-2.606568367705419109e-01 -3.123262992095619528e-01 2.224187565563651159e-01
-2.566533165848909892e-01 8.868634931736758820e-02 -7.681788386879019326e-01
9.146445031408784176e-02 1.027280780143614847e-01 5.978352853971766745e-01
-3.053547688471061061e-01 -2.378435278277733766e-01 -1.444856124137761932e-01
-1.456033568333978678e-01 1.637749709370107387e-01 -5.096782432506649085e-01
-3.038445009536271391e-01 -9.249058793319074601e-02 -5.033042727185714771e-01
-2.172790273788421378e-01 -3.051005145475491759e-02 -3.104532381061173019e-01
7.906723327892996311e-02 4.733387718463753502e-01 -3.824576820077996153e-01
-2.634078868778353955e-01 -2.989573680221538354e-01 1.777833418926322850e-01
-3.532393997392918594e-02 -5.599358121831442270e-02 4.859380000643771513e-01
-3.722799727495631483e-01 -6.147274857851443564e-01 5.322624805263791448e-01
-1.844804041946119244e-01 5.363569884023764583e-02 -3.896719484954649926e-01
-2.766993328857152434e-01 -5.103259949484664215e-01 6.549072209103685704e-01
-2.921604231087234771e-01 -1.318489439331953228e-01 -3.574665476922992968e-01
-1.060555411066263914e-01 1.646440400484907585e-01 -3.526696991580990370e-01
2.172219742060934461e-02 1.369458090262701822e-01 2.312034171168706465e-01
-2.398736691860851034e-01 -2.476488249355071614e-01 1.437083793914210039e-01
1.488303838252390265e-01 2.258077743152538674e-01 5.197655972817522008e-01
-1.346287747417402800e-02 3.168086505576525047e-01 -3.619581476202564652e-01
4.218355898439650475e-02 6.137454660062596073e-02 5.032818420922378078e-01
6.962755115512604676e-02 1.421111932187674454e-01 4.110676490434759800e-01
4.373707957653640704e-02 1.717245383995011088e-01 2.325096161961718866e-01
-2.014986227398490315e-01 -3.599109059987884995e-01 5.800036666548500364e-01
-1.981323455602193931e-02 -1.065608365817942160e-01 6.753180184373629436e-01
8.410463733384419827e-02 3.355899504422475421e-01 -1.637251461665352112e-02
-3.123962180543630729e-01 -5.640381527741422651e-01 6.460583712855360039e-01
-6.557071229584965355e-02 -1.991434059385135957e-01 7.235539723923561928e-01
-9.835652145132217639e-02 3.488139409146107095e-01 -7.840241489504277128e-01
-2.306894948289641423e-01 -1.834287389170776716e-01 1.945726736569828447e-02
1.535992626786640558e-01 3.918524913641701635e-01 1.221185092263961935e-01
-4.717188387193216488e-03 -6.589950457072375756e-02 6.340062552251868322e-01
-3.183542255694978285e-01 -4.676206869109682251e-02 -6.765077904222253080e-01
-2.642485389499107939e-01 6.916081160707629460e-02 -7.497341619694063430e-01
-1.104285528240072783e-01 4.606422789025855363e-02 -7.258630107019481414e-02
-2.577891990039320458e-01 3.511599179308357022e-02 -6.382666128135572325e-01
-3.377821978789685015e-02 4.063498753998872060e-01 -6.685193718757219683e-01
3.823280313703165262e-02 3.671234951486483933e-01 -2.801812660424450874e-01
-1.898728759462373628e-01 -1.951422100070992482e-01 2.131606185239795781e-01
-5.440332213759582758e-02 3.051421750632881680e-01 -4.974662906926813344e-01
3.859580469532427477e-02 7.099098277882985586e-02 4.646988379429979332e-01
-3.558500740993778000e-02 -6.318813575702601770e-02 5.029485363991852420e-01
-1.408968630031575894e-02 4.659270101869091296e-01 -7.388319091485938683e-01
-3.106885692270242583e-01 -3.537437561578521406e-01 1.250034621450686334e-01
-5.047816155502851676e-02 3.448592401270532126e-01 -5.813732705907321829e-01
1.158059527423862256e-01 -1.361087587482750876e-02 9.878765858162554814e-01
-1.094969800888352524e-01 -2.027719674699248187e-01 5.558485192755528992e-01
1.125471553875950215e-01 2.894799349693573109e-01 2.138718507050721140e-01
1.180183185842750143e-01 5.771647422854812026e-01 -4.863168744770747787e-01
-2.147300646675449898e-01 -3.962123178720802219e-01 6.178756891379629801e-01
9.472326934186943437e-02 6.040873871409102591e-01 -6.476728495522019458e-01
1.127985567148250962e-01 3.581056940950387291e-01 4.260387739382245909e-02
-2.766782166219728945e-01 -2.038075942421033737e-01 -1.144997186634886394e-01
-2.975939394701675456e-01 -3.790455348376211009e-01 2.412310214788457030e-01
-3.391701965908887062e-01 -3.213725735534309624e-01 -7.090799724941879156e-02
-2.808838905781819717e-01 -3.570056611604617847e-01 2.531638442178398285e-01
-1.005066821035486974e-01 -1.908573966672312550e-01 5.621261595389903665e-01
-6.948030234502196312e-03 2.520486619577897991e-01 -1.731589912286068123e-01
-3.103955342420907648e-01 -9.372986735727842356e-02 -5.265627711967482139e-01
-2.873405117235213746e-01 -2.396086960017559109e-01 -6.754220159122982514e-02
1.824380426158478397e-01 5.898943105666206721e-01 -2.589673214222796838e-01
-6.247574294350664859e-02 -2.473847960798699064e-01 8.571184993639442418e-01
-2.438532487585551300e-01 -4.103903372321812126e-01 5.362401500359557094e-01
-2.143000752272823939e-01 1.064430922369765803e-01 -6.422729894297926068e-01
2.233912892454525956e-02 4.658141176645517190e-01 -5.919130133992493992e-01
1.641643027107869690e-01 3.146862649043088989e-01 3.583656976900326252e-01
7.534479012125597230e-02 3.416957818702059391e-01 -6.696142698812417027e-02
-2.748693905010458627e-01 -2.330758652323990932e-01 -3.374287629386562432e-02
-2.439229277426618880e-01 1.298235515217434355e-01 -8.202076271350128289e-01
-8.107265018503462262e-02 1.035995217121785938e-01 -9.885926299821952423e-02
1.785002358598035688e-01 4.073439224736986053e-01 1.834613238761315657e-01
-2.865403043319560972e-01 -3.936938160526555763e-01 3.224982217521674688e-01
-7.785950007505480774e-02 -2.243994585107047801e-01 7.374918603177069709e-01
5.228802479217226767e-02 1.847651415434484468e-01 2.341919254020746188e-01
-2.287560270932360584e-01 6.172965324648791580e-02 -5.882121625811393972e-01
-2.216460996642629494e-03 3.889961943183666004e-02 3.809818298813080206e-01
1.767215563681991675e-01 5.173751907109930270e-01 -9.992374479474638860e-02
7.274809273257364095e-02 6.597657671909282207e-02 6.147590075325032322e-01
1.478035378669236566e-01 3.413979048510787373e-01 2.254517391467187049e-01
6.711804106635217704e-02 2.437127407446172955e-01 1.459029913805586498e-01
9.615617241103935342e-02 5.193868773809294792e-01 -4.292706303908906951e-01
-1.996081106206458802e-03 1.578677685410440346e-01 8.320811366197669590e-02
3.054454746988292946e-02 5.644323690475623601e-02 4.688114744489866315e-01
1.263794686397042288e-01 6.077113745510690501e-01 -5.293461410011547352e-01
-1.726346975611762757e-01 -1.675239865958698671e-01 2.132152628854940557e-01
8.279655803996911756e-02 5.087351277776481773e-01 -4.563061291731833613e-01
-3.541430941793866638e-01 -4.647281622474861984e-01 2.287058619382502378e-01
7.678682540302925186e-02 5.243144295969054403e-01 -5.196075645392621567e-01
-1.437270247159734005e-01 1.470662167999855219e-01 -4.601794164737382786e-01
-3.563673876742869395e-01 -5.272677732206272339e-01 3.767536014040298031e-01
-1.153857400335333849e-01 3.191675102356523741e-01 -7.781460101583859146e-01
1.898200827682604286e-01 5.485562069892021553e-01 -1.254764097980201609e-01
1.623966426528341764e-02 1.551899973629881080e-01 1.633340953110170857e-01
1.130318627867540060e-01 3.683300700225200508e-01 1.787545020045513272e-02
7.663042213164118766e-02 2.519574749316630391e-01 1.634950076344116598e-01
-7.285124486113866635e-03 2.310353905817074394e-01 -1.217636087215253210e-01
-9.962970369807182258e-02 -6.414475785835534009e-03 1.026258168066827431e-01
-5.741902126348750329e-02 4.856374217184392106e-02 1.345160492015207709e-01
-1.040086125487988539e-01 9.269118848986923967e-03 4.562705328727228310e-02
-2.119394804980154756e-01 -1.136876276309641519e-02 -3.370129683191206427e-01
-2.622573978071847667e-01 -3.023252817364729395e-01 1.908692607033447286e-01
-1.168706006292938998e-01 -1.116823187993183919e-01 2.974938979693825258e-01
1.256680420816954913e-01 1.578761821160713785e-01 5.970684017208330863e-01
1.349231994840249527e-01 3.042999897926368935e-01 2.667366077788948520e-01
8.716828965128370701e-03 2.520002565347916890e-01 -1.099823269526854636e-01
-2.940032740899488073e-01 -4.530487749496333039e-01 4.414640870333462197e-01
-1.348667447958849797e-01 1.393743881547848951e-01 -4.052047066888851967e-01
-3.165159988018533266e-01 -3.335867124815986018e-01 5.094375937674408550e-02
-2.568510870983468641e-01 -4.213870911351751958e-01 5.115270021464073391e-01
-6.227838944385122311e-02 2.761946797917887442e-01 -4.564949302629017214e-01
-2.203858657041374847e-01 -4.032364523400853717e-01 6.127431879033908846e-01
1.172880347549722091e-01 4.370817530391825079e-01 -1.375883989199086777e-01
5.939527195724735725e-02 2.703042647834025258e-01 4.806076191753259896e-02
-2.768430767621398725e-01 -3.813202652084782263e-01 3.304692023739462803e-01
-3.188326346360668695e-01 -1.154926370618669512e-01 -5.058904665854746519e-01
7.558574381079498361e-02 9.890403448110611506e-02 5.435193286804916868e-01
-1.337459465757115940e-01 1.971166766823494176e-01 -5.456509768485088285e-01
6.139288285673170920e-02 3.591995903765826670e-01 -1.670635204627739512e-01
-5.601828393109518911e-02 3.131008808701641333e-01 -5.239466798740497477e-01
-9.924045237941975239e-02 3.176265597596739099e-01 -7.092885712241795426e-01
-6.149726668978554300e-02 -1.475511970365585290e-01 6.104322017669817635e-01
6.328537115585558016e-03 2.722545513900234138e-01 -1.704427448793413014e-01
-2.671347969621469254e-01 -2.366407552604493092e-01 6.340275692466952086e-03
-5.761129411556892288e-02 -2.432830072453991133e-01 8.664019355877116135e-01
-2.683495418077975758e-01 -5.780541057050706671e-02 -4.475023906823080710e-01
6.404870713559425444e-02 4.928917703633961533e-01 -4.919975358578378422e-01
-1.172593076649478122e-01 1.491480574258380876e-01 -3.588662566321992320e-01
1.643676746114785814e-01 3.561543093010367533e-01 2.550818421034192207e-01
2.447434303443744505e-02 6.658896855420659566e-02 4.189072032508166510e-01
-2.826206880454763468e-02 -1.469355878132868332e-01 7.426671042112499288e-01
-2.970339318618447563e-02 -1.269530775524103094e-01 6.867007727212315338e-01
3.692842473832584627e-02 -8.745006971849871025e-03 6.581585459563740192e-01
-4.502656871769339375e-02 3.830672392402295068e-01 -6.553475630798223373e-01
-1.226491994425411569e-01 -6.485301986796768170e-02 1.566720134220447869e-01
-3.096083128734217205e-01 -2.331274469134737848e-01 -1.734466119244912896e-01
-3.103867175476980877e-01 -2.120556238648327874e-01 -2.294791583718120698e-01
2.085427376281883960e-01 7.594062977030429096e-01 -5.794365088284846310e-01
-1.651771507332501221e-01 -1.885921901961712666e-01 2.961240130608109311e-01
-9.960965674186825214e-02 -1.821204979033955729e-01 5.438035778814648280e-01
-1.722326083254153983e-02 3.303165381226146058e-02 3.353066413417961078e-01
-2.393881238735359462e-01 -4.074607810702912669e-01 5.468590072363075372e-01
2.351766511511102498e-02 4.254585800603711276e-01 -4.858594837510153974e-01
-5.226502211455059249e-02 1.721732075957114472e-01 -1.550502458838145803e-01
-3.466675464595053158e-01 -5.776221738563226404e-01 5.422090188526134114e-01
-1.887086886270965547e-01 -3.158895189237218570e-01 5.209740291209695728e-01
-1.412562276349795254e-01 -3.107379261797428849e-01 6.990498719961101282e-01
-3.358443086804299704e-01 -2.252010425215722200e-01 -2.989519975264176566e-01
-1.960690989175731258e-01 -2.662311261579122790e-01 3.666827082671794136e-01
-2.382557104087330846e-01 -4.826002881100358577e-01 7.400494820402914176e-01
4.259403078491053735e-02 9.321115999536196128e-02 4.250106179621259694e-01
-4.951812237861107080e-02 -1.160041278414157551e-01 5.794547827841810550e-01
5.323702588948882753e-04 -3.045022052097339296e-02 5.661442739963558068e-01
-2.178505108811700230e-01 -3.712949643957811491e-02 -2.961359777472539201e-01
-3.185212543757104386e-01 -1.059677012961017795e-01 -5.285487316292635240e-01
-2.823226341776132742e-01 -1.470506034970964770e-01 -2.797042299654720066e-01
7.068648159624305038e-02 7.196650566139206617e-02 5.914232079491638094e-01
1.821272126886332443e-01 6.108860284496244741e-01 -3.129166593628799342e-01
-3.311437243239228057e-01 -1.849314873460762843e-01 -3.811246802453570059e-01
-2.842544438360816370e-02 1.303896490093286176e-01 4.580483117161451151e-02
-1.411699685514879177e-01 -1.430720089276195928e-01 2.784841133702359861e-01
-2.696446423482198318e-01 -4.584072594161000408e-02 -4.827519705354553214e-01
-6.932206781423587427e-02 2.753201953872039809e-01 -4.826522448617203698e-01
3.543125554420627904e-02 4.641030468772189832e-01 -5.349182697994592228e-01
-3.303738531123062705e-01 -3.101741655177531198e-01 -6.361320044735828405e-02
-1.121907485187125242e-01 2.433232232941474060e-01 -5.748838222813228427e-01
-1.576437638765037508e-01 -3.404042987720545810e-01 7.075610123652925632e-01
1.138097299147746294e-01 3.162982756600007939e-01 1.516285675491980123e-01
1.164648120212085636e-01 3.816778380778354518e-01 -1.814624912009387423e-03
-2.195980677723688781e-02 2.386536227381393094e-01 -1.999580467341823264e-01
-1.057952443327901670e-01 2.540162818374044340e-01 -5.759843873359525857e-01
1.168653564576375009e-01 4.372489882124562244e-01 -1.397096209871909744e-01
8.925067149589599458e-02 5.949869188225305194e-01 -6.468554264667119025e-01
-3.280043657179679273e-01 -4.408878123355357559e-01 2.740716169707937966e-01
-1.446905206173605338e-02 3.953990104950824702e-02 3.300545735499361699e-01
-1.176485864804161993e-02 -5.398333420492192232e-03 4.537537956257142180e-01
1.120423292341895527e-01 5.652243238407883563e-01 -4.803962472941714634e-01
-1.092720596355497842e-01 -2.417619681020632683e-01 6.546354164355452365e-01
-2.897136059189204249e-01 -5.543721601097308938e-01 7.130960393142993237e-01
1.225625881793506039e-01 6.266635199581336302e-01 -5.922880502999741115e-01
-2.470112688298382597e-01 -1.822644481744888911e-01 -4.916499856481027636e-02
-2.205432760377426527e-01 -4.978389646643825890e-03 -3.876880530014541471e-01
-3.072325185452004503e-01 -3.690028037404391448e-02 -6.564973128874389552e-01
-1.639314823344496519e-01 2.285515395128238647e-01 -7.460705501256891248e-01
-5.097554484656623142e-02 1.035872290790178785e-01 2.232029956681385457e-02
1.878464601652608257e-01 6.910242711956813277e-01 -4.910763698853208292e-01
-5.533929096994231328e-02 2.569693828881027264e-01 -3.802995519428803428e-01
-2.837669975141827224e-03 2.466652968694827419e-01 -1.430991758218863874e-01
-1.934575255549074724e-01 6.515383078396660976e-02 -4.547226290413416416e-01
-1.703733396085064244e-01 1.433120040058011579e-01 -5.580131117021344123e-01
-1.957919101010695551e-01 9.419482761823064210e-02 -5.370244261362380200e-01
-3.080445027867432795e-01 -1.716433634770518080e-01 -3.215031450851626449e-01
-1.704958412666400802e-01 -6.871563555640185575e-03 -1.814813941071775627e-01
-3.015496324976759124e-01 -2.277828257235483544e-01 -1.544255995577548668e-01
-2.399605348756076728e-01 -4.148774105978479954e-01 5.631738074258114679e-01
-1.897690457024835409e-01 2.127824246725654456e-01 -8.104862800640885157e-01
-3.129815632338703996e-02 -1.704752432990191413e-01 7.895406363175935249e-01
3.621542005366137212e-02 -9.283682077754396023e-02 8.663948399368140985e-01
9.832737344028650434e-03 1.829861605610356035e-03 5.225439025121860759e-01
-1.168261975322701651e-01 2.027797142869900149e-01 -4.917612118313782199e-01
6.089126271449697703e-02 3.442097695726901163e-01 -1.314518279720272020e-01
1.201309426691376109e-01 4.409166459081786948e-01 -1.357721696703988179e-01
1.040751319500576449e-01 2.749384376329033208e-01 2.162751069137602566e-01
-1.070079932488913060e-01 1.303244790736466652e-01 -2.703468297501956941e-01
-1.931396428545952559e-01 1.176010588362344234e-01 -5.851079831694603328e-01
-1.360516015185805616e-01 -7.427864418657689760e-02 1.263861854661568196e-01
-3.056113098467584388e-01 -3.532118314072981713e-01 1.441053980306870042e-01
8.950989017566168479e-03 4.433188593066670347e-01 -5.893310758199525878e-01
-2.585535664615693507e-01 -2.138563269481667528e-01 -1.631666654567461711e-02
-3.509510132138901617e-01 -5.355895779999617634e-01 4.194472018552681813e-01
4.048978139022536490e-03 3.349131517671660174e-01 -3.369183799824708725e-01
3.405367360122175252e-02 1.351226263641546466e-01 2.854177928376640527e-01
-8.445434662618439212e-03 1.680455745856980487e-01 3.169714789912971703e-02
1.325407856914455340e-01 3.203114925975359961e-01 2.169510684694783142e-01
-3.360263639856584938e-01 -5.219187555395904399e-01 4.452032136084269620e-01
1.539321017980386890e-02 -6.717990151867384019e-02 7.181701997772019785e-01
-8.545582291169809275e-02 1.272725770248815391e-01 -1.759321441153807175e-01
1.684490147892860890e-01 3.113056189640176497e-01 3.840996452996862098e-01
1.176561476459626887e-01 4.065193523165722134e-01 -5.938198558612279437e-02
-3.225423915199944480e-02 1.229612346209438267e-01 4.904142197772165535e-02
-1.015059007455934997e-01 -2.164757501750594060e-01 6.224170391449079798e-01
-3.190016412072275709e-01 -2.498454013593271461e-01 -1.692880125763374377e-01
-2.217215357223716043e-01 -1.113275590323378056e-01 -1.254490749257884674e-01
-1.973323957332819706e-02 4.198462772419013223e-01 -6.458663872966631248e-01
-2.420042039201109330e-01 -7.097679931511848006e-02 -3.083897265823170031e-01
3.488471278726055363e-02 3.191526850377869318e-01 -1.732310069836121569e-01
-2.541115255099784531e-01 -1.667262363706377148e-01 -1.167529243099473674e-01
-2.224104326520325858e-01 -3.875670247699777859e-01 5.652568302829475977e-01
-3.031534791710230325e-01 -1.118877325238191445e-01 -4.518276225138809221e-01
-8.205818167508446837e-02 7.475150261335446189e-02 -3.040545071444455266e-02
-2.244631065954485194e-01 -3.976119457102952892e-01 5.822113184621168225e-01
5.849855200510267056e-02 2.195765470059775071e-01 1.717994407743464458e-01
-2.097977093996528097e-01 -2.094813711887565377e-01 1.689553757540962486e-01
-6.861385597323328700e-02 2.516781221150274361e-01 -4.204498184263744665e-01
1.761172047240642732e-02 -2.877631505125950728e-02 6.306908986829772301e-01
7.781143389481731502e-03 1.707205444010364004e-01 9.029804357171422602e-02
-1.446956860278320600e-01 1.261472392079916738e-01 -4.115629738124462755e-01
-1.894184050356221838e-01 -3.568949074507830610e-01 6.210582523441395830e-01
-1.632007094447849582e-01 -1.258294220089554299e-02 -1.377785881473981844e-01
-1.084342859512218565e-01 -2.290424131825738452e-01 6.260761654733164594e-01
-1.661694860514762451e-01 6.119155757499523951e-02 -3.349341532889160700e-01
1.403035136070857058e-01 4.673887313300472690e-01 -1.210285342911627815e-01
6.888237695556609884e-03 -7.003790724817403335e-02 6.911102796869884601e-01
4.048965113141762828e-02 4.297263723303236804e-01 -4.282567903237503026e-01
2.188094131917750138e-02 -4.165021657272192229e-02 6.801946111115230176e-01
2.747705397310414022e-02 2.674784487479059392e-01 -7.332439084778936966e-02
1.754390025611940740e-01 4.169301113724468433e-01 1.470736376829828718e-01
1.045225145717680326e-01 5.959575304952021702e-01 -5.878189222409241355e-01
-3.052763698570086226e-01 -3.935297431086873798e-01 2.466687757684492555e-01
-9.061067960558120971e-02 -2.487124537613037700e-01 7.472010246237218434e-01
-4.561721099977024407e-02 3.815005611703243260e-01 -6.537920221359941886e-01
-1.994828632496268295e-01 -1.618675801298716244e-01 9.094439687768816893e-02
1.362791950481490322e-01 6.014809679055070912e-01 -4.738561804789209186e-01
-2.946364282027975623e-01 -2.159120836921880615e-01 -1.563987745025945397e-01
-1.634817896395301673e-01 -1.567551448365957223e-01 2.230237192110678390e-01
-2.114191571203010711e-01 1.860333238523012300e-01 -8.304819746211761222e-01
-1.507688517200719280e-01 7.522090718727707064e-03 -1.382093255975742063e-01
-3.120642627108055622e-01 -1.681779109408319539e-01 -3.463834918660030349e-01
1.625143516403210198e-01 5.898395076694012973e-01 -3.390277980266698798e-01
-8.630171705100572396e-03 4.273719678416256218e-01 -6.200663354437614405e-01
2.297395501038075952e-02 4.590547847276527094e-01 -5.723888637300954541e-01
-3.893177991605899224e-02 3.487335728110567690e-01 -5.446222991913202138e-01
-6.753325908967773572e-02 2.433336761814211824e-01 -3.951520151856260932e-01
-1.860890784900562367e-01 -1.489926412560091118e-01 1.125362869702232760e-01
-9.114237342586256618e-02 1.876158553105803650e-01 -3.503093631082182524e-01
-1.027846845880089344e-01 6.824626120200479214e-03 5.669040221509594191e-02
-1.395014810102327731e-02 4.156967647170347613e-01 -6.121708885210731532e-01
7.370878267036280740e-02 1.474274512988579464e-02 7.472448074482219704e-01
8.372896928323426968e-02 3.063373314191251695e-01 5.555187555555682333e-02
-3.638301706668547325e-02 3.341637355980743851e-01 -4.977863571299853684e-01
3.543097153672694621e-02 1.770241261335847027e-01 1.857711379910368943e-01
1.475497965194644823e-01 1.473635366228077670e-01 7.115393979577857575e-01
-1.171266871866745267e-02 -1.267780131700125545e-01 7.586786470962059159e-01
-4.618120507003960901e-02 1.497329392676308331e-02 2.640775457341350552e-01
-1.588012540740594419e-02 2.695873364206642919e-01 -2.531425595406611717e-01
1.493366385582618472e-01 3.015453309890844258e-01 3.316698298906830544e-01
-3.129516773974380661e-01 -2.829117380542539029e-01 -6.192471921784363509e-02
-2.879836078741895289e-01 -7.397651781297497064e-02 -4.859382527736558766e-01
1.707893248117119123e-01 5.843080325545881859e-01 -2.918325095491737797e-01
-1.145447913511245426e-02 2.784837742411923611e-01 -2.576620323283332903e-01
7.781745927318704792e-02 5.383604991890638125e-01 -5.507206206096282308e-01
-3.215165335110855005e-01 -3.475305931113377156e-01 6.582039073951531649e-02
1.363384733828387207e-01 6.377816541015723928e-02 8.762458336951253202e-01
-2.415898347539591484e-01 -4.455696266577719444e-01 6.336660050114112375e-01
7.470875187088375780e-02 3.441105872302203939e-02 7.018940873443798578e-01
-2.633879882488204816e-01 -1.819168954709952934e-01 -1.159580732651949303e-01
-2.055994082452234084e-01 -1.329657245679722322e-01 -6.232279031628681736e-03
1.238276207721849126e-01 2.520251183113798588e-01 3.533062345103814006e-01
-1.553468264137787547e-01 -3.681700753753660016e-01 7.865107284241823482e-01
5.810818067508759233e-02 4.646281322463677865e-01 -4.449559168787139973e-01
1.925981435988010637e-01 6.466414047971884571e-01 -3.605296769522985390e-01
-1.108782424168359149e-01 -3.019463687577354505e-01 7.992586302548740917e-01
1.306669461316015135e-01 2.226992803592433567e-01 4.544566666519097575e-01
2.886803184441266018e-02 2.878240315795521642e-02 5.315035536217088685e-01
-1.680243468560992937e-01 -3.846226529158880414e-01 7.767833882924266575e-01
-3.457288210920866356e-01 -5.377097181338338361e-01 4.457903440031472098e-01
-2.470092157223495732e-01 -4.190741836993582825e-01 5.453367183800219564e-01
-3.155951966501844841e-01 -2.938710855802630917e-01 -4.505293679034273746e-02
-3.150640883860790775e-01 -4.200003857263271412e-01 2.737232592029761880e-01
-1.737310609479904844e-01 -2.738605502167456018e-01 4.757522490836982310e-01
1.063684543959391576e-01 5.169320421977077196e-01 -3.820008470370455100e-01
-1.993711068926748708e-01 -7.429527818520467730e-02 -1.284495884260551390e-01
1.896719410460142308e-01 6.046530997500437765e-01 -2.668998491003302664e-01
8.329853964988494230e-02 1.334613049690258069e-01 4.878118544825327807e-01
-1.966348441644708567e-01 5.219932233750849450e-03 -3.170525140599129155e-01
1.727022850161314682e-01 4.404111808392738858e-01 7.711013468243245461e-02
-1.011619006888806599e-01 1.950195636857077475e-01 -4.092270411713618827e-01
1.190396052088974060e-01 5.587270968502112689e-01 -4.359195742765671899e-01
-2.811425213074882912e-01 -4.824457689494471291e-01 5.670309678740091952e-01
-3.599528855534822047e-01 -4.848448650082655131e-01 2.558214407539373125e-01
1.021266189756170617e-01 1.747253033625737750e-01 4.600095488982707814e-01
-4.348923834703877396e-03 5.983757049750109552e-02 3.198349217673010503e-01
-3.577236207604946872e-01 -5.472696090234295818e-01 4.215075494187106031e-01
1.740520952356345019e-01 6.817726015410747742e-01 -5.233766510203047284e-01
-2.607583784049554154e-01 -6.632597628321874883e-02 -3.955557224989330600e-01
-1.357195708599300554e-01 -3.493197452740789966e-01 8.181931841673321104e-01
-1.042917430471279744e-01 -2.581805787764157589e-01 7.159002068329646251e-01
-6.206807613408115570e-02 -4.043533143696222132e-02 3.392280294803737273e-01
-1.122702514801935808e-01 9.639017620515130669e-02 -2.063392166798264094e-01
-5.059652409551275432e-02 -2.147611739461411373e-01 8.230362472127797924e-01
-2.771820892990962681e-01 -4.267503737436664224e-01 4.431535400987597906e-01
-2.856534466406558392e-01 -2.011591065557761723e-02 -6.117718451647823352e-01
-1.293266889319037993e-01 1.686757765006604015e-01 -4.564635200715826957e-01
1.199480965654652620e-01 6.527219019886632001e-02 8.065196504151488366e-01
-1.789893104706304638e-01 1.680155870604808088e-01 -6.547111740881024211e-01
3.057870603178055452e-02 1.557621068611535209e-01 2.196162413005471881e-01
-1.947495624582918639e-01 1.451042576987072730e-01 -6.606330909308826271e-01
-3.072601323707728482e-02 2.874304044978326922e-01 -3.576948443152522250e-01
7.944311845203382016e-02 1.198430467107622355e-01 5.064804154915160117e-01
1.554361594055345408e-01 6.473443510434909731e-01 -5.118810556672573897e-01
-3.268313092604517855e-01 -2.112264108950029085e-01 -2.977546094973214652e-01
2.711454086618575107e-02 3.894427821424892994e-02 4.989346536955798217e-01
-2.099471398862584326e-01 -1.558803283820555108e-01 3.379239688439605871e-02
-2.710184543468591167e-01 -5.436246146217726255e-02 -4.668887310322196171e-01
-1.708778400607281478e-01 4.260261961866076974e-02 -3.072203430215676989e-01
-2.795142156079650775e-01 -2.175161312141904724e-01 -9.150107915195107577e-02
-1.978339963762030737e-02 -7.324962303055962409e-02 5.918127561132856540e-01
-9.495285710366108134e-02 -4.837225368774469847e-02 2.267832653314627578e-01
-2.340024096329651193e-01 -3.738837187268491680e-01 4.842451629258404111e-01
-2.068437363013737873e-01 1.295111773217815232e-01 -6.701700132950427768e-01
-3.347963750657750870e-01 -3.488280033515814837e-01 1.562261625613704970e-02
6.866229966721001943e-02 2.880122436230693750e-01 4.090838605482604445e-02
7.858413953171702881e-03 -1.300597421735506798e-01 8.456959016084265590e-01
6.387406164701990574e-02 4.664582938846337234e-01 -4.263412277712831933e-01
-1.014308453357734285e-01 -5.605166521448530503e-02 2.199862710260780119e-01
-2.176372466564480967e-01 -3.532738242632209036e-01 4.983795876728123742e-01
-1.062187860569647480e-01 1.937773492777698503e-01 -4.264638363114024444e-01
7.343650857867572990e-02 1.067976331529290300e-02 7.563486506896969219e-01
-7.579863848795484471e-02 3.040101901366954462e-01 -5.807462570608952213e-01
5.798784479311418910e-02 -7.691614539281117768e-02 9.140668444810905457e-01
-3.024080261112085388e-01 -2.843532579468672772e-01 -1.586494158719682981e-02
6.027903478209206863e-03 4.364704207107340528e-01 -5.839047556632939173e-01
-9.163418781145714342e-02 1.846666879247227389e-01 -3.448853761772096016e-01
-1.251250933105740037e-01 1.049307554350883444e-02 -4.244494552342041593e-02
-1.490308630214495500e-01 -3.132496168040453943e-01 6.740603506630624686e-01
-1.241933197955787660e-01 -2.092768976490181343e-01 5.130220665261646662e-01
-2.850680950196810004e-01 6.775997257017356279e-02 -8.300216044612835908e-01
1.385891833629250836e-01 4.496820612100704273e-01 -8.347786570061685452e-02
1.098488928865255787e-01 3.045646182424255333e-01 1.651416503038946604e-01
1.536827078020106263e-01 2.656132141290585835e-01 4.393688336673793882e-01
-2.737002203442278070e-01 -3.565358243545785899e-01 2.809005006825490147e-01
-6.880857224482074541e-02 -2.337604317705556101e-01 7.974242426840773001e-01
1.117257664806978606e-01 3.476653809154965358e-01 6.449525638689682094e-02
-3.168312460789986518e-01 -2.490887770362234244e-01 -1.624510556276813622e-01
-1.431421390997933141e-01 7.155385696433852472e-02 -2.682568645711762012e-01
-1.311140872265720014e-01 -2.819478943669254667e-01 6.675993728449473030e-01
1.433967969041959611e-01 6.076515886575994951e-01 -4.606968659775553254e-01
1.312563585804500665e-01 6.200496687327631262e-01 -5.406897679387568934e-01
1.035827861540839501e-01 3.285559734096060724e-01 7.969040005012399674e-02
-3.389758392540919152e-01 -6.159608744371103395e-01 6.694166401887546858e-01
9.715736186245739481e-02 1.478919512045681617e-01 5.073701525751413977e-01
-3.311061926830546898e-01 -2.322366573750370145e-01 -2.622174497470365906e-01
-2.511426731938834478e-01 6.185280295772368347e-02 -6.786334132279469022e-01
-1.449527728155305395e-01 5.679341032877145701e-02 -2.384901203073960807e-01
3.626884169648552834e-04 4.166484304821116980e-01 -5.569470736331930683e-01
-3.170538533390226399e-01 -4.961454618503491343e-02 -6.641125175652757839e-01
1.772362224401012043e-01 3.864363965248616140e-01 2.308601487220881543e-01
-1.652095487569760213e-01 1.106313579487235160e-01 -4.551851437729897421e-01
-1.671661814973424143e-01 2.261637571899670698e-02 -2.421059509814032229e-01
-3.075539676475780859e-01 -5.278667591718222418e-01 5.747440650977114762e-01
7.530287506055310942e-02 2.935679143484091758e-01 5.369133145181206879e-02
-1.395172072134985841e-01 -3.450507933144477124e-01 7.921898164173695189e-01
4.976480929191137714e-02 2.263994917386804862e-01 1.195153455292922856e-01
-2.398907973055713350e-01 -9.865742445981964814e-02 -2.303925365640267509e-01
-1.933682396200419595e-01 -3.594422011910787251e-01 6.115539313276712186e-01
9.758328117928129208e-02 4.228236424626213297e-01 -1.811112343449534368e-01
1.562459869388903300e-01 6.031953781368118994e-01 -3.977885337947747457e-01
1.147060528219652348e-01 2.938817908153986136e-01 2.115114403581000169e-01
-1.990870487350730189e-01 1.706526687916748164e-01 -7.422300151487865039e-01
-3.826209659237846117e-02 3.346000887032457571e-01 -5.064455749959205777e-01
-1.242034578562423164e-01 2.703618398265411615e-01 -6.911165734977928743e-01
1.133816125458315949e-02 -6.790949267719480209e-02 7.036791547214735765e-01
-1.891863692382530771e-01 -3.920789913391322656e-01 7.103193160950762586e-01
-6.804625980629085136e-02 -1.637413008416305493e-01 6.247148623177936066e-01
-3.225530561317110304e-03 -7.299171274003421472e-02 6.578150350665442625e-01
-2.464561505243721695e-01 -1.948503959589978907e-01 -1.533440477109389820e-02
9.520379940631805427e-02 4.685336358349765917e-01 -3.054408513893610011e-01
-2.021897691284183507e-01 -3.138356777217779503e-01 4.615531446931182002e-01
-2.632473079688184003e-01 -3.710906508629182032e-01 3.595150238982870450e-01
1.319764738690221983e-01 3.075134798283612469e-01 2.468080374562696688e-01
-3.381502708382107536e-01 -5.118923725796724611e-01 4.114834360873833585e-01
-2.528432838435850649e-01 -4.924345259842418665e-01 7.060188244230924948e-01
8.953875627118867975e-02 4.394963547114342783e-01 -2.553481661772950551e-01
-5.087943957185187688e-02 3.236541878255491667e-01 -5.297547925561024718e-01
4.800993482267893603e-02 6.041657752722016245e-02 5.291394362485826175e-01
5.404951293356290848e-02 5.183856475452909285e-01 -5.962474085153086634e-01
1.146016491519109420e-01 4.711397412564979348e-01 -2.339018806045603249e-01
-3.172522994247236605e-01 -2.881958179872782799e-01 -6.597055044860637707e-02
-2.393891452480945703e-01 -1.379699348608880438e-01 -1.296820853904264992e-01
-1.981156330133159449e-01 9.501910062938426216e-02 -5.484472941024417514e-01
-1.106039264395286825e-01 1.562746408913899265e-01 -3.499673749833949743e-01
5.190816337932070701e-02 3.600385554058742055e-01 -2.073481514950156757e-01
5.782147690534793043e-03 1.119916105659610056e-01 2.296862403115300377e-01
-8.342914113139926480e-02 2.937992541387018930e-02 7.797809275344691482e-02
-8.397196616219286536e-02 -6.761806656002177472e-03 1.665242449133309821e-01
1.274911494474099405e-01 5.829251661369394544e-01 -4.626473794270893891e-01
-8.484156211583833429e-02 3.589694489397651789e-01 -7.551175681051468525e-01
-8.403796254390522372e-03 2.780272203626649175e-01 -2.442360926708749824e-01
1.804671760778321921e-01 5.054616921848629207e-01 -5.493868477628028463e-02
-3.595802543144832053e-01 -6.083119098752447496e-01 5.672763289717235313e-01
-9.584314852226608061e-02 -2.484396564831721776e-01 7.254541342880018728e-01
-2.670791444604928566e-01 -3.232327478152397515e-01 2.239471305958937730e-01
-3.334611552152049740e-01 -2.305697318022144893e-01 -2.758814827173843298e-01
-2.951018658755322766e-01 -2.458747426430999417e-01 -8.305322738262665982e-02
-7.885186972760441226e-02 -1.670963505976775232e-01 5.896420687250536474e-01
-1.607071258455285145e-01 -2.396406685927005842e-01 4.422704863290622401e-01
1.068526649005060725e-01 1.561597080777583357e-01 5.256406807396867276e-01
1.273866989741392342e-01 2.690995532231542538e-03 9.935674602298494307e-01
-7.376453357094589491e-02 2.911814754154417595e-01 -5.403529076460028557e-01
-1.238655279426205125e-01 -2.938676239357277398e-01 7.267003213154940022e-01
1.331058768820634342e-01 4.238092185316448268e-01 -4.059773339020137511e-02
-2.861788436214649511e-01 -3.012624599422047966e-01 9.191106293740379518e-02
-1.706127141501158351e-01 1.462435338417502617e-01 -5.663360470945670855e-01
1.372277178134119202e-01 5.859095882132567823e-01 -4.309473234847045475e-01
1.836195928107899888e-01 6.581735821872907177e-01 -4.256213713795348741e-01
5.721838857766343295e-02 5.428626552425480645e-01 -6.449395876659380633e-01
1.309180321034495061e-02 8.374993487826078165e-02 3.300081643236917883e-01
-2.018211557953215052e-01 1.014249018620636267e-01 -5.794442838860266454e-01
-1.993100011477242084e-01 -3.690374537313049763e-01 6.117249676243523560e-01
-2.709711648904278465e-03 -1.093640307016478103e-01 7.512013743002831090e-01
1.452332076398307192e-01 9.744483683834913312e-02 8.275317536003137242e-01
1.428738026503650616e-01 5.279821268328538375e-01 -2.627977203551141727e-01
-2.102047340125984820e-01 -2.413660605159511086e-01 2.473611668120468676e-01
-6.446620041891151787e-02 7.051420992328012727e-02 5.104427662443076358e-02
8.177191852100883229e-02 5.063520649816923846e-01 -4.544480664496424738e-01
-2.271274014692445942e-01 -8.125728079227742540e-02 -2.226983207465788039e-01
-1.086164621840949862e-01 -7.919659379687332690e-02 2.491659318566529224e-01
