-4.345545930321875194e-01 -6.110466605632153270e-01 1.822270201457995564e-01
-4.304862971097296875e-01 -5.871067330593141564e-01 6.118714597093716234e-01
-5.413482110355690713e-01 -5.341625055378705911e-01 -3.669430080568805708e-01
-1.316115643088764664e-01 -9.466280786552649928e-01 -4.706511312102625716e-02
-2.378774020276940293e-01 -8.368553536774826496e-01 -8.744597855290257848e-02
-7.249152056928946930e-01 -3.207656272834056854e-01 -7.508309160708626084e-02
-6.183896856733186453e-01 -4.467091680395186559e-01 -2.765105563314315673e-01
-3.226437233897425094e-01 -7.207015517960798645e-01 3.152505345841981610e-01
-8.163864160445730711e-01 -2.066580296652444637e-01 1.885795792916892255e-01
-9.076851970219247390e-01 -1.084786769846871196e-01 2.127196313672458650e-01
-3.673725980958214010e-01 -6.832873745437288981e-01 1.645295409347617144e-01
-3.082279195021507268e-01 -7.368847591400967678e-01 3.010799169369594575e-01
-8.409129713351432001e-01 -1.943818973424554508e-01 -1.940425468621227723e-02
-5.938159940950870075e-01 -4.596687715811546560e-01 -7.816496324943313090e-02
-4.509714053667878697e-01 -6.026526845633554119e-01 4.570532770425664304e-02
-7.193558690927779331e-01 -3.357740795103276721e-01 -2.139180172611840347e-01
-2.831338496525872550e-01 -7.644825777564043801e-01 2.851264294828305679e-01
-4.487988626789871094e-01 -5.756971543864161101e-01 4.907126563064748703e-01
-4.624773839078274995e-01 -5.968890473504518956e-01 -5.179449390732036862e-02
-8.120504582594434417e-01 -2.201942528920993181e-01 5.245109254830529477e-02
-4.977161221086802700e-01 -5.283122289349088119e-01 4.242577844722228986e-01
-4.797313508565120288e-01 -5.832999139877144135e-01 -1.227613877311669877e-01
-2.522433505760702244e-01 -7.985811709151964255e-01 2.635710452452532104e-01
-2.124103985048663989e-01 -8.675712894169302913e-01 -1.448297856483922175e-01
-3.666028424585879297e-01 -7.080956230652005745e-01 -2.004608674696710946e-01
-3.675300044001467148e-01 -7.046512447514090560e-01 -1.629871752259030859e-01
-6.262972670267415998e-01 -4.251427383373980184e-01 -7.570907902782708643e-02
-3.627469122727414730e-01 -7.189048871598047175e-01 -3.028328127245199508e-01
-6.204828667599063818e-01 -4.351773466432027893e-01 -1.347778122486386621e-01
-4.547647320033131879e-01 -5.617609898873238139e-01 6.066934606942790964e-01
-3.692067296157922618e-01 -6.649321237873287993e-01 4.142281950839468707e-01
-1.393473551440771452e-01 -9.383818638545801116e-01 -4.612364087892516229e-02
-7.605105943015066927e-01 -2.550986719722772023e-01 3.509649887383851641e-01
-6.320591783915180395e-01 -4.418405625748507703e-01 -4.224446727317210382e-01
-6.411274282821692871e-01 -3.914633724200692333e-01 1.979414366808354420e-01
-6.961076952246656457e-01 -3.572061413073070457e-01 -1.657866292659118945e-01
-3.204082822512440698e-01 -7.564562429196106663e-01 -1.926667454966022319e-01
-3.486511695958101065e-01 -7.121005454406571511e-01 2.752812280827765176e-02
-2.783532102848387813e-01 -7.724194680496939691e-01 2.413306427625701300e-01
-7.398189209484712370e-01 -3.028619606976751255e-01 -4.259351227478413993e-02
-5.713335710514152455e-01 -4.661154972280274200e-01 1.855968660919696256e-01
-5.103196672676216794e-01 -5.105097535335085812e-01 4.922266072062052022e-01
-3.349134241914258348e-01 -7.256958057271956086e-01 4.181234402155471069e-02
-6.715658045916159669e-01 -3.577849511073401545e-01 2.203816273460075803e-01
-6.190797526425864117e-01 -4.442434260665029111e-01 -2.501079423085372233e-01
-4.940176700243674168e-01 -5.223114517620266462e-01 5.750628123628509503e-01
-5.231232400495356982e-01 -5.297887362649167375e-01 -7.100416765663279325e-03
-7.361190228817546810e-01 -3.054832211897273719e-01 -2.292213744931154498e-02
-7.329678412263476162e-01 -2.880611829294608128e-01 2.928134334430751440e-01
-6.245400224690684787e-01 -4.025883629631311633e-01 2.956649173730905300e-01
-5.715160966230669048e-01 -4.557041919057781554e-01 3.410342808006843196e-01
-2.275197499533604950e-01 -8.489433656935420069e-01 -1.046324076696300148e-01
-8.027247195609426011e-01 -2.339828380063888880e-01 -7.211594414182437469e-03
-4.033259482834252174e-01 -6.661187008039262114e-01 -1.529307030058765504e-01
-6.426508497550476040e-01 -4.287711200587218663e-01 -3.940951616129867996e-01
-7.869143978802142225e-01 -2.471708892267799051e-01 4.662270942878671276e-02
-3.845138451189886730e-01 -6.762479284159129689e-01 -4.255950852909928979e-03
-7.462724035395663646e-01 -2.794104442082693263e-01 2.102855924806180388e-01
-4.085328852460841098e-01 -6.468593700319233974e-01 5.623930114789389006e-02
-5.507958078010470881e-01 -4.703545485212549115e-01 4.516444267773603860e-01
-4.475551909745012491e-01 -5.757058275817871218e-01 5.105961618650839418e-01
-5.928057143154231712e-01 -4.388304065967181811e-01 2.550838601567083086e-01
-6.221995522146289703e-01 -4.521980747166737813e-01 -4.213221853379929827e-01
-7.527730383517895474e-01 -2.810651570737399685e-01 8.049428066705745233e-02
-4.349327421843821040e-01 -6.332152080315005538e-01 -1.610829031583122795e-01
-7.923120391933120565e-01 -2.482895904133896881e-01 -5.726349715686337299e-02
-8.503574877826999279e-01 -1.800411805566483614e-01 4.674577353491889131e-02
-2.943786803536082020e-01 -7.715771363546052308e-01 -3.767142312163334911e-03
-6.204799499994728684e-01 -4.245123436713810761e-01 2.750328392335054523e-02
-4.981555296056299209e-01 -5.435523075932343628e-01 1.853566319244066007e-01
-8.194594312496560340e-01 -2.279471267735835860e-01 -1.847230148843479192e-01
-2.383677598654562468e-01 -8.384042761012466816e-01 -1.188996503081623801e-01
-3.633507113399021549e-01 -7.031815827571994415e-01 -7.337010376715032145e-02
-3.886686851643929574e-01 -6.366396169301278274e-01 5.313914469241024507e-01
-8.612925631047725350e-01 -1.681923480540406246e-01 5.100089440385720263e-02
-7.582512221540167463e-01 -2.891948704240548951e-01 -1.313384501719835895e-01
-7.871465290464033648e-01 -2.513840580229209642e-01 -2.120315468346673990e-02
-5.444498520852574242e-01 -5.118573787351701210e-01 -7.755861497457226805e-02
-4.692365693294696660e-01 -6.066694458467833950e-01 -3.093533796011074810e-01
-4.202721456233872166e-01 -6.620365540506485402e-01 -3.635630177066590529e-01
-2.574447370781885458e-01 -7.958629759809277004e-01 2.212095208894168941e-01
-7.909402139378991503e-01 -2.639735306637307488e-01 -2.737669228129853138e-01
-7.911970594875711305e-01 -2.507048466531718312e-01 -7.605965781992432562e-02
-6.734448861985818935e-01 -3.900692664653673813e-01 -3.009633339670838570e-01
-6.436270775626223850e-01 -3.871006374171684361e-01 2.240776662523298601e-01
-2.907796016383808468e-01 -7.764261934453463576e-01 -1.960718801938987968e-02
-7.322772654249143365e-01 -3.201518333208525080e-01 -1.842299015071441892e-01
-6.331824024840476683e-01 -3.874573069627322286e-01 3.867468942708123247e-01
-6.604273239264411011e-01 -3.566940374575481854e-01 4.162372259885449011e-01
-5.638800144787502466e-01 -5.138187767614839085e-01 -4.201007833818227732e-01
-5.779519947903943855e-01 -4.851448673640883502e-01 -2.103903591508474447e-01
-1.216075536057364265e-01 -9.541687898705475401e-01 -7.702441779839420445e-04
-4.244658287615923897e-01 -6.380112320445190388e-01 -6.558645641033719609e-02
-3.714050300868185772e-01 -6.671221545394190322e-01 3.455347579291795368e-01
-5.025423746773691747e-01 -5.697380159658997911e-01 -2.835769080320159063e-01
-7.633402921942397112e-01 -2.747328227729533001e-01 6.753054881536746899e-03
-5.100411839308832684e-01 -5.111084164174534150e-01 4.876017158460818623e-01
-4.449063138635742654e-01 -6.036415328829370930e-01 1.282736906440171409e-01
-6.272434737139142014e-01 -3.934405861654762249e-01 3.913104092035127324e-01
-7.641815299589929111e-01 -2.536853757053498803e-01 3.133843901078798289e-01
-3.902216163264368709e-01 -6.843434738890940006e-01 -2.192638665526948638e-01
-4.772742537144175068e-01 -5.839665250084331571e-01 -9.335765453944980252e-02
-5.195627117236469861e-01 -5.092434931098832607e-01 3.627327547317559797e-01
-6.723667584733528102e-01 -4.098452163470756027e-01 -5.844404103558270558e-01
-7.525164243475837011e-01 -2.663246560005491648e-01 3.088540992741042879e-01
-8.758464203766737066e-01 -1.591358067235852103e-01 -4.545988883420772064e-02
-5.021906556671565935e-01 -5.377769834848209474e-01 2.082692172592483515e-01
-1.207896119824641845e-01 -9.580699996121225803e-01 -4.695094917116005712e-02
-3.189898199001156009e-01 -7.431089683857371453e-01 3.319814489597332219e-02
-4.312192388671305388e-01 -6.178136323716801881e-01 1.329676541848215099e-01
-9.452415696447923343e-01 -7.391757216519588558e-02 1.340312278183494188e-01
-5.170544794323524984e-01 -5.343137418077561485e-01 2.173559291093584908e-02
-6.749360282558881652e-01 -3.813838383493270423e-01 -1.928403114983951450e-01
-2.746918322361607823e-01 -7.807880401715835417e-01 1.729549866700537397e-01
-8.017530218220403349e-01 -2.243201240957508336e-01 1.554142525220328919e-01
-2.155141795647148029e-01 -8.426834509907044080e-01 1.838079226261263022e-01
-6.861597037987483549e-01 -3.503474023058173459e-01 9.864858567675946488e-02
-4.625834167699836019e-01 -5.910350749668410453e-01 3.554863224169410585e-02
-6.293210526423065332e-01 -4.156195534629610333e-01 2.049164778403803761e-02
-4.348057248246075535e-01 -6.220883949881339525e-01 1.022042072864242680e-02
-8.500959661162198477e-01 -1.823677934763371644e-01 1.556263111880638352e-02
-3.720853279072123820e-01 -6.673877579180980124e-01 3.305458486203031176e-01
-6.464615086884852868e-01 -3.795207655755998277e-01 2.937644950299017621e-01
-1.741633555632899899e-01 -8.912667073801004980e-01 1.102610708004242296e-01
-3.941536992836919273e-01 -6.727366176608556847e-01 -1.059846794151358407e-01
-6.164829583853876915e-01 -4.301145493336177017e-01 6.610416717897556541e-03
-6.078519584287598310e-01 -4.668042005619247869e-01 -4.126002776463504884e-01
-6.050442331575722754e-01 -4.354194500163820480e-01 1.100060945796593054e-01
-6.117499217089927832e-01 -4.516490722009482428e-01 -2.447962809989125965e-01
-5.301955443259336320e-01 -5.213393861704676002e-01 7.609153653857131210e-03
-6.149441565804062426e-01 -4.533111102402888615e-01 -3.214863843177083735e-01
-6.149427827587156115e-01 -4.651354158487078783e-01 -5.013335369316137546e-01
-3.689043576364696153e-01 -7.123891129826013247e-01 -3.028128763736344098e-01
6.164551674092599853e-01 5.027393897756173846e-01 3.509701988690367980e-01
7.602627469231306723e-01 3.158254167188066508e-01 -1.779176679521859428e-01
8.174820193847160965e-01 2.626896727723669334e-01 -6.533205386754878385e-02
8.794476489315231627e-01 2.108992454459077126e-01 1.441053435351192513e-01
9.294651912402490668e-01 1.400926130764956201e-01 -1.280189162327191321e-01
5.478484252887518835e-01 5.200483827113612234e-01 -4.898736648222818402e-01
6.766659226762151702e-01 4.095067703454704500e-01 -9.824640802187148414e-02
3.999386503887280009e-01 7.192618232117815591e-01 1.600915089749772313e-01
4.296629250146836165e-01 6.879757562556358952e-01 1.625507621864123176e-01
4.635432095105212480e-01 6.148110276874410030e-01 -4.051547232734735160e-01
7.639249234523101117e-01 3.351331198785164611e-01 1.747261711075261958e-01
7.654880433855234534e-01 3.136554173937456946e-01 -1.268322853247638438e-01
2.617598504186271491e-01 8.425327935068628316e-01 -1.885581980872017005e-01
4.141645585238429850e-01 6.911590578854155398e-01 -3.845348365325611945e-02
3.928375973647252883e-01 7.355059414552009844e-01 2.929110476494458104e-01
4.625763907965517729e-01 6.196920025276881905e-01 -3.464660060244583728e-01
4.341891254722891613e-01 6.663244409754500719e-01 -9.396134811943832044e-02
5.641861638493402831e-01 5.273204388008448928e-01 -1.163156402689396879e-01
7.762633501043324502e-01 2.944090853119077922e-01 -2.461881608066446847e-01
4.717158246131086252e-01 6.406811727813092050e-01 1.199060618169447284e-01
8.630052840122532931e-01 2.186675518583343913e-01 -2.345163861458895906e-03
7.066402772330181437e-01 3.603713031494026886e-01 -3.632843562415571381e-01
1.287842152740391044e-01 1.000000000000000000e+00 6.671809000446062010e-02
5.132069807052674904e-01 5.866940942201483988e-01 -3.358430415612080611e-02
4.022706811111014247e-01 6.889905560447290300e-01 -2.628583914765317275e-01
6.030664192602255280e-01 4.737355940403180643e-01 -3.057066873034544607e-01
5.525075187155392697e-01 5.428925409249469869e-01 -6.738968102511520841e-02
5.812732612608331184e-01 5.372741045134931115e-01 3.100946132304543412e-01
7.919413423126401286e-01 3.033939553921180532e-01 1.428070442314108290e-01
7.725045911715670011e-01 3.082979528279481962e-01 -9.540597093224072178e-02
1.734699208692516426e-01 9.507378220875403185e-01 3.651461969689597659e-02
5.963577786484177690e-01 5.081233296356374440e-01 1.094257942860925453e-01
7.794566808065247487e-01 3.080494795223753246e-01 1.270004376892759981e-02
7.243748280996301636e-01 3.646841888024010547e-01 -1.226065380793502427e-02
4.881032468114626655e-01 6.125356469349251265e-01 -4.450235699034933018e-02
7.956475519434161869e-01 2.938190058979955332e-01 5.680169902820045302e-02
5.037055269771935073e-01 5.760771250717240388e-01 -3.480025551269247952e-01
8.131442842958792605e-01 2.723430454535776257e-01 1.170258789146059845e-02
6.870380546741291505e-01 3.973707969816877572e-01 -1.159293793216742141e-01
1.926008668666152335e-01 9.357570907005735572e-01 1.165205497599106493e-01
3.849113438606343585e-01 7.027937812341809032e-01 -3.322643696872102370e-01
4.367576450945561128e-01 6.938455423762738272e-01 3.660221360974522664e-01
9.468827302496988230e-01 1.191965002261131112e-01 -1.655720116676042408e-01
8.209717562105778299e-01 2.783671457172066099e-01 2.293141447590523185e-01
4.577809454250129084e-01 6.070707087571219907e-01 -6.156359942204091551e-01
8.296140535906713076e-01 2.649927042939340671e-01 1.649521507471169435e-01
8.507805278404437788e-01 2.275756079583673708e-01 -6.358052178624447326e-02
3.591690156850489979e-01 7.490775466032801866e-01 -4.249649730195286662e-02
8.238340682452512942e-01 2.456527602783585285e-01 -2.222657851018870756e-01
3.650907398307684515e-01 7.522293026443986896e-01 1.007506829735436843e-01
2.875533336566256648e-01 8.225568459748211492e-01 -7.731287965199358514e-02
5.267051179573785102e-01 5.982900167718362416e-01 3.600475584816230645e-01
6.959067432274047560e-01 3.802603312781347444e-01 -2.334796183030163619e-01
7.023710945536407735e-01 3.880713344432870637e-01 -1.062383864883626773e-02
5.363993138213674072e-01 5.846554119701746766e-01 3.086570799171944879e-01
6.468671510964962845e-01 4.420365287973012092e-01 -8.298578566363463971e-02
2.963950961135159989e-01 8.247186122655757456e-01 9.786934967019857157e-02
4.604739799416399659e-01 6.302185994916230660e-01 -2.201731019881858487e-01
5.820912257307582216e-01 5.480005116170263424e-01 4.864270173624531401e-01
5.215880969398541955e-01 5.615690593749897985e-01 -2.808976688750244310e-01
4.951655543628418199e-01 6.090520216272059528e-01 1.616492135555701662e-02
5.969394780478348705e-01 5.240171555799005843e-01 3.605616575196814999e-01
7.286869076841451243e-01 3.354091972055338045e-01 -3.881888157578290977e-01
8.998977224749157289e-01 1.646728489742068369e-01 -2.299624883258759023e-01
9.806778479761203426e-01 8.814568616198263651e-02 -9.401867690668970490e-02
4.489840088240444893e-01 6.433091790078979688e-01 -2.059591418434846277e-01
5.252834456377262207e-01 5.624141484319087336e-01 -2.085700095539047283e-01
7.834911555925807569e-01 3.204618505969568099e-01 2.664450055107468462e-01
7.143186051560613814e-01 3.919541818593436089e-01 2.407225567562246149e-01
8.611974988087085503e-01 2.351261137469291829e-01 2.189254050838003729e-01
8.937014160031682142e-01 1.774084572543727367e-01 -1.359529507560391648e-01
6.599721967658667143e-01 4.540452467270567616e-01 3.105990988402992370e-01
4.080266187599030925e-01 7.000371792030308793e-01 -2.184017208918114482e-03
5.774435252726580758e-01 5.440475129954734923e-01 3.514953958437858628e-01
5.460076848517867454e-01 5.389416303115549534e-01 -2.320974598470336436e-01
5.390161197801894843e-01 5.284219897943059907e-01 -5.046414440086300912e-01
3.136095231532842753e-01 8.076415604343906152e-01 1.151422910486179368e-01
5.623828805935533470e-01 5.612342165594385035e-01 3.705530640343523974e-01
2.798379010892932950e-01 8.293400228006766461e-01 -9.829924193604494542e-02
5.509637287269943950e-01 5.468691750171051913e-01 -3.174331406181020443e-02
4.409599839741265015e-01 6.315903539035035985e-01 -5.133611434836560239e-01
8.462521907183462311e-01 2.331017526692411024e-01 -5.239606457801740391e-02
3.773090788869292722e-01 7.331326029382725373e-01 6.894905712741012695e-03
7.468287364228111125e-01 3.511371471734809346e-01 1.430335033124309763e-01
5.426974798457194771e-01 5.325064982060035979e-01 -3.832614363970195392e-01
3.548751954174962919e-01 7.707712489204908701e-01 2.184002843930020754e-01
5.823881130699523068e-01 4.807234069228389917e-01 -5.322024430354049818e-01
6.528629372283156762e-01 4.664748916429450887e-01 3.852614641687749364e-01
3.109472467389726713e-01 8.179923910825407374e-01 2.297510877229606840e-01
6.995913651824191559e-01 4.118814214778765970e-01 3.068345372270298577e-01
7.033977079729120119e-01 4.254713181474532036e-01 5.748202942568305662e-01
7.078994249837465835e-01 3.597672744049017490e-01 -3.522082260040404478e-01
9.781520722876069218e-01 9.262105208449546156e-02 -6.658959950752951773e-02
6.353039115107895762e-01 4.541706884284157364e-01 -8.449988728675861260e-02
4.836455198265788846e-01 6.262116735110430099e-01 9.179306100693450376e-02
8.134797552384059882e-01 2.740668329615090770e-01 4.332355330835737511e-02
1.927931031753004065e-01 9.303072824339603253e-01 3.671284085206553277e-02
5.012323207084954380e-01 5.703602153837918909e-01 -4.747705430667191751e-01
3.793713967506843199e-01 7.199836190907901168e-01 -1.599345373445662521e-01
5.863161280916069362e-01 5.372199072235931405e-01 3.904292138236796772e-01
4.446683974353414781e-01 6.310930149023538105e-01 -4.612440022127725636e-01
3.471774766458758377e-01 7.536722159586572989e-01 -1.655929808924881674e-01
2.329034702542474855e-01 8.781761423289868862e-01 -1.107674982072252290e-01
4.301194455366748604e-01 6.952942472110615890e-01 2.812255263338744316e-01
5.842046333224537591e-01 5.415190415389757872e-01 4.218448535177585779e-01
5.814335426943539886e-01 4.914751066819317837e-01 -3.840121655054570260e-01
6.458447377468994333e-01 4.512803095402854736e-01 4.117443904244114800e-02
4.780323191742840150e-01 6.508990406061492262e-01 3.769950628508876300e-01
6.409386632653848448e-01 4.829256953781373429e-01 4.436009696171573924e-01
5.867364112968121992e-01 4.802861871605837996e-01 -4.688725819665802153e-01
5.747101966238227222e-01 4.894553524447020632e-01 -5.229406997058467788e-01
6.808060187246758321e-01 4.428858770464085270e-01 4.761407086472405625e-01
8.607965565369685157e-01 2.112473796759407885e-01 -1.507664054010520727e-01
3.972795253325117626e-01 7.265408395977440703e-01 2.280231233788714562e-01
4.196901436625533055e-01 6.808307111724273275e-01 -1.066386554989957741e-01
7.857979202206548663e-01 3.209052114853124249e-01 3.103140107817528581e-01
3.440615789347762910e-01 7.435756828845591082e-01 -3.693263981583098654e-01
3.669918605145389146e-01 7.272216017678611033e-01 -2.490657632161745461e-01
7.572090474581233410e-01 3.600600571719921317e-01 4.458262035538564927e-01
7.110540327044239106e-01 4.135000055134894770e-01 5.159343732965847584e-01
4.523649456069128716e-01 6.669749019328657935e-01 2.084519047927937407e-01
8.624041806684318301e-01 2.057954007439543043e-01 -2.078281234303947234e-01
3.468255416562493476e-01 7.544609764497914872e-01 -1.592584764761178495e-01
5.933230938196800697e-01 5.046899045250945459e-01 8.357432805757736283e-03
5.225865898857240399e-01 5.566667805184323248e-01 -3.394006993870750666e-01
8.263699026574680140e-01 2.550962856692082781e-01 -3.780124614170007891e-02
6.139775504591326039e-01 4.707659111569038601e-01 -1.752790944095240500e-01
6.445976007673746011e-01 4.835820617753234796e-01 5.124718173568519886e-01
6.603204718394788397e-01 4.267892582379423927e-01 -9.840913699995502972e-02
8.751604711956982863e-01 1.897868623351567918e-01 -2.460496333758354082e-01
8.372782587184001146e-01 2.542514200943887803e-01 1.249040323117451001e-01
3.615265697966412728e-01 7.664079478119534272e-01 2.590726002564822661e-01
4.245614821119256810e-01 7.008866321774018804e-01 2.768469882604225329e-01
3.139265698278713157e-01 8.044905217618281146e-01 7.231173873030570520e-02
2.805433599788111909e-01 8.268994351740174276e-01 -1.240714975106677193e-01
5.192548117541513353e-01 5.689905210801154967e-01 -2.055551898601685190e-01
7.106755301805466329e-01 3.572798024919115467e-01 -3.453690479622122389e-01
6.901123639244971519e-01 3.767662338350558637e-01 -3.798849697101588374e-01
3.350719836115339523e-01 7.771782166301779426e-01 -2.847566172728242893e-03
6.190282972626932612e-01 5.037034280254236718e-01 4.070464934139342295e-01
3.506955563674079013e-01 7.607865805221739608e-01 -7.511390631765035852e-04
3.352644111629306534e-01 7.816387966939494225e-01 6.810289152402516921e-02
9.786718721053804249e-01 8.878766409462557352e-02 -1.165368553722541667e-01
6.016280980050452420e-01 5.120243678495570716e-01 2.535873257550184667e-01
5.944397557849780966e-01 5.063758694151724304e-01 5.197540252268215144e-02
7.350676225636382233e-01 3.438569304263200954e-01 -1.569932409294342024e-01
5.478026769300372578e-01 5.359169905756678842e-01 -2.492194519977204981e-01
8.100777702892958398e-01 2.785443455498842757e-01 5.668372274083374740e-02
4.163692360403341564e-01 7.015523849015399271e-01 1.551296883115239056e-01
6.598884920579990432e-01 4.551945663387207963e-01 3.267352178381919270e-01
4.434035563268116098e-01 6.276638259053212154e-01 -5.337643611486572182e-01
5.561201405751604598e-01 5.498306069438493315e-01 9.629188334548245687e-02
3.051592716677016259e-01 8.110683933064009032e-01 3.127376274458139316e-02
5.796843354014737937e-01 5.176110920131971049e-01 -1.458758586613365972e-02
3.904205169759925043e-01 7.390606622036457463e-01 3.080847558125560104e-01
4.375585579149534610e-01 6.458724655203811338e-01 -3.508461388971322314e-01
4.530304086423725396e-01 6.302055568458825308e-01 -3.401670736988572363e-01
7.702239690163888985e-01 3.374124265961838121e-01 3.107743519925033615e-01
2.838658682078329942e-01 8.139479111004491729e-01 -2.676159279265472590e-01
4.505965842382865794e-01 6.535198389023796350e-01 -2.468386052134706812e-02
2.648626794321724542e-01 8.568384571786626935e-01 7.899345006117332313e-02
5.668750037343086579e-01 5.132311049726255847e-01 -2.873663835265174993e-01
6.628420874269523866e-01 4.086377109164416876e-01 -3.339448386888375087e-01
5.844973679237308595e-01 4.961038753007452340e-01 -2.642914676205010416e-01
4.974325077119198801e-01 6.128828282992760945e-01 1.109224417077481206e-01
5.603006482350365580e-01 5.314137862194144857e-01 -1.165811842160697498e-01
5.477013662579749420e-01 5.341353638031789419e-01 -2.779517226321440160e-01
6.614186592779107698e-01 4.195931336210042550e-01 -1.902012806358473751e-01
7.241400776871366185e-01 3.859788166051617564e-01 3.078914555973727984e-01
6.127743411404958929e-01 4.894705631449915439e-01 8.988854448120077445e-02
1.649926298349103926e-01 9.589607796281464092e-01 2.516872860906141721e-02
8.047710777443105590e-01 2.964662393588751721e-01 2.439034210705366690e-01
8.120122273164772642e-01 2.800907372224019642e-01 1.113399836582642383e-01
5.594360357416375829e-01 5.218606643605381290e-01 -2.758165243752211948e-01
6.498794724635671427e-01 4.331966181953847972e-01 -1.689771677671347005e-01
7.135202252972416836e-01 3.650929445894995906e-01 -1.807348620568648701e-01
6.355662325545275992e-01 4.935527021032538042e-01 5.187941464640564160e-01
4.272598861176766238e-01 6.398736720936548661e-01 -6.078438028059317544e-01
3.963386980225732104e-01 6.968983016883180115e-01 -2.380354778884669620e-01
5.776832734468498876e-01 5.431332167011061474e-01 3.414457473018928657e-01
2.282552062069453380e-01 8.966890097671750270e-01 9.603862344838542953e-02
6.781610145192639161e-01 4.076056866284242242e-01 -1.031036064402390262e-01
7.089638236826011353e-01 4.164473343219307622e-01 5.271291539499215473e-01
8.748643031101999146e-01 2.082308417671484557e-01 2.975046750774107754e-02
2.744751023511892707e-01 8.548290659756776488e-01 2.031276415809874780e-01
7.588452078580273374e-01 3.154352038185760931e-01 -2.066671505255022745e-01
2.843489039451273515e-01 8.412459752470526908e-01 1.554113300999821756e-01
5.538406342571067231e-01 5.506641483165390927e-01 7.228558187306118044e-02
5.010657245802724313e-01 6.033953091476182973e-01 2.507233844495582523e-02
7.499159421056815766e-01 3.532385462156353295e-01 2.246845795928350265e-01
4.607835753333486273e-01 6.407917688029665104e-01 -5.435332966797176008e-02
7.649050426005569170e-01 3.134377499142317336e-01 -1.395261202205893003e-01
6.901308340887344350e-01 3.828635461393185002e-01 -2.868364688645224092e-01
7.177974729335121484e-01 3.633133452077156322e-01 -1.389685203858101181e-01
3.011151633616837020e-01 8.207544178505313814e-01 1.135306783691267946e-01
6.090325139993093551e-01 4.904482150989007971e-01 4.454008551300284863e-02
8.928796143184410949e-01 1.944260756826446113e-01 1.096901390943842702e-01
5.455050913901736687e-01 5.478728351737989222e-01 -1.043261918246309594e-01
4.399963791683953462e-01 6.513671027858057849e-01 -2.280288004684104530e-01
5.681395311086810951e-01 5.447856291386149463e-01 2.129865909995061202e-01
4.989755557850562573e-01 5.703643638471628252e-01 -5.110274278481847787e-01
7.429668495402957928e-01 3.593363312540746590e-01 2.056055031987469306e-01
4.792207451733749846e-01 5.958285415571092924e-01 -4.416013823721424147e-01
5.138995651511557572e-01 5.696914282038660904e-01 -2.810795407818403868e-01
5.281375206570625425e-01 5.500098491916228793e-01 -3.513290361304487464e-01
6.002523170190205981e-01 5.296017775320372989e-01 4.988302134007213673e-01
7.207012961282224239e-01 4.034451149782637969e-01 5.182425574883541275e-01
7.099041529847717191e-01 3.692046262253879663e-01 -1.763851344776035945e-01
6.609269793226811851e-01 4.116211240032067731e-01 -3.193831059663272409e-01
1.556045519902617691e-01 9.740855954694491725e-01 1.041546473806972267e-01
2.396715162869256788e-01 8.694728789593814122e-01 -1.342362332027996485e-01
4.269512654130175333e-01 6.808257411480240773e-01 1.014499865566240167e-02
8.693471460914715676e-01 2.011144599566884184e-01 -1.672948700195931448e-01
4.883793176460480834e-01 5.984313575376600802e-01 -2.546112960796005908e-01
5.166384978736900946e-01 5.943145675565640884e-01 1.375632525506356729e-01
4.070605293116766332e-01 6.710717659161268278e-01 -4.583488820542209741e-01
7.887872895638294857e-01 3.191255246457791461e-01 3.313521280645417288e-01
6.486235918059891636e-01 4.535278532587780354e-01 1.200860839639359551e-01
7.046951858874912489e-01 3.959545584670091656e-01 1.466979125711671827e-01
7.903142688179086717e-01 2.944321163815150078e-01 -1.970472251560817165e-02
5.641710429512619696e-01 5.075663177001581428e-01 -4.170552182952037557e-01
4.541519528001956574e-01 6.281467866358291241e-01 -3.534347842390904715e-01
2.780890491425960787e-01 8.326958978232678055e-01 -7.539598528795984911e-02
4.017453466488418168e-01 6.945814778431185221e-01 -1.862649132536618735e-01
4.151786528462075299e-01 6.707369653321511027e-01 -3.327901116982019403e-01
4.549235823222351760e-01 6.252194836826299174e-01 -3.855459290855448584e-01
5.493928834426011765e-01 5.751145606136131017e-01 3.726396201758044868e-01
7.186270540268256957e-01 3.453043065415018487e-01 -3.995677205010185751e-01
8.287872024164478768e-01 2.493358153792271381e-01 -8.652489888520464856e-02
5.730727725878698164e-01 5.225411790350409369e-01 -4.599733328522689901e-02
4.183813712643856819e-01 7.096810536811207770e-01 3.111645335784835598e-01
4.271596046116325485e-01 6.891571339303216304e-01 1.402336597405690333e-01
5.486954513817432488e-01 5.789397072495582330e-01 4.196027269308574281e-01
2.146469655991606329e-01 8.981082292194016992e-01 -1.013811668360810603e-01
6.476381141066679392e-01 4.453831186966115685e-01 -1.967029974805887746e-02
8.537853356649518499e-01 2.340405387758550948e-01 8.312173729419228274e-02
3.945941700440719901e-01 6.859926094885380188e-01 -4.320070908196493864e-01
2.457528231261899565e-01 8.591173550806346926e-01 -1.938911288858035376e-01
7.010510415138306861e-01 4.045732374802176734e-01 2.191555066518678929e-01
7.575014074342829584e-01 3.126453392907215245e-01 -2.707329755648956726e-01
8.424715113359033669e-01 2.269666277077777017e-01 -2.065681195983725682e-01
3.183348475308568348e-01 7.831911960974750897e-02 6.307872676339936202e-01
3.877124328571047718e-01 -3.947528100378012994e-02 4.323987914901628593e-01
3.029434032721580183e-01 6.115686836954434269e-02 6.289766433072891960e-01
-3.756305120833332012e-01 -6.071878731624191783e-01 6.426066199815320124e-01
1.167996336620943237e-01 -1.480438576454800592e-01 6.053423193592157858e-01
3.319191215980888954e-01 -5.080757065421422775e-02 4.796866091005838606e-01
6.872525318488553747e-02 -8.335070214197574101e-01 -6.906801077763075059e-02
3.784016745357127176e-02 -4.175058054149140552e-01 4.040417065374348193e-01
-2.811702047237134572e-01 -7.199958435683880831e-01 4.228447067435767148e-01
2.831827468647040158e-01 -2.505657286337895640e-01 3.200472960866941330e-01
-1.703120177480027253e-01 -4.823507748692526520e-01 5.565772758866094350e-01
7.450855797528861402e-01 3.183017025551458934e-01 4.313497521093295206e-01
-1.622431067470717428e-02 -8.679569986724379183e-01 -1.526855096381004966e-02
5.233730760492516509e-01 2.372162086960866167e-01 5.811046289363006601e-01
3.650180075281140857e-01 1.208377157652139738e-01 6.261866474393074089e-01
4.770421627444972335e-01 -1.978580690788075969e-01 1.698521030959703748e-01
7.995274718541482972e-01 1.056116973994190023e-01 1.483938307671098245e-01
2.999297443606055991e-01 -2.833531028595602241e-01 2.675511879815977712e-01
9.471831121999718661e-02 -4.758840439627474161e-01 2.818199685387971498e-01
3.638532152457120139e-01 -4.485910759275577031e-01 2.474382291487911209e-02
2.070849777505746059e-01 -1.814641137792149805e-01 4.740399543165292884e-01
-2.359675536900901482e-01 -6.238259165549466800e-01 4.766014532842594020e-01
-5.061099328747649395e-02 -6.284122807463062843e-01 2.748010725315537250e-01
3.458536672243443105e-02 -5.586851739610194656e-01 2.580765142380964106e-01
5.753077331599179001e-01 -1.393251076714189240e-01 1.273933419121812960e-01
4.472137814923154986e-01 -3.195925811914072656e-01 7.270236970890911476e-02
2.149205358775044261e-01 -5.512021660263051182e-01 7.438565327720957077e-02
7.479675794919703469e-01 -9.256602694758815641e-02 -6.572698195239772348e-03
-7.094894382008821304e-03 -4.644092259357802677e-01 4.021440515681267147e-01
5.564944104369392575e-01 -2.540741325049390986e-01 2.593322363144523815e-02
4.608485065350934745e-02 -6.321181664216413143e-01 1.681369174662725730e-01
5.983038181817745826e-01 -1.384766622328789665e-01 1.038573898801153916e-01
8.759374158258827203e-02 -6.607655109973341601e-01 9.371243514094777793e-02
1.202583913490891526e-01 -5.090738730016624025e-01 2.195550239224359212e-01
3.422530235285337619e-01 -1.791146387974014084e-02 5.035236347097750143e-01
-1.380283928401354887e-01 -8.739538369316489641e-01 1.078044522699850571e-01
3.518872499956178235e-01 5.413069812669238368e-02 5.695360633717619914e-01
5.725652831267318693e-02 -2.860617797870309009e-01 5.225309823000235943e-01
8.674239845438258545e-01 1.258352043452271030e-01 9.765646260401557310e-02
2.817941599077663506e-01 -2.402601104177076174e-01 3.324301183463301279e-01
4.474104799288117218e-01 -1.354031537148124020e-01 2.674384965487978660e-01
2.293167420476743823e-01 -2.414092992214208200e-01 3.869724529621428322e-01
-6.508549091193185920e-02 -7.218071361429867494e-01 1.913319799613587835e-01
5.853650073799738784e-01 -2.127585191113481600e-01 3.898568726117100647e-02
-1.966214090625963418e-01 -5.890537738726152606e-01 4.715977982283698355e-01
-6.309800228588144377e-02 -4.341846800927031680e-01 4.936383203503243999e-01
5.928624891334856040e-01 3.416640737242643833e-01 6.178173812990898073e-01
1.933522877209638835e-01 -5.130495293224124342e-01 1.376830320697461363e-01
1.910439779201398847e-01 -1.802045500970597403e-01 4.924170520885872149e-01
9.566160778327092995e-01 2.521751215311785269e-02 -1.036057087629130846e-01
-2.713719826704163451e-01 -7.153870303940442765e-01 4.173117830467890088e-01
2.836716212314354876e-02 -3.418449670791917083e-01 4.941860571455531925e-01
-9.867128917089829088e-02 -8.371707663200527172e-01 1.049175085196122070e-01
-2.598667201668888871e-01 -4.621263305630990414e-01 6.731369369974428141e-01
-3.078305566073358812e-01 -5.511398229296051721e-01 6.298883551217675514e-01
-9.255123109129304027e-02 -5.806460007042978377e-01 3.699192532314323767e-01
-2.503334889838041907e-02 -6.868943448201151325e-01 1.857270459875555724e-01
-1.716914873753600523e-01 -7.821104347553338165e-01 2.407789465098790216e-01
5.333576954929192260e-02 -5.021468599115360698e-01 2.979935755421150856e-01
8.205536496427601190e-01 1.988359747336613387e-02 3.531879515935408553e-02
8.188879217626817697e-01 2.858698086230008206e-01 3.186070855716816030e-01
7.223472064838528661e-01 2.818106494795689643e-01 4.168879296599541373e-01
6.473940023058106785e-01 1.848493719611143116e-01 3.939043633010397838e-01
2.205095304689884961e-01 -4.340366249949100808e-01 1.924545944014999510e-01
-1.216071568148640869e-01 -8.043648903098592484e-01 1.640090353359474340e-01
1.106195137186661570e-01 -6.295283137111407079e-01 1.023082353575887476e-01
4.761407715803934737e-01 -3.492134896962133528e-01 1.061607138866818220e-02
7.124834627176720447e-01 8.303517421404370269e-02 2.169854950231919211e-01
2.731624241320503854e-01 -5.551287122995820500e-01 8.346286601929099949e-03
2.235674946927044826e-01 -1.771998479794128223e-01 4.610401252115363668e-01
5.194709218017612429e-01 -8.705014375784915492e-02 2.420489631063739988e-01
4.127751896276562471e-01 6.769573134971516859e-02 5.191981938561542886e-01
4.994829683751124683e-01 2.515187297244768638e-01 6.216262068873170676e-01
3.928380226911593609e-01 2.110976546488550071e-02 4.910756135842716530e-01
-2.390221518233932169e-02 -6.754225483668087060e-01 1.966668760114175518e-01
6.043792564734706135e-02 -3.943577132285495113e-01 4.045308163554913183e-01
5.593427638525861889e-01 3.084785007930287426e-01 6.183095304026255956e-01
8.349212954351004079e-01 -1.743701281803996389e-02 -1.944714276135903544e-02
8.801491661635929553e-01 6.901769609029878572e-02 2.400027130153537316e-02
-1.784067850792502019e-02 -4.784647432250330734e-01 3.986854426756703540e-01
-2.521120552164062278e-01 -4.794652804488519493e-01 6.465459488905823671e-01
5.269795880714309710e-01 2.636575589296744071e-02 3.541096020545966283e-01
2.708154599340670265e-01 -6.326056902323293207e-02 5.314306607789919257e-01
4.056444893648525896e-01 1.032271186081474140e-01 5.643809834574327056e-01
-4.819639611080098890e-02 -6.206628775881669613e-01 2.804374274932917577e-01
6.699517420908120968e-01 2.364401988551448619e-01 4.245396349751980880e-01
8.950085627275358169e-01 1.021450548827074634e-03 -6.375509615825315779e-02
-8.942740269743404413e-02 -9.739310094007354035e-01 -4.965068685799825521e-02
-2.277945199026875922e-01 -5.235388583995843614e-01 5.740606873699430901e-01
5.631578813592614807e-01 -1.487970458823579256e-01 1.302778277325021272e-01
1.383922351447378907e-01 -1.241647241346267722e-01 6.076731647957557270e-01
-2.700892957142093653e-01 -7.418987003849254469e-01 3.878890821024244540e-01
3.855193376540113626e-01 8.594326502513463528e-02 5.674713439166619855e-01
6.879970042765468641e-01 9.502413349071063553e-02 2.556920496482334992e-01
8.418799532807531572e-01 1.682043748194669563e-01 1.696409722386005570e-01
4.886218662359712028e-01 -3.143514726331602116e-01 3.425235766624186440e-02
-7.880485826250126224e-02 -2.963195741531980398e-01 6.562429710420530915e-01
1.384729204991451135e-01 -6.370623762586512528e-01 6.473924933042078667e-02
1.918125196474220265e-02 -4.784877612674831027e-01 3.593243103620509249e-01
-1.985861743213995778e-01 -6.749228422357261836e-01 3.828020411183215566e-01
5.840385423427539857e-01 -3.353353767345931269e-01 -8.933961218352899636e-02
2.670735030627670592e-01 -2.240455325265557629e-01 3.652326257463738290e-01
-3.707749453327327527e-01 -6.492595892839858607e-01 5.929189695176519947e-01
4.161213733205661874e-02 -4.823581835333140555e-01 3.313944729258094801e-01
2.276616050175462314e-01 -3.966083844146385262e-01 2.244691815367144128e-01
8.190806574109481542e-01 1.642609565525403326e-01 1.896921276355880703e-01
8.742954314156280438e-01 8.206571629840045401e-02 4.402997384587763879e-02
4.840940740791149222e-01 2.170628249324201564e-01 6.015093609341629621e-01
2.687632297774233958e-01 -5.385618843967349134e-01 3.055478951731099846e-02
-1.284777956138795363e-01 -4.163659629460474410e-01 5.819652987896768437e-01
-2.488949049895775867e-01 -7.210781475278259522e-01 3.874058511686159778e-01
-1.888596521036514098e-01 -6.173068668378179913e-01 4.334478028798023908e-01
6.331111672954842229e-01 -1.505287625674577578e-01 5.411779061218561365e-02
5.516609566620171989e-01 1.309579694033268793e-01 4.385848521729385774e-01
7.632853087946979143e-01 3.203449527084595849e-01 4.141746288898268125e-01
3.202195594547573299e-01 -5.141547423681288587e-01 1.713483540684386606e-03
3.569213129223797742e-01 -3.547258404623842010e-01 1.314556235177548327e-01
-7.428304457276839814e-03 -8.123435516795268763e-01 3.424644284153222085e-02
-3.386405296635912054e-01 -5.690850815374630667e-01 6.436315903151019757e-01
5.736915693717853371e-01 -1.223653459834010554e-01 1.470606810652171637e-01
6.045360802576686954e-01 -3.303005992325016016e-01 -1.057900006163283030e-01
4.726198026894454784e-01 -2.324367916635621811e-01 1.379530377663583662e-01
6.968481578597494064e-01 -2.029063397713896932e-01 -6.904058313594579888e-02
5.536576617129571609e-01 2.244241611067726849e-01 5.353874279188596264e-01
7.834056185970724728e-01 1.272001523729213157e-01 1.883728293510266438e-01
-2.033291846239104750e-01 -7.567011633842014584e-01 3.012878674833528447e-01
2.709657610370435066e-01 -1.682885737873860421e-01 4.201098724902461723e-01
4.471628039552998368e-01 -5.863170569167691637e-02 3.489561567203440795e-01
-1.249873851412588444e-01 -6.654340258872488700e-01 3.146443147017444208e-01
-2.097062533779676385e-01 -5.285674054112273756e-01 5.495192429602543394e-01
-2.250407620432584854e-01 -7.524807617265698578e-01 3.288238377505810495e-01
9.375268358484573072e-02 -4.055439752297178013e-01 3.572935330306001300e-01
8.496087807813861303e-01 -5.941196489541819559e-02 -7.947904951662443374e-02
1.346501216532195178e-01 -5.566141987864735574e-01 1.539470022956783424e-01
6.615038913728757963e-01 2.816349859374683295e-01 4.813496231049272378e-01
-1.015248438456184954e-01 -5.371029317625426458e-01 4.255397074684099112e-01
3.416813909236837699e-01 -3.813742937341909056e-01 1.194438563431059613e-01
2.946883356609629467e-02 -7.955336063763243093e-01 1.283382589774273268e-02
-2.235189096728007196e-01 -6.646001642642790364e-01 4.202191932465825230e-01
3.839298407682912306e-01 -1.086130957672866854e-01 3.632427940310810621e-01
6.498870081185385006e-01 1.577274966905718445e-01 3.625498288249400791e-01
-1.227182193214495370e-01 -5.797958553659237069e-01 4.028722571835277044e-01
3.415353975417738108e-01 6.510651043562903917e-02 5.921519197392347555e-01
9.276911414176299830e-01 -1.234900417529421687e-02 -1.126324106093143651e-01
-2.325718990910566886e-01 -5.374371593546131143e-01 5.644268889581114390e-01
3.829316538885375598e-01 2.154374007282441536e-02 5.020607061751873879e-01
3.632806976583940473e-01 1.032116396411835724e-01 6.093772381168158780e-01
-1.353032131455798037e-01 -7.845345034527673178e-01 1.995498311184785989e-01
2.567848359058873542e-01 -6.452011153653005593e-01 -6.958425626970973776e-02
6.104738461420607942e-01 -2.772240441832058977e-01 -5.592308477425880775e-02
5.021116703865935449e-01 2.316443318561587084e-01 5.977981837221322259e-01
1.101955041618571524e-01 -4.749490114054067957e-01 2.663646794934442230e-01
5.938763687198711505e-01 1.763299076140039945e-01 4.417512933697310684e-01
7.231487541108062578e-01 8.744270915488369308e-03 1.270242413254267511e-01
6.203071702699284318e-01 -1.685789794188977675e-01 4.861811773041295470e-02
-1.771222890547620443e-01 -4.931169090403389466e-01 5.524185474571999821e-01
4.222777309519681888e-01 -4.544977804730297444e-01 -4.358537933846638734e-02
8.370911862231777967e-01 -1.748552382946114148e-02 -2.180405231843024136e-02
-1.920100179851772990e-02 -6.952335554564387232e-01 1.707038477349812067e-01
5.589446289161940085e-01 2.717649438010509289e-01 5.798751230138131652e-01
4.709434847966315063e-02 -6.288674694175000468e-01 1.705048202646231859e-01
3.569674727458956309e-01 -2.525420433416928345e-01 2.395573724762798951e-01
5.444347532885403240e-02 -2.329579227079336401e-01 5.817247685584208128e-01
-8.784954631085958865e-02 -4.856883060058341806e-01 4.654263161625803447e-01
7.950358434403098640e-01 1.279857830139224939e-01 1.768469183961688951e-01
1.123793842525587366e-01 -5.650387366583478066e-01 1.686937569956602212e-01
6.518805889008246757e-01 3.272237989771022426e-01 5.398255944964308606e-01
-1.377540249320201304e-01 -5.912311554595989227e-01 4.067451325437377307e-01
4.229982841236984425e-01 -4.030116743172713067e-01 1.014163879802947033e-02
1.435206554636243859e-01 -1.275016664523374588e-01 5.986922817270216024e-01
7.176564261551080515e-01 -1.612076375912676052e-01 -4.701622513230308692e-02
6.129785508178334785e-01 1.996102221329478232e-01 4.460944877060770142e-01
-1.576664851367048092e-01 -5.106284310333607523e-01 5.132121435187045888e-01
3.868771473304961628e-01 8.592923486280823475e-04 4.759762051302259267e-01
7.661354078672607537e-01 1.558973206576274584e-01 2.370958126944001931e-01
6.206860233548864292e-01 8.229585354929368213e-02 3.137401839355494215e-01
6.832594703511819800e-02 -4.192036855368482806e-01 3.698527403813968717e-01
2.660217409042728298e-01 -3.766633671435889452e-01 2.048202347998240025e-01
4.640715039753433024e-01 -4.211319446621912266e-01 -5.267813144668229836e-02
4.075430145341685240e-01 -3.640576545349729631e-01 6.779199750958957160e-02
-3.218321582336446940e-01 -5.237317384944067955e-01 6.737739961543444123e-01
3.246344601129146357e-01 -5.303179550570580325e-01 -2.008452350760609947e-02
-3.063046604879469670e-01 -6.028673791316996322e-01 5.735188763521753552e-01
7.687510365187196770e-01 -1.258165683051158321e-02 5.599937258958653796e-02
-2.226837731945352505e-01 -6.843204936922120396e-01 3.984599456344804502e-01
-4.148060303831236501e-02 -8.067173784219309196e-01 7.638261363771711721e-02
9.184154283701444210e-02 -1.685056320705546062e-01 6.102043093716094102e-01
7.240867305676329524e-02 -4.516537920561484176e-01 3.311697145637533812e-01
7.209356138176097328e-01 -1.168908048741537364e-01 -3.595744520760225851e-03
1.384631338831714409e-01 -7.631789169191883770e-01 -6.873143736269247961e-02
-4.506509962150685028e-02 -7.526046409018116723e-01 1.374638726799930211e-01
5.777371186571992334e-01 5.548852549277821095e-02 3.310017838938033585e-01
4.066024745014765740e-01 1.325445585555638239e-01 5.943925238632737917e-01
7.339845154378779046e-01 2.889787573215786276e-01 4.121096720492093413e-01
7.186977714993455502e-01 -1.126845997516970482e-01 3.233846958179104926e-03
9.961577614550701232e-02 -5.923097261210731324e-01 1.533919524565316161e-01
9.177188436751199108e-01 8.037639801039737908e-02 -3.896503859590183267e-03
4.827883609344444382e-01 -1.452802263480719447e-01 2.193947301249611626e-01
1.561815196429595376e-01 -2.502749992631813636e-01 4.552971305775999622e-01
-1.224214345212324279e-01 -8.830833832905564673e-01 8.155898657283208730e-02
-2.144445740337731221e-01 -4.742269086304386483e-01 6.120675294868694882e-01
6.928158692972270494e-01 -1.267927207141143209e-01 1.580208424222665289e-02
8.119831851254777355e-01 8.771063039703096142e-02 1.162129139659633520e-01
-1.125583014507238605e-01 -6.994888246980943691e-01 2.653946674978543419e-01
-2.914088310080505395e-01 -5.165142180358335278e-01 6.490874004795591512e-01
8.919672542269408977e-01 -4.211471163437350423e-02 -1.061787141043870064e-01
1.405154991428392459e-02 -2.039744208494113642e-01 6.553182328943563117e-01
1.657021646343256882e-01 -5.369109297675398462e-01 1.418072304706204101e-01
1.281190732969236801e-01 -1.597907527462138766e-01 5.808822663033789135e-01
1.111417950269456695e-01 -4.967511285127428899e-01 2.422839742738508162e-01
6.353889331929032380e-01 4.199251160672670680e-02 2.554611116541808946e-01
1.947749977969580326e-01 -6.372592821447364830e-01 4.708414395282586352e-03
8.713854049646051203e-02 -4.532601660525750753e-01 3.138186670565868419e-01
4.380872586054672113e-01 1.957873180620934295e-01 6.278749216618926265e-01
6.608911584769663339e-01 -2.223256100923112488e-01 -5.138858401933976694e-02
5.550126271742219508e-01 -2.845475246832628313e-01 -4.745221334452728520e-03
-9.546269421969119651e-02 -9.633755954734124494e-01 -3.206623690424453832e-02
9.512419158887401582e-02 -2.729952013394191801e-01 4.961251970243824028e-01
3.564442443947904438e-01 -5.236555150824258043e-01 -4.683176036691544947e-02
6.429646541290643391e-01 2.592414220542618719e-01 4.773468173489268107e-01
2.820092046974938538e-01 -2.477721778623021842e-01 3.242508948416427117e-01
5.945531197004327861e-01 2.540596920493948807e-01 5.233010239394740859e-01
3.373210340711003119e-01 -4.640846111551035769e-01 3.653668343504789390e-02
8.712994148307883213e-01 4.473819704477140918e-02 7.706069267559964055e-03
8.715147220358331337e-01 -2.339492729822188408e-02 -6.463444176008673048e-02
9.419546440309425339e-01 1.215395504085610562e-01 1.391918853709451891e-02
1.342915893968227303e-01 -1.366077253549823345e-01 5.988606009976342737e-01
4.884446642105128022e-01 -5.889912475975014189e-02 3.048100647497027915e-01
5.968694761432165041e-01 -3.307241023199244262e-02 2.169407233735342055e-01
-4.108381498738067697e-03 -9.027097487895712202e-01 -6.492417130171107553e-02
2.334049011284610176e-01 -5.953169152594971480e-01 8.054712156052341518e-03
1.029873942838528261e-01 -6.528033005135521760e-01 8.578343805177721104e-02
5.770011376454928786e-01 -3.212339542841625706e-01 -6.693731392790271129e-02
4.145337241461243827e-01 -1.032599613179401715e-02 4.347519177136524582e-01
2.434892806612038926e-02 -6.427885686398846499e-01 1.799384063829530256e-01
6.884100697451708273e-01 -2.350955871703661881e-01 -9.414382428950497650e-02
7.011168306183441779e-01 1.088440255881117646e-01 2.563787920808583976e-01
-6.696922600430887940e-02 -3.160175245539873501e-01 6.228190945820666347e-01
2.135404039536643872e-01 -4.079843882306990466e-01 2.274330244964868908e-01
3.417262666029292073e-01 -3.131341914234348489e-01 1.916211411662188668e-01
-1.690260116274697882e-02 -7.645891118332104330e-01 9.485617976073656976e-02
6.635128497984821294e-01 -1.734376070149291627e-01 -2.431393599974453375e-03
2.476343410765390052e-01 -6.283021854173431731e-01 -4.197587717666076412e-02
5.886668994461872195e-01 -3.295189380731168849e-01 -8.810127457287991737e-02
8.161337423432943883e-01 1.942285715985503369e-01 2.245408686297943601e-01
-1.464214397602735529e-01 -6.535198867877043405e-01 3.500284210891803638e-01
1.734001006061607619e-01 -6.666709271520112612e-01 -3.709328702604965979e-03
6.380046834560140212e-01 1.971990837047110645e-01 4.169516304772414861e-01
7.697764587570568029e-01 3.059620954195201026e-03 7.146448100009848703e-02
-3.259320881577092849e-02 -8.233457813663955793e-01 4.934011018753185762e-02
2.695271552383413094e-01 -6.243878628898299477e-01 -6.109466681067320798e-02
-3.386173683965627013e-01 -6.511714332898850266e-01 5.567272166620735874e-01
7.155869371195380246e-01 1.008374476406464632e-01 2.325298050733176358e-01
4.814597097788438917e-01 -3.202412138702360744e-01 3.562866512690177762e-02
1.923087690577621744e-01 -5.365865092093270450e-01 1.138803818876007595e-01
