4.632433886507028031e-01 2.391131356531829844e-01 -6.747032024349904900e-01
4.570537610314268084e-01 3.088151255257249317e-01 -6.274254715951429473e-01
3.792639631039852466e-01 1.016083749325783769e-01 -8.427293653982289579e-01
6.321650828872596994e-01 6.401335975624723451e-01 -2.437345539096682778e-01
4.299432548344345739e-01 2.177261142781416470e-01 -7.165665991048841832e-01
3.885517632135312982e-01 1.240342227153681393e-01 -8.187520446207509073e-01
6.542178306323233050e-01 2.046427086847294741e-01 -5.520375807344753971e-01
5.830814210003204545e-01 5.227252359826816130e-01 -3.696216785859344767e-01
5.765453101876016895e-01 3.476808974993791500e-03 -7.627359973939860094e-01
6.235165867930618777e-01 6.858785799679646411e-01 -2.162709326036679758e-01
6.025930567477120192e-01 1.719731779076564548e-01 -6.165743132257641701e-01
3.507761159788196914e-01 2.726405476200470246e-01 -7.370577500671017246e-01
4.098914834537268348e-01 5.121377966372814283e-01 -5.121369318967119444e-01
4.222330731299034912e-01 5.554662865304155900e-02 -8.437557156651577239e-01
4.376667928248409445e-01 2.848391459960338268e-01 -6.604102818136794451e-01
5.614196752925337819e-01 8.365243661491886806e-01 -1.519550402063005734e-01
4.547255367758029632e-01 7.758307694759578599e-01 -2.802340850574739917e-01
4.035388844052662516e-01 6.924895556415801012e-01 -3.822972681657874072e-01
4.337701878076279938e-01 4.547836241732618467e-01 -5.364391819951993545e-01
6.523783624763567213e-01 -1.273155798472425659e-01 -8.015397103634352982e-01
-5.851813580370250900e-01 -7.324166420398854349e-01 1.937361030208760715e-01
-3.920864568960297780e-01 -3.399184624789275966e-01 6.371234700213505020e-01
-2.277789097057593137e-01 -4.950123376304740308e-01 6.489216485407812707e-01
-6.455336523380315050e-01 4.489131138400694054e-02 7.277126736178498589e-01
-6.507244901035583728e-01 1.041679618699484083e-01 7.679758059708421403e-01
-4.274776534881465917e-01 -7.728121387172750545e-01 2.861158944605968757e-01
-6.201076710821884497e-01 -8.080451449674013187e-01 1.100741696192227004e-01
-3.296464194499665878e-01 -4.655743752054200546e-01 5.917491925522176954e-01
-6.157862290531964655e-01 -4.133085671386673154e-01 4.084195178798423198e-01
-5.610682061802989562e-01 -3.414440177352248695e-01 5.046507693287610730e-01
-2.615723500178220307e-01 -4.001950215132534239e-01 6.935143783077281077e-01
-6.133462803002935892e-01 -3.001318877200983559e-01 4.948928014689194521e-01
-3.322417937595377180e-01 -8.599226377389014297e-01 2.950355326020235869e-01
-4.350697199570908169e-01 -3.638294917526989081e-01 5.858481515578854992e-01
-4.058384053377369627e-01 -5.495873316932258223e-01 4.697498652817563292e-01
-6.210788724743220302e-01 -4.996114919388570663e-01 3.398118814961834655e-01
-6.337438247418801796e-01 -5.896620114945457791e-01 2.626739067443827902e-01
-4.080320022830196680e-01 -3.407738888488607287e-01 6.240913283218213481e-01
-4.225150540253619913e-01 -4.835802011343984796e-01 5.061159119311978705e-01
-2.324320791940625297e-01 -4.639306721828685975e-01 6.685325389110996497e-01
-2.458106746661798958e-01 -2.207254131626793653e-02 9.883353599980856385e-01
-4.000261457130875331e-01 2.339133094414594383e-02 9.024542224822612591e-01
-3.343050686519605796e-01 -3.763564358473262539e-01 6.548010730611848462e-01
-2.523496790198958561e-01 -5.083561481583261932e-01 6.198534089485916443e-01
-5.427556984574789523e-01 -9.779249034773791760e-02 7.009640889144287401e-01
-5.700169028290000828e-01 -7.634520611466308893e-01 1.823291461382844647e-01
-5.988555715826452408e-01 -5.712993229067651058e-01 3.035115056300371483e-01
-2.478861772506324723e-01 -9.219430070118825871e-01 3.142489022203768800e-01
-4.370339416204391259e-01 -5.001845647963626407e-01 4.824233850350972963e-01
-4.632849828072957976e-01 -7.251126407860897238e-01 2.939322744107863983e-01
-3.760716687366429389e-01 -8.576119230539946958e-01 2.626977416082760253e-01
-4.725516879950802385e-01 -1.073800700126978230e-01 7.483618612087947763e-01
-2.718273660553001680e-01 -3.420863934762738423e-01 7.289687667800339721e-01
-3.226179072452847740e-01 -9.283285727231465057e-01 2.513954506094882024e-01
-3.115407699546419162e-01 -1.359870065483997637e-01 8.521216130279594125e-01
-2.949623103059919593e-01 -2.162522853314767235e-01 8.050241368521872110e-01
-3.845709955000000124e-01 -7.895041950299510614e-01 3.069889815678873979e-01
-5.134692768634543381e-01 -5.450038536795873689e-01 3.895243621322592165e-01
-2.176929861074907990e-01 -5.332075020066814330e-01 6.282171767132528339e-01
-2.156575570118172136e-01 -4.441760310323960015e-01 6.963323484968785282e-01
-2.913040485608380248e-01 -9.351700208626136934e-01 2.706199729648605667e-01
-6.031903981284566507e-01 6.421300107889837960e-02 7.750609626867288604e-01
-3.871682373745873873e-01 -2.910464793505494474e-01 6.774679539645503956e-01
-2.587241048020940126e-01 -2.022157074763475670e-01 8.436780155941517867e-01
-3.059111078988172583e-01 2.692315544003788530e-02 9.782397838473365637e-01
-5.839755792245833188e-01 -1.131721975132070172e-02 7.335509752508734271e-01
-2.727286438876952435e-01 -3.486353227669667376e-01 7.233742772970594981e-01
-5.761295606874886621e-01 -6.868800507670862199e-02 6.967757033921035958e-01
-3.707778579980468003e-01 2.844401822183910411e-02 9.289618723689425650e-01
-6.108774359513731156e-01 -5.244906430648377249e-01 3.291482456706622539e-01
-5.617725394506571934e-01 -8.037096014606015526e-01 1.586521993546523568e-01
-4.272537813466902867e-01 -3.792137705477962029e-01 5.804260261944945709e-01
-5.257236015005676277e-01 -4.681873899560347607e-01 4.374052568211449499e-01
-4.654803155847380136e-01 -8.363861365878983989e-01 2.090713559046060432e-01
-2.987553879234265408e-01 -7.841254297144036045e-02 9.050838227728562613e-01
-5.540258326400649969e-01 -8.365504157094952875e-01 1.401309946294020947e-01
-6.229945556631460990e-01 7.482954921502255052e-02 7.676029155856139985e-01
-6.296310538211656871e-01 -6.614818885823078309e-01 2.121993448845472807e-01
-3.081303804805132773e-01 -7.752971495225022824e-01 3.770155723945222137e-01
-4.264610808221462324e-01 -5.701887864390529082e-01 4.383264461307096460e-01
-3.772072295514469764e-01 -5.884247646556850508e-01 4.629788001184677593e-01
-4.020574285010937721e-01 -5.559707590665858845e-01 4.679181047794927495e-01
-2.815649671091116635e-01 -8.386669461860619679e-01 3.503059559869388662e-01
-4.339532988524826829e-01 -2.961868560123277483e-01 6.372651893335227191e-01
-6.171200002213818037e-01 7.078486029215672048e-02 7.691460245445493893e-01
-2.156415116277791144e-01 -5.646903813695323127e-01 6.062844211682750784e-01
-3.109059100716385915e-01 -7.634097333299278976e-01 3.837418986500197304e-01
-4.655418615765970491e-01 -7.872087066134848543e-01 2.457738254769415154e-01
-5.079304270671862742e-01 -2.313632079956472742e-01 6.282128738734533702e-01
-2.351902810771512031e-01 -5.598027980723435659e-01 5.947436051881779262e-01
-2.310201955336494695e-01 -4.274368220263782270e-01 6.969017166327976520e-01
-3.393470111474825024e-01 -4.394808789760168422e-01 6.037095654225103081e-01
-4.127948685582070731e-01 -6.842558576804967929e-01 3.637054844640074669e-01
-4.192099103111743830e-01 -1.031332521276821651e-01 7.929927504761574708e-01
-4.708967929819503628e-01 -3.762539400766596320e-01 5.487185497866204908e-01
-2.415194640366001844e-01 -2.679757670477166953e-01 8.079069607022185684e-01
-3.756833150525359932e-01 -2.966835631740102897e-01 6.821814442810538726e-01
-4.811162351414578486e-01 -7.482504245232338702e-01 2.627829507939467568e-01
-2.304835211524718930e-01 -5.619572111542886494e-01 5.967917067219283833e-01
-4.619612611459051332e-01 -7.015195005856977861e-01 3.125922295096639214e-01
-4.568748821761247081e-01 9.782294810218729320e-03 8.481013365293358364e-01
-6.272077513817512218e-01 -3.514775032321027504e-01 4.457490744649158509e-01
-5.082846674775158835e-01 -8.716245882037948478e-02 7.356988064817963080e-01
-3.169553048118109451e-01 -1.643195945742931263e-01 8.267404867119252376e-01
-4.862720715175235520e-01 -4.806371523671047474e-01 4.587632847484536258e-01
-6.063628129699729641e-01 -3.616934688549914845e-01 4.543153720853267963e-01
-2.206288610228408498e-01 -4.447805299646379051e-01 6.920169077476656661e-01
-3.346025338039934627e-01 -4.422163371224712147e-01 6.053527658510632348e-01
-4.364349451158237025e-01 -1.496051830253465886e-01 7.448769664766466958e-01
-5.630272945761468639e-01 -5.630539435293826500e-01 3.375190240870895031e-01
-5.466045274005344456e-01 -1.028724728936327437e-01 6.941765062482574411e-01
-3.207775351985901469e-01 -6.680530300146202416e-01 4.473297526336366126e-01
-4.495323614697871450e-01 -3.201569777350116719e-01 6.072442617221994743e-01
-4.635408481238563749e-01 -4.406937225049528117e-01 5.062797296251527746e-01
-2.486501802428199570e-01 -8.816267494240581648e-01 3.437834661822731785e-01
-3.671094998917830421e-01 -8.683309212178381697e-01 2.616528317738061049e-01
-4.294440821659000762e-01 5.325676875068066640e-02 9.019090433296756970e-01
-6.359121095418539538e-01 -1.525798076590221264e-01 5.876203325537773248e-01
-2.586143320811314927e-01 -2.535683461447608145e-01 8.053874939597913674e-01
-5.428441538321963078e-01 -8.451324300867717465e-01 1.424080568351641651e-01
-4.718282132199782541e-01 -7.645944668280894030e-01 2.577876974454114678e-01
-4.482368458427199998e-01 -7.008966518647234689e-02 7.951264888020542765e-01
-3.420224544745397166e-01 -2.950433254589141518e-01 7.095684225415821444e-01
-6.238653385256938133e-01 -4.912759388962611440e-01 3.438753998989994010e-01
-3.831645325215628506e-01 -9.148803874136989256e-01 2.143884315799341744e-01
-2.953458265934331139e-01 -2.545805795202841226e-01 7.760833260928009514e-01
-5.944553825660309210e-01 -7.446830038718085243e-01 1.773616744848958426e-01
-3.450419960836861311e-01 -4.307716294093317799e-01 6.057918457904711840e-01
-3.250933062420387487e-01 -4.265710756832061801e-01 6.244350465801042915e-01
-4.827294073523701323e-01 -5.191856937775188863e-01 4.327093115136964041e-01
-3.241666726872893256e-01 -1.602189753658688487e-01 8.242002035470423760e-01
-6.439477632515351324e-01 -2.850514809041647113e-01 4.823789131369317085e-01
-5.168713842500264333e-01 -6.006726550698580080e-01 3.452789372466119611e-01
-2.564003422975322799e-01 -4.123638805192944012e-01 6.884402731146047616e-01
-3.913089470127627534e-01 -7.049204988583490650e-01 3.649616570122873882e-01
-5.555942928858496055e-01 -2.443541113959316891e-01 5.814604021323440675e-01
-3.744404741881028342e-01 -1.036627953125942164e-01 8.273918384141945026e-01
-3.000521995093975436e-01 -9.020129866526596096e-01 2.885991663237535976e-01
-2.528326441972005845e-01 -8.422724159461104643e-01 3.699423554504072675e-01
-6.441613738395749467e-01 1.085724452995357608e-01 7.763681327206476412e-01
-6.315006615801354029e-01 -5.055452803522707539e-01 3.272777434431780597e-01
-2.430835311592246251e-01 -9.438831869630125437e-01 3.015856190157424344e-01
-3.143704574369786675e-01 -3.174091855090375724e-01 7.143455491280290559e-01
-3.600000213427534956e-01 -8.437949475119173037e-01 2.855140580713106391e-01
-3.239371942838877860e-01 -7.633723387784411285e-01 3.736419266314590648e-01
-4.907092846845319545e-01 -1.135107529957603972e-01 7.296683124386644792e-01
-3.647424838566105110e-01 -6.709407762877073189e-01 4.110021714447459340e-01
-5.712591243000170182e-01 -5.965421975935499832e-01 3.060954653285598015e-01
-5.555227070057605632e-01 9.900829747104233913e-02 8.381108346434585910e-01
-4.676356030766014582e-01 -4.550261521281213639e-01 4.923866576819086460e-01
-6.272884533069092994e-01 5.480968159554187175e-02 7.493048463611007293e-01
-4.335692295955967945e-01 -1.663585549703861244e-01 7.345844030505237487e-01
-5.219687904582174243e-01 -8.184987558521723827e-02 7.290335975728767792e-01
-5.984715849397714837e-01 1.063337926653241811e-01 8.102053012115277841e-01
-2.631848241922354892e-01 -5.085195840674134882e-01 6.113101960351259301e-01
-2.752670068165703476e-01 -5.596204406853253627e-02 9.401162600317135576e-01
-2.592444264617588257e-01 -7.104353512310150887e-01 4.634809813502753228e-01
-2.548635359953273505e-01 -3.128963843800254274e-01 7.639667588193449488e-01
-3.725564823250685498e-01 -7.425935517190382917e-01 3.513829968764701217e-01
-4.966957052765776370e-01 -1.380842444303404526e-01 7.066518900278841997e-01
-5.470573400494351812e-01 -8.181249763450632040e-01 1.593162430888033498e-01
-5.295733015584446202e-01 -5.136716392706638379e-01 4.004228805895302945e-01
-5.361994271602988915e-01 -7.721183196274358229e-01 2.021357990395792059e-01
-2.844521746815587560e-01 -5.678813616494113869e-01 5.504201384181782730e-01
-5.256261687555887629e-01 -8.642490616849464458e-02 7.227721610922851481e-01
-3.840953754170043921e-01 -9.155541245271675566e-01 2.131614963976160015e-01
-4.695262699559769604e-01 -1.717354196512234712e-02 8.181245730012962625e-01
-2.244400143001342995e-01 -2.828913881400121344e-01 8.100346662303579137e-01
-2.687445674018088537e-01 -4.551742787912905347e-02 9.529907651294412529e-01
-4.132275557373655817e-01 -5.373774967034853356e-01 4.731314280544369200e-01
-2.654242011604547313e-01 -9.096523222956609533e-01 3.098031772710183041e-01
-5.982888435851404507e-01 -4.769616884478630192e-01 3.744504996149149445e-01
-5.013419052328752512e-01 5.620696085360351452e-02 8.482347184683227681e-01
-4.043483399734540407e-01 -9.988429498694664788e-02 8.069711125451189959e-01
-6.339506455617878178e-01 -2.360315574177518916e-01 5.267812737195390893e-01
-2.430117152034022565e-01 -8.965528607753765478e-01 3.370113964987336841e-01
-2.239762645438336253e-01 -2.611255396144598340e-01 8.266607155448036925e-01
-5.817398143158050150e-01 -4.963817866420278668e-01 3.727997656108746893e-01
-3.017492966239845309e-01 -3.854694237871940099e-01 6.732932886006540718e-01
-3.066935596652017315e-01 -4.703237921947792666e-01 6.060389200036112589e-01
-3.421277881991393599e-01 -6.545660511324319364e-01 4.408151532575738663e-01
-3.844963881487646895e-01 -8.828100274048111817e-01 2.373194994591640572e-01
-6.061980799102738571e-01 -8.117882479330252865e-01 1.180874853716084999e-01
-3.122505908899163019e-01 -3.271062185573205272e-01 7.087465151658118856e-01
-2.171745916374079044e-01 -5.295023205581397274e-01 6.313889558382980161e-01
-3.061799850880824181e-01 -6.485774908468194822e-01 4.732290460766179763e-01
-5.282766836023197188e-01 -5.761427374224155074e-01 3.547459483672144587e-01
-2.388975900528992613e-01 -9.436442674578282563e-01 3.050174779635512201e-01
-2.311446827714030428e-01 -2.220388290958252298e-01 8.502989258005247963e-01
-4.353563322003817238e-01 -5.817477080933003419e-01 4.227750703558242340e-01
-5.188632263336574457e-01 -3.632654307987481235e-01 5.211453427163651453e-01
-5.677534329144933167e-01 -6.313529194798297439e-01 2.828060301097743423e-01
-2.523446223801604771e-01 -7.402226250229806404e-01 4.465834750230249228e-01
-4.071806741262010143e-01 -7.707234365030125600e-01 3.034515988906629214e-01
-3.918627990582304044e-01 -2.717580565513974533e-01 6.882335817515149445e-01
-4.248062190860089626e-01 -4.260856940313436647e-01 5.473008744503262690e-01
-5.247887917865626806e-01 -3.672760110683827572e-01 5.135428845072689263e-01
-3.126464882897941333e-01 -1.436912170343974671e-01 8.455048904756067296e-01
-5.976934824649678957e-01 -3.246688328089103459e-01 4.887216955012018693e-01
-5.241348632372406779e-01 -3.606137327353262090e-01 5.190298398344287412e-01
-2.513401057701215580e-01 -6.009684447559887621e-01 5.514288619664207136e-01
-6.317166793969625216e-01 -6.317123905332707734e-01 2.328251479959377312e-01
-4.981260151227793753e-01 -6.669120343696324782e-02 7.588922865309812860e-01
-2.076298830979338428e-01 -6.914924774568719235e-01 5.177518291896839875e-01
2.178554587230925044e-01 -5.644593044517107749e-01 -2.508596518975270695e-01
-4.439200301090931444e-02 -3.791914387322083968e-01 -5.237385572108107512e-01
-4.022394755278058120e-02 -6.746694095552585591e-01 -1.112538353510656025e-01
-1.663264042563555589e-01 -8.959128486924344825e-01 1.905094165083538460e-01
2.465603390779480264e-01 -9.583946217990900462e-02 -9.031111377168709042e-01
4.728352376516584687e-01 -9.030049528915959356e-02 -8.984231240484310543e-01
4.079303158346957447e-01 -4.037711393896615819e-01 -4.646248590572529258e-01
2.340341092022864833e-01 -5.295880253102487334e-01 -2.986249189807919091e-01
2.209948333007195065e-01 -2.740135420397134952e-02 -1.000000000000000000e+00
2.432290748877006387e-02 -2.993059237817483065e-01 -6.314257192809612507e-01
3.029196640198577040e-01 -7.213868217068206135e-02 -9.330863498952127744e-01
7.772119010871519906e-02 -7.023318646525972264e-01 -6.618685177754028703e-02
5.433215134316385919e-01 -1.922983988591216720e-01 -7.522461734308241166e-01
-4.408560569868191226e-01 -7.636433548566585738e-01 -9.099180894757528601e-03
-4.470511450283167210e-01 -7.238753934223309816e-01 -6.492406836601674613e-02
1.700188235489740948e-02 -4.810884715494204156e-01 -3.782012576798476355e-01
-3.834982226800692229e-01 -9.170034326317719753e-01 2.080187909610269059e-01
-3.278849120653136162e-01 -7.034372907255018736e-01 -8.690081769705300385e-02
-1.906484607478429461e-01 -5.255583490498900723e-01 -3.275502264005839548e-01
-9.885870039410686594e-02 -4.687034768654498862e-01 -4.018384792998566102e-01
-3.036665098143583319e-01 -9.022897491088825994e-01 1.918705010358172924e-01
2.053186223967840840e-01 -5.611394960844144908e-01 -2.561794232628436530e-01
-2.014788090116076957e-01 -7.148302942484922040e-01 -6.406898934305940707e-02
-9.387481661407691413e-02 -3.403749614870311135e-01 -5.806111862408092072e-01
-9.088023181842755371e-02 -7.862670556224673479e-01 4.166955125596465137e-02
5.643167268886781773e-01 -1.273482698315215600e-01 -8.417136832655938150e-01
-8.922196098650542195e-02 -5.519674000369291234e-01 -2.851384189826426385e-01
2.682019295779711210e-02 -5.769607040827691158e-01 -2.438999013222580559e-01
2.884143679871783994e-01 -1.164629542552143571e-01 -8.720402826156481435e-01
-3.785339039775916237e-01 -8.906857125002151099e-01 1.715722495834407502e-01
1.349930766813778110e-03 -6.081295784999899423e-01 -2.018101398827827631e-01
-2.172465883687529908e-01 -7.255742153879474188e-01 -4.994408740279715486e-02
8.675967718181672172e-02 -1.779510613004457731e-01 -7.973161295941342264e-01
3.899637765941346146e-01 -7.010109509299432273e-02 -9.311529729063365846e-01
-1.594482588647951893e-01 -7.683655537794567003e-01 1.293062323216287272e-02
4.294613173648936244e-01 -1.286651831914900901e-01 -8.472760414843568677e-01
2.921180141393180940e-01 -4.508690066035580396e-02 -9.714221711929496017e-01
-2.861164953704610214e-01 -5.410497234631774788e-01 -3.111748793512115752e-01
-4.709447585256418822e-01 -7.445176743128149033e-01 -3.743468033404259709e-02
4.936508757003687381e-02 -1.936663707696038295e-01 -7.774417587662646456e-01
4.662084526354821623e-01 -2.545766523266032033e-01 -6.695857897541230841e-01
2.478326091515972163e-01 -3.487869656929366013e-01 -5.501245614874930023e-01
-1.820852193993764412e-01 -7.466134020654695558e-01 -1.866048523539385121e-02
2.964340214696477571e-01 -3.280064180003066654e-01 -5.764511041086778365e-01
-3.203225947287475367e-02 -5.200976709338328563e-01 -3.264655271541697101e-01
-9.332241882818752277e-02 -7.424777207856608774e-01 -1.956009859356996894e-02
3.986839828538562003e-01 -4.011964489457796046e-01 -4.687244735673182783e-01
-3.852498335735330959e-01 -6.329969602876204249e-01 -1.883281020250071880e-01
2.325740511003194511e-01 -4.948696609781959022e-01 -3.471447016820371489e-01
-2.797395327657151709e-01 -7.914903156240147286e-01 3.859411337148695165e-02
-1.645130893352017010e-01 -8.857686677702334421e-01 1.764555780966309828e-01
5.151133288634835994e-01 -2.595490059702367236e-01 -6.599647841051348163e-01
-3.947379525675476231e-01 -8.524321136337322802e-01 1.173110189862790059e-01
1.236529864386901184e-01 -1.192790566671702995e-01 -8.771519361423708583e-01
-2.832142073654134728e-01 -8.928297177256230288e-01 1.797939519624560667e-01
1.730576956558865509e-01 -8.226473318023562464e-02 -9.260840474102114417e-01
-2.108599830459136348e-01 -5.055083396237155524e-01 -3.566333884918761465e-01
2.922033184648568580e-02 -4.645085527697909167e-01 -4.006634028059447017e-01
4.840749719613452462e-01 -1.037454246367980754e-01 -8.790477815811381657e-01
-8.816307110691810889e-02 -4.094664012764693828e-01 -4.839001925900856538e-01
4.486981256026609799e-01 -9.874937122733480621e-02 -8.879595482507978144e-01
-3.610758221566743864e-01 -8.924908124202384219e-01 1.750487101834037329e-01
6.030961545258444606e-02 -6.348176171821676705e-01 -1.613393081387148320e-01
2.126196029428786549e-01 -3.364751698093840920e-02 -9.917448075500528981e-01
-5.544387021522508840e-01 -7.967463537859206246e-01 3.085423302299822659e-02
1.126728041900003224e-01 -1.421038741417335327e-01 -8.459088537703449706e-01
1.625553790931033027e-01 -2.280860999571730219e-01 -7.232078148802361106e-01
2.363425865576333218e-01 -3.802876449841126605e-01 -5.068047413069489693e-01
-2.275314758052842667e-01 -7.015774767661882017e-01 -8.398910401893536215e-02
-2.090603384636248729e-01 -8.508670932469677428e-01 1.253159121250055630e-01
2.932810515385058103e-01 -9.393383661504563220e-02 -9.032062571801768858e-01
-3.701424330509425209e-01 -8.322674826331155629e-01 9.052657114466738930e-02
6.764491827688894066e-02 -4.585295572159928668e-01 -4.068969811738168407e-01
5.487395289652007291e-01 -1.671161827369219421e-01 -7.870835447344427527e-01
1.868443415448200751e-01 -9.111458517215133279e-02 -9.129800837037570505e-01
1.756603437606175100e-01 -2.148048288186034382e-01 -7.410189847869949054e-01
-1.178645097330327796e-01 -6.962883279829632510e-01 -8.535100930739793201e-02
-2.903501998749629109e-01 -8.225661617219498511e-01 8.136945056326765069e-02
1.740793001718934363e-01 -2.380766091894391534e-01 -7.086365457567563864e-01
-4.805200040686453261e-02 -3.319368528684485953e-01 -5.898698089413197954e-01
-2.989185668878908131e-01 -6.938283960995661470e-01 -9.871788379712700956e-02
4.335220849283237532e-02 -2.247288644514487677e-01 -7.344327628873744684e-01
-2.743564530001434409e-01 -5.726267554374115942e-01 -2.664727611746332547e-01
3.923404619244147962e-01 -1.581483260932683432e-01 -8.081775292926924870e-01
4.887209505428331130e-02 -5.193433194050767199e-01 -3.230786562142570761e-01
9.760323761471466353e-02 -4.442234774497443306e-01 -4.252132105752256530e-01
-4.919024018229858353e-01 -7.995142851625520741e-01 3.814756902919851783e-02
-2.437337374723844846e-02 -5.473077540687495413e-01 -2.880812893226510352e-01
-6.600560314263539778e-03 -3.089724079009579794e-01 -6.196356938619479449e-01
-4.968630048368056357e-02 -6.304501095733031635e-01 -1.734685881433285504e-01
-2.910148550545465507e-01 -8.804155618801409178e-01 1.620454710009117394e-01
-2.628125888383029962e-01 -8.340657622951643813e-01 9.892492779583177132e-02
-1.496394079641692743e-01 -7.343613517232576715e-01 -3.397440419855306259e-02
-5.588325312672680345e-02 -7.004204762853797339e-01 -7.618475023829734960e-02
1.986364660512972002e-01 -4.184869387841997357e-01 -4.555774179567092519e-01
4.623949607246077842e-01 -3.144503218612562656e-01 -5.862582552718900164e-01
1.228441324464152468e-01 -1.573953795407914413e-01 -8.240157614202104908e-01
1.548807820720937527e-02 -3.693650755421042375e-01 -5.341627515702432882e-01
-3.163167831285857434e-01 -7.054925172509515230e-01 -8.339856752541316420e-02
-2.896265648191287956e-01 -6.743294743523826629e-01 -1.254132517246140666e-01
1.889970178334348105e-01 -5.973224569893392094e-02 -9.566471496964705779e-01
3.204236996562204176e-01 -1.072283316460321545e-01 -8.831681841895767660e-01
1.188142120019644241e-02 -2.406086338680742953e-01 -7.140038858738386729e-01
2.984168425668078453e-02 -7.623334824753380534e-01 1.490122353943479881e-02
-1.573079343454944767e-01 -6.863383888411913603e-01 -1.013976635296412326e-01
-7.355713207055854241e-02 -6.669234709129771010e-01 -1.238901507210031089e-01
-2.232773950204133828e-01 -5.711026463312340873e-01 -2.657964326214042328e-01
-3.142536771229114123e-01 -5.795705862362062755e-01 -2.589738339185186922e-01
2.098354648134590217e-01 -4.836311359856624303e-01 -3.640725913137873304e-01
-2.672074985708763895e-01 -6.579643552788575489e-01 -1.470159798962713260e-01
-1.365814642928738221e-01 -5.613320162870656382e-01 -2.746714372446111829e-01
2.674052223790303051e-01 -4.374593760693143984e-01 -4.253332877956970126e-01
-1.314786195821344428e-01 -4.318886471971400964e-01 -4.549930799284677696e-01
-1.777697418081201630e-01 -9.233861144772681495e-01 2.282126808698514420e-01
-2.323384374154039977e-01 -6.920021557945574830e-01 -9.761252460446773194e-02
-3.204843962735292040e-01 -5.618333270159557857e-01 -2.840630568994046423e-01
3.893540778862836782e-01 -2.406069054043706579e-01 -6.932937503611209529e-01
-1.261466872938215855e-01 -5.028985525515571320e-01 -3.556262506686032610e-01
-2.880069454770038395e-01 -7.073090954574789979e-01 -7.931063848397373883e-02
-5.172498315226756183e-02 -5.356666521902274658e-01 -3.058239854259008350e-01
2.189559819580597089e-01 -3.985458949787301641e-01 -4.822845444163720297e-01
-4.490857808939375806e-01 -8.763659603819696775e-01 1.477217840763197509e-01
3.498358272890835785e-01 -1.785369324266724844e-01 -7.820632898411643552e-01
-5.509065170787861287e-01 -7.705960292240269238e-01 -5.437338672520159247e-03
1.318281709932429546e-01 -5.256141463352738130e-01 -3.097775525332136515e-01
-9.086215065152366058e-03 -5.399961288613367438e-01 -2.974437646175338013e-01
-3.213161953208921728e-01 -7.142042548856057937e-01 -7.151812536060594971e-02
-7.269792879759036375e-02 -4.795911585412661604e-01 -3.852123114264004444e-01
-4.944264097234974398e-01 -7.754245113760607211e-01 4.398600387256783838e-03
1.461965186657720739e-01 -1.211232178168333978e-01 -8.733419295848495745e-01
3.413844232892216390e-01 -3.565478760387827961e-01 -5.341630618327761759e-01
2.089550135262449870e-01 -4.125868028998696535e-01 -4.632431946417162605e-01
-1.193517457114570517e-02 -7.154062661748233909e-01 -5.286481151031639097e-02
-4.106044659249487999e-02 -4.120762126550089888e-01 -4.776743396014552778e-01
3.818743637284899850e-01 -3.383904136199945567e-01 -5.572749200081417165e-01
2.756615504749209133e-01 -2.533269166731022190e-02 -9.998865811064003850e-01
-1.379004013786355454e-01 -7.211829119817664280e-01 -5.171705432052257911e-02
-5.466346029506781168e-01 -8.054447313910414463e-01 4.341858482396945829e-02
3.580134669894681210e-01 -2.294420108210827591e-01 -7.105909168372522844e-01
3.635627554553632484e-02 -2.034388237707396574e-01 -7.645208770141715959e-01
-3.444840959461297758e-01 -6.699505322086658499e-01 -1.345329512981181530e-01
1.294198895196953247e-01 -5.699904233695617384e-01 -2.479951439056359008e-01
3.864163536899912765e-01 -1.112616452978684722e-01 -8.739197089558951026e-01
4.637100650433758076e-01 -2.047532749277116149e-01 -7.392373247519334889e-01
4.790735208853346694e-01 -1.988292550950343796e-01 -7.466596022971083713e-01
-5.376619985254387224e-01 -8.427220795248340224e-01 9.592093212168487093e-02
2.265161939459221785e-01 -5.160760154222854279e-01 -3.178896310384214385e-01
-5.532655358604151585e-01 -8.215061462842925266e-01 6.546390054075744425e-02
-9.801792913762218118e-02 -5.177079976719684007e-01 -3.334203834304382830e-01
2.786269938868415341e-01 -3.629144030736261017e-01 -5.287239760064036398e-01
1.547964671678703566e-02 -2.645043723533194724e-01 -6.804666945734887396e-01
-1.952872400967385902e-01 -6.027345498682072922e-01 -2.201271836463254417e-01
7.029266328574904077e-02 -1.676117693076069892e-01 -8.126452621565857237e-01
-1.297552752011030819e-01 -4.741585309938746162e-01 -3.959228387277964889e-01
-3.446499456458257393e-01 -6.813928078313683523e-01 -1.185775894068863828e-01
-7.343058993266293744e-02 -6.143838342320593338e-01 -1.971874237790527395e-01
3.188977200456142302e-01 -2.434270644721408527e-01 -6.932250718184697069e-01
4.852902612460063825e-01 -1.646540162930386630e-01 -7.940003682044217692e-01
2.972012803632467087e-02 -4.936042429840766244e-01 -3.600411641669976626e-01
7.399451393599983107e-02 -3.261378617177402850e-01 -5.912637689587024736e-01
-1.413485682584566250e-01 -4.604426947313212670e-01 -4.156955555949793935e-01
3.308178153647100550e-01 -3.463209516325941872e-01 -5.490116521752871348e-01
2.702226957234166727e-01 -1.157586484315805686e-01 -8.740211494275232917e-01
-1.253333594858239142e-01 -4.363742074233008528e-01 -4.483975475826472712e-01
-3.805074081466046365e-02 -7.943052637285371587e-01 5.578344055953930042e-02
-2.550844490220465985e-02 -4.564568019623804207e-01 -4.149004040630183132e-01
-1.151429691718994092e-01 -6.795498268615699500e-01 -1.085555223327997615e-01
2.516551260183225169e-01 -5.204745574619717985e-01 -3.103732938823024479e-01
-1.221233522988715396e-02 -4.350729684103508133e-01 -4.440059217997451291e-01
-3.032772906849954264e-01 -9.454529049030326870e-01 2.521138452406882502e-01
2.307598494633920361e-01 -3.028123810759386636e-01 -6.152059135572603976e-01
1.024733965134116617e-03 -6.283689306912398909e-01 -1.735896871066940905e-01
-1.209667229450418491e-01 -7.236987966850183529e-01 -4.727766928368461186e-02
-4.416894601436361367e-01 -8.041627849431745023e-01 4.738850383336757482e-02
-1.026913432387861203e-01 -4.912158207247060981e-01 -3.706391682881244320e-01
-1.589917514493109363e-01 -5.164808265907586682e-01 -3.384782880785084935e-01
-4.224907046886870465e-01 -8.735821130890046859e-01 1.452970275074574324e-01
-2.327510222720576838e-01 -7.598898855512847827e-01 -2.917020272402017379e-03
-2.848756756455966266e-01 -8.709562184978284494e-01 1.491844971760304950e-01
-3.504370317757259379e-01 -8.843356915630407045e-01 1.642543114260119064e-01
2.274896468513454562e-01 -4.873748722446713533e-01 -3.578805511694408970e-01
2.238450385799289621e-01 -3.060306607685463476e-01 -6.110951407247234846e-01
2.439343370651275711e-01 -4.359779214438982281e-02 -9.761437191552826409e-01
3.501673898612444602e-01 -9.373901696033201669e-02 -9.003566257723768507e-01
-5.657084082089514597e-03 -7.307543315530039552e-01 -3.110643406765719807e-02
4.388893521308238621e-01 -1.476470917153541729e-01 -8.202748201263262429e-01
2.122181544205385406e-01 -4.830791000672116642e-01 -3.647120593391768306e-01
3.171955587715691999e-02 -2.981170241002745191e-01 -6.326786265403185894e-01
-5.522247130567504991e-02 -3.838741690195329181e-01 -5.177994159683140252e-01
1.758585771838652168e-01 -6.226027773616427119e-01 -1.720413034462270063e-01
-3.451128072960296667e-01 -6.144294731409400967e-01 -2.120313988276537331e-01
2.723315601324174939e-01 -2.896233162100871061e-02 -9.950051662552028553e-01
3.725493553247568035e-01 -1.034253586602912334e-01 -8.856139376908246374e-01
-4.111151761750328482e-01 -8.742667129182485342e-01 1.468763871257113274e-01
2.012368275039740917e-01 -5.952228287629713899e-01 -2.088497384022941217e-01
-3.814121224226598716e-01 -8.061636637784281856e-01 5.348768176428871785e-02
-7.335167768454996240e-02 -3.360896534736355634e-01 -5.854639841811953849e-01
3.960541746617770587e-01 -3.543733197416881753e-01 -5.341972212675326626e-01
1.422763476009805683e-01 -5.864209514995132322e-01 -2.243655296921021336e-01
1.619844377083070608e-01 -3.726909989704186299e-01 -5.214838684398075408e-01
4.570774508841764505e-01 -2.170514082090860553e-01 -7.224426973705425636e-01
-3.044864292355822233e-01 -8.529997545329770503e-01 1.230552513633718092e-01
1.017414220859216012e-01 -4.375249999542190071e-01 -4.343319740967355735e-01
-1.924231258991289106e-01 -6.334128818778816949e-01 -1.771670815682491185e-01
1.826581552604931158e-01 -6.285366445352681686e-02 -9.526399156990231765e-01
-9.572029936031184461e-02 -3.656755435452498371e-01 -5.454126379557859838e-01
-1.359885597837968418e-01 -7.530742872329797555e-01 -7.116745941738224571e-03
3.464299144280916232e-01 -4.474189346957735958e-01 -4.071013228901169123e-01
-2.388010140501328482e-01 -8.497335756973458665e-01 1.221024887780174928e-01
-1.036381742567553943e-01 -6.481561957172432553e-01 -1.517251764918558787e-01
-1.297320290418899416e-02 -2.624765457134379809e-01 -6.848572084128581317e-01
-2.512357796400114252e-01 -7.829530714640366984e-01 2.824684948705206630e-02
-3.688897371227403688e-02 -4.061111854604838034e-01 -4.857679538922792251e-01
1.769325879915299715e-01 -4.657074137601850961e-01 -3.908855160005391682e-01
-2.231864478422045106e-01 -7.661519222760269088e-01 6.344706456137124903e-03
-3.443644453142394313e-01 -6.713386272315980952e-01 -1.325896915062177717e-01
1.487579889510584341e-01 -4.154483236363066267e-01 -4.625538610450686816e-01
2.186656482689674497e-01 -4.747988521975859966e-02 -9.721138898689327679e-01
1.695398943073186671e-01 -1.895393553368477091e-01 -7.766056528093383537e-01
4.284368815845331913e-01 -2.992548685088934346e-01 -6.093225523761947038e-01
5.140100660008051214e-01 -2.009116864825269133e-01 -7.418371318994574359e-01
-4.122227434096004672e-01 -8.693448077674985619e-01 1.399484852516032218e-01
-1.767225245988638116e-01 -5.029549347416827354e-01 -3.583227648429913592e-01
2.786711435125598935e-01 -4.755694382530859660e-02 -9.687137758912671703e-01
2.989747494946454753e-01 -4.673976067777904086e-01 -3.818306746099860982e-01
-3.626079124662006659e-01 -7.414650104161806254e-01 -3.574918881492892414e-02
-3.689719659773058047e-02 -7.504058772200908889e-01 -5.402451598498142493e-03
2.909150943864284855e-01 -2.365419402157176165e-01 -7.043667699697935269e-01
1.178824496846922892e-01 -4.638381771621160610e-01 -3.967336859327802445e-01
1.403724163128075575e-01 -2.715416062247194562e-01 -6.637951510416439938e-01
3.557538877062572102e-01 -1.717816330163454142e-01 -7.911636675603316293e-01
-1.801284453778243533e-01 -8.217630792842001153e-01 8.629702536824898629e-02
-3.215638915782100260e-01 -8.968819857998325817e-01 1.833434365845421909e-01
4.727225518954969452e-01 -1.991180432940564127e-01 -7.466051681102405801e-01
-1.500204520408858488e-01 -5.679243939041970224e-01 -2.662110565343931423e-01
-1.755901308602625666e-01 -8.682830229629854291e-01 1.514514862294129571e-01
2.899744045242217197e-03 -6.409961336487161043e-01 -1.558691086085364497e-01
8.284131501649687201e-02 -6.386355248169843790e-01 -1.547761453690580935e-01
3.009298359447642457e-01 -2.568949931096364270e-01 -6.754203105244663830e-01
-2.661957789800137864e-01 -8.555857531520227877e-01 1.287643528171607266e-01
1.362184998416579307e-01 -2.890526616793067105e-01 -6.395913535763781965e-01
2.921330660531540335e-01 -4.472641136287623387e-01 -4.102966895422763272e-01
-2.178286199914236942e-01 -9.333377386325042435e-01 2.398992636047294347e-01
-1.024282716736734378e-01 -6.136023625683205696e-01 -1.998688972739912639e-01
-8.138050733698630468e-02 -7.722879285207480127e-01 2.268689507506499795e-02
4.256532668008718434e-01 -2.757187668214047815e-01 -6.423132731152692010e-01
4.368212204123551601e-01 -8.994571649596307117e-02 -9.008942661131769114e-01
3.453019499939813941e-01 8.788273323046230656e-01 -1.575562851864622804e-01
-2.115973563564228777e-01 3.171003460658938233e-01 5.956170112408886164e-01
1.924549914090565028e-01 8.057093477713551666e-01 -6.392776368853812785e-02
2.727858536985410254e-01 4.997256861046819321e-01 3.673938599019542228e-01
-4.839057041597746855e-02 4.714310712753860266e-01 3.892475195773649199e-01
2.948391855160854003e-01 8.698970017525011755e-01 -1.478655074795231228e-01
2.154943249850548859e-01 8.527571074999522605e-01 -1.283054116756411900e-01
1.157455056580012770e-01 5.525502577794190184e-01 2.850750341552947265e-01
-1.146983481753257178e-01 3.421173891095129482e-01 5.660298052063585938e-01
-5.842967363320764745e-02 4.033932513133320907e-01 4.836242094434951011e-01
-5.066085937427509123e-01 2.102526390286937885e-01 7.285050409425103402e-01
-3.693492738821166355e-01 1.145846201408880632e-01 8.695143731815627719e-01
-1.394179834125708894e-01 2.300711846228733204e-01 7.210022150362984661e-01
-1.387803439149271623e-01 5.617632532220899755e-01 2.582546493119907138e-01
2.648308083818506353e-01 9.153013654473259875e-01 -2.128610760413023328e-01
-3.660020843697348036e-02 3.415911915003346233e-01 5.710493389852094870e-01
5.478079474684109940e-01 8.206178768810997726e-01 -6.522960064471604313e-02
2.169533476838857427e-03 3.934897423533816330e-01 5.007669361368670691e-01
-2.254408834153991681e-01 1.035579596769908434e-01 8.927954526860102380e-01
3.557354489181289159e-01 8.854572241662980181e-01 -1.662339225519596508e-01
-5.860362408965025249e-01 1.921406150179636452e-01 7.494169264864888325e-01
-1.176295391769169307e-01 2.834123188888089673e-01 6.477753028679212877e-01
-5.621552654974191210e-01 1.254993683127816895e-01 8.437063436537003414e-01
-9.572550740796141600e-02 3.458849067543158795e-01 5.618143699945803426e-01
1.044199168413894319e-01 7.914955961752502267e-01 -4.892711948250138415e-02
1.522019892511692341e-01 5.259746939204099636e-01 3.241541513161540489e-01
-2.199054494791672643e-01 5.272674509508071816e-01 3.019323254408922130e-01
4.811498214672289553e-01 8.088566051920770272e-01 -5.247771072429575218e-02
-4.556435788906570972e-01 1.927870066567707041e-01 7.556699299798510516e-01
-5.078122509265892842e-02 6.371039728507287281e-01 1.579666211796145747e-01
-7.262202622539654963e-03 5.802038604243705544e-01 2.397426100799472937e-01
4.506345461003746222e-01 8.497494253692617905e-01 -1.112065094956065786e-01
1.609636513614786865e-02 3.204721128895798854e-01 6.034065933608215859e-01
-8.008390246821121827e-02 4.334296414680993137e-01 4.405287112540402505e-01
-2.243753204133892010e-01 2.608046510557414099e-01 6.734605979496830486e-01
3.451733544012173804e-01 7.277240106123348262e-01 5.325864605791909984e-02
-2.443900796054498670e-01 3.783903311984473938e-01 5.083047651696408487e-01
-6.516330434913049363e-02 3.387031702770189057e-01 5.735114523505646655e-01
2.855574168794666745e-01 5.174915190840581047e-01 3.433074568792365278e-01
-1.712542072710331043e-01 5.453841000477827050e-01 2.793252348087270076e-01
3.517187373858915445e-02 7.748490392833697893e-01 -2.950130753978828443e-02
8.157659065367853235e-02 8.610881675141650593e-01 -1.472773386841757237e-01
5.393776611768406060e-01 8.317268544557349097e-01 -8.119162344755369298e-02
-3.200883079914994545e-01 4.584890682362632863e-01 3.923959248709952274e-01
5.808395415475633428e-01 8.058976938202140339e-01 -4.287924669596181876e-02
-8.208972583294427139e-02 6.241443874778520584e-01 1.743301114599723756e-01
9.238229183298984903e-02 4.437640873320523593e-01 4.355734167649963351e-01
5.136544621531280441e-01 7.310023240328267224e-01 5.792952224153222196e-02
-3.703005709650301625e-01 4.171080861984056698e-01 4.473761624346836441e-01
1.342438815005088937e-01 6.897917240823137064e-01 9.460838523448615589e-02
4.175509528001534187e-01 6.864446022673733605e-01 1.148238740699395327e-01
4.389316028403478231e-01 9.043912517005149310e-01 -1.880858975554809687e-01
6.960901906908882608e-02 7.746299259215032595e-01 -2.730597381066565688e-02
2.047451462801011535e-01 6.691638668947212931e-01 1.272572516857056468e-01
5.452275636059314978e-01 8.690751314231573987e-01 -1.329795964976723810e-01
4.056276110809792224e-01 8.382350440381913792e-01 -9.761104875452357443e-02
-4.534724631632711112e-02 6.748364645685975827e-01 1.056197625978339688e-01
-2.570994603273042967e-01 2.551652780222651296e-01 6.795331219590160510e-01
5.096802626111773815e-01 7.835497693224218185e-01 -1.560365998119091907e-02
2.909083507157137483e-01 5.953862205321501788e-01 2.349210266169934891e-01
9.475932338547815581e-02 6.282167418276233262e-01 1.783522906487381710e-01
-4.896525597126546447e-01 2.385523670186952550e-01 6.899511728565062008e-01
3.510061133241668685e-01 7.099718892580855201e-01 7.834676821324473850e-02
-1.262986446668602492e-01 1.954996953356495371e-01 7.699568390697755227e-01
2.010908890794156079e-01 8.821248682999006663e-01 -1.700701635739336748e-01
4.310237467972210523e-01 8.344892985533540752e-01 -9.099139153907884192e-02
-1.587511111371858463e-01 5.966617722437032034e-01 2.084677985164118952e-01
5.898831817380804088e-01 8.510361026216726188e-01 -1.053609017717371393e-01
1.947079215227783267e-01 9.782165614929873021e-01 -3.044892123306692233e-01
3.371829794087991550e-01 7.501941162635099580e-01 2.146951804617149365e-02
-2.546638554954534506e-01 4.666355717781281998e-01 3.846197287596658798e-01
-5.852404644042047410e-01 2.304163761862373094e-01 6.960575830933279917e-01
-7.828272677863976070e-02 3.055994665557211776e-01 6.189784322940052874e-01
-5.404942675213414427e-01 2.641788673894407968e-01 6.514068646396866669e-01
-1.752512536260750486e-01 8.380185599885285608e-02 9.231135005457581366e-01
3.015012645733344820e-01 7.879280703428477306e-01 -3.313546675287110804e-02
4.831364756165366231e-02 3.144771405116659757e-01 6.135386986991737679e-01
-4.856832941753082000e-01 2.245161291663814174e-01 7.097525766434736871e-01
3.848375202897910130e-01 6.384885881013391273e-01 1.799379007147017262e-01
8.302532484122417122e-02 4.457579439634592466e-01 4.322781210408885300e-01
-1.413520963377502826e-01 6.572964100540769072e-01 1.248240078779019324e-01
1.271157114000730781e-01 4.358398239558105014e-01 4.485353671172113699e-01
4.449471834706449913e-01 7.634564546940435514e-01 8.878871934864262377e-03
2.923498046652066029e-01 5.248498247065535027e-01 3.334137301694959366e-01
1.426369179183185065e-01 4.632285819873003807e-01 4.111737688400596280e-01
-1.030210397346116719e-01 3.624453540300910381e-01 5.383086274905601876e-01
-3.906015888027388749e-01 3.950961001983500087e-01 4.769737185512690769e-01
1.352712258677979396e-01 3.749547963427470876e-01 5.339307251299543200e-01
2.625591045682072466e-01 7.023195495962155643e-01 8.417021264370021238e-02
-4.454377719605289720e-01 1.636691691721707809e-01 7.968556536900466281e-01
-4.122843729121037915e-01 3.849258553644783754e-01 4.899736512491696949e-01
4.290678869276918217e-01 7.394082726388923055e-01 4.155999140804804426e-02
-2.113592809650229332e-01 5.057487977717797234e-01 3.324244676908321150e-01
-1.336080933087716027e-01 6.146161888292871467e-01 1.847971224761972842e-01
4.284448219121394508e-01 9.079807837643029123e-01 -1.936695022021741874e-01
-2.000657779880123666e-01 4.303970495292996912e-01 4.381762330213519463e-01
2.503168233644148533e-01 7.035438393583247629e-01 8.179030807735643283e-02
-5.373513861302218683e-03 7.758658344703264209e-01 -3.314475017672788293e-02
-1.214385276857754686e-01 2.815719940141616084e-01 6.501339507216543634e-01
-3.066504288879726148e-01 2.573185530446592262e-01 6.738098917749701933e-01
-9.281346454998472273e-02 1.458171806410278604e-01 8.411121363686093755e-01
1.474369694529505115e-01 8.320794959354717024e-01 -1.031900670196692349e-01
-2.760315289933709670e-01 2.352328777572167406e-01 7.063043203183533292e-01
6.861172429162822051e-02 3.911857319010005885e-01 5.076273242368858352e-01
2.363005737176374632e-01 8.442566142928958906e-01 -1.153037022508122400e-01
-4.376287812883736944e-02 7.152912457376597866e-01 4.926348385540448016e-02
-7.407580368797193893e-02 6.172757308816815280e-01 1.843531179560892741e-01
2.865859940558059815e-01 6.830675284080552911e-01 1.123493631287951211e-01
5.441024982119184727e-01 8.244077701334653341e-01 -7.072064986241884121e-02
-2.459486989917417654e-01 4.389265854013895685e-01 4.237580044071824759e-01
5.795314399570874846e-03 3.307328509359595548e-01 5.885253971990770383e-01
4.537753328218688265e-01 7.007668251185370512e-01 9.682895063712511352e-02
-4.292888819368549380e-01 2.500447089601763317e-01 6.772291116529459698e-01
9.686979647272429828e-02 6.549672311503935695e-01 1.411453469396158622e-01
-1.336176467209089780e-01 2.328681047608730237e-01 7.174181773602235079e-01
1.807500465305566795e-01 6.938200620989203316e-01 9.153984779760866719e-02
4.318620035647335875e-01 6.821700450907026703e-01 1.215730816829703048e-01
1.198302460685495840e-01 5.404846955071728187e-01 3.021332533293776268e-01
1.084446236696747085e-01 7.715253560978719838e-01 -2.084345023230746441e-02
3.041803014336596500e-01 6.308923141580987659e-01 1.861105598941052985e-01
2.411681975226373786e-01 6.143691819219555539e-01 2.057063438724117677e-01
2.632957805716897859e-01 6.575574414238347654e-01 1.466635086010532329e-01
2.610961102485591101e-01 6.876049278252956976e-01 1.046200324394513520e-01
-3.987536840399074078e-01 3.473446172670361376e-01 5.431501007291760219e-01
3.906924036642148157e-01 9.097513291298340299e-01 -1.982113353891057639e-01
4.097677815241456689e-01 6.708405249635519541e-01 1.361678791934482213e-01
-2.937845749459856437e-01 4.289276275618756906e-01 4.350838912318287788e-01
-9.396677153187742160e-02 5.611094587407425838e-01 2.616258293759022857e-01
5.418785548206710156e-02 7.037966641474860952e-01 7.067564265677869773e-02
3.429384597129914725e-01 6.364996464197921755e-01 1.804138362652316641e-01
-1.361652727353240833e-01 5.295451128145849395e-01 3.033494534978108392e-01
-3.240360428168030660e-02 2.590699224314420568e-01 6.864147261656204924e-01
1.334898660495497935e-01 4.568035850380625651e-01 4.196361227244798653e-01
-2.369109200051865149e-01 5.165894983111642969e-01 3.158972728253806039e-01
6.919405486404828221e-02 8.556262205158183809e-01 -1.403361852107954666e-01
-1.934545252309997354e-01 5.714643463268010981e-01 2.417194526822958045e-01
1.868506750260619242e-02 7.722593355090415779e-01 -2.679276595023835639e-02
5.202110951265283001e-01 8.182635256138550695e-01 -6.345905352364804297e-02
-1.441417256593607310e-01 1.636439095099676555e-01 8.134235072851928594e-01
-5.933554470713772178e-01 2.232254705639949433e-01 7.056451774436637292e-01
-4.876452558438699181e-01 1.925479292937745113e-01 7.542475101000813975e-01
3.853922229752194117e-01 6.465024481044985283e-01 1.687872610426954800e-01
9.133400754782261544e-02 5.917618884745802221e-01 2.290267845678265746e-01
-4.322181808722831420e-01 2.337464347395927233e-01 6.998080123905293659e-01
-2.118398080933815986e-01 5.860770047724995768e-01 2.203227861974270396e-01
3.787632904720000804e-02 6.215871741997166522e-01 1.844807152326559951e-01
2.013692918614333749e-01 6.378411354100884667e-01 1.707740337731170344e-01
-3.865432883914624723e-02 4.769100603615092360e-01 3.821373821591602660e-01
-1.984629336337993544e-01 2.064672047418657785e-01 7.506950053014814772e-01
-2.397092432230719383e-01 1.976458523224953190e-01 7.607394568955481162e-01
-2.321887425723058729e-01 3.267164365074803345e-01 5.810705909750342180e-01
-3.321037666917681652e-01 4.243141374266883870e-01 4.394180758249872643e-01
4.413790961567142235e-01 6.633038251611628189e-01 1.484177790480172288e-01
-2.206345803479813350e-01 1.231973539204479356e-01 8.656579573831276742e-01
2.049247480979470570e-01 9.417645049901059995e-01 -2.530700537766412128e-01
7.126785537846615226e-02 6.451386300836805532e-01 1.534535616940707892e-01
1.417383890297051197e-01 6.426909246480028148e-01 1.607354773526215308e-01
-2.907030567464674586e-01 4.499054561215293790e-01 4.059843472581814439e-01
-6.176825359296926887e-01 1.824259049059560323e-01 7.612345749290179153e-01
-2.122126304528546836e-01 2.224235332347379579e-01 7.276779892024085594e-01
-1.063412693251374608e-01 1.818464737722381430e-01 7.901011458042785929e-01
2.012903964745068053e-01 6.535408754460929615e-01 1.488651537769514477e-01
3.413510671593681933e-01 8.625157776793762610e-01 -1.350149113899339059e-01
3.373335341653891928e-01 6.426818745132686361e-01 1.714807323930722938e-01
-4.527368305518034153e-01 1.383701916995407066e-01 8.317527165301562553e-01
2.573853188296407746e-01 6.702366826281503931e-01 1.286488935472692718e-01
2.690027453249976136e-02 7.094658023807608460e-01 6.126864764357306536e-02
9.529763216340245147e-02 7.030294157379558539e-01 7.400188224087395072e-02
-5.304354193723308242e-02 6.148927835845903189e-01 1.888319224321895751e-01
7.794709849683843783e-02 7.794663521651804539e-01 -3.359631581660401517e-02
-3.948377794041144639e-01 2.106959942458387081e-01 7.340195129019373432e-01
3.704350356843484904e-01 7.959535084457631804e-01 -4.055018815513920100e-02
1.539139184723582188e-01 5.953712963299367944e-01 2.274247387336365001e-01
1.217377633062764475e-01 6.447454470279306848e-01 1.567715046138666579e-01
