2.441380870749644272e-01 6.326207807653463355e-01 9.503870107997931110e-03
4.634107087064843200e-01 1.843782763552767601e-01 3.794223583266919664e-01
-2.519294535021046055e-01 2.421642051687999120e-01 -9.673454316828298261e-01
3.650876577108764787e-01 -4.779508127819305230e-01 1.275129534323244662e-01
-9.413265344280880020e-02 3.566732902910905167e-01 -6.575801745958675948e-01
1.705592023899147602e-01 4.802984457549155373e-01 -1.447950427864095613e-01
2.427691578508957559e-01 3.847469691762102524e-03 -5.574586201809263869e-02
2.365158728198445970e-01 -3.985728909759940763e-01 -1.076730960898773515e-01
4.441202637963339583e-01 9.954331749596562195e-02 3.344946601699781419e-01
-1.440105360843417504e-01 -1.797645666593985503e-01 -8.053461747658496872e-01
-6.662949197049297667e-02 -5.070779242963808775e-01 -6.916572251191009935e-01
1.956315560794506803e-01 -5.936864828780100689e-01 -2.044193186555172403e-01
5.277361772187220135e-01 -1.611561571747020527e-01 4.666106796122842515e-01
-1.675674311114364878e-01 1.189270186944541563e-01 -8.201196801122464519e-01
1.757572620714470124e-01 2.694605228190080082e-01 -1.559782310115735704e-01
4.070205536072357688e-01 8.299096641099631411e-01 3.371343871162674199e-01
-9.360527193739746898e-02 -3.953814944834975198e-01 -7.315302821025454483e-01
2.323303753694788976e-01 -5.964229329211307995e-01 -1.353038787478289262e-01
4.142795104378629856e-01 5.205970691607927914e-02 2.733413184676292684e-01
9.462584160672102285e-02 -6.194690328567697968e-01 -3.979648702839971297e-01
2.783945243586631868e-01 -1.082598311490242243e-01 4.404199859965498686e-04
1.497400947460457432e-01 -7.923036519468750205e-01 -3.109819344934354191e-01
2.868210089280770481e-01 7.564591625905437988e-01 1.025477502145409475e-01
3.596662778805773675e-01 8.584005686117904821e-01 2.504387880683663359e-01
2.331869530069894392e-01 -5.551414423255949249e-01 -1.295703334232236881e-01
1.564180982283277588e-03 -1.402601821824126516e-01 -5.261644884102734121e-01
2.824812481070590464e-01 2.657138372447181429e-01 4.543633527151124535e-02
1.800772683704630617e-01 -4.453674780302586678e-01 -2.190475522516460993e-01
3.669182672995293659e-01 -5.066547405772681145e-01 1.281136342051789334e-01
-3.244662692296866602e-02 3.281324567246960977e-01 -5.437918510037353936e-01
1.957694533400182457e-01 3.496853361480570938e-02 -1.415089441152759808e-01
5.867164681246643809e-01 -2.778563974482341561e-02 5.914186854573533214e-01
3.050011464762419910e-01 -3.795491754385289518e-01 2.371099982932385261e-02
-5.806906209133057273e-02 2.141555644024170368e-01 -6.035959214687157681e-01
4.575649371508516694e-01 -1.335500539189259095e-01 3.366858204697368850e-01
4.934681650396283148e-01 -1.833225562182052570e-01 3.996095442620103411e-01
3.773684384911237255e-01 -5.076656585954020251e-01 1.477715087633531266e-01
8.702609707412896356e-02 -5.108323771230148802e-01 -4.015076928150315694e-01
-1.149629139171125525e-01 2.597482533351546108e-01 -7.066241293968729131e-01
3.000315024316293488e-01 -8.851728349395868167e-02 4.331792539923232099e-02
-1.388596398615647987e-01 -7.115484637980866445e-02 -7.847834587466205880e-01
-1.249158065730565231e-01 -3.605459483817403249e-02 -7.549212388188016876e-01
1.488021574544547698e-01 6.729629577275507701e-01 -1.667317905386330179e-01
-1.041830075282659251e-01 1.829353852940119110e-02 -7.103046299226342120e-01
6.002361122153838241e-02 -5.325142511850857741e-01 -4.547232772849094662e-01
3.989256526909431000e-01 -2.998928701092595239e-01 2.092366627294263148e-01
1.233644356880554543e-01 -3.437836667223144738e-01 -3.161536119076141516e-01
-4.002485075171744594e-02 -2.869063759728110452e-01 -6.194130500399157579e-01
3.407525507136147797e-02 -5.839534306665060681e-01 -5.089112832845592571e-01
4.210921448650077337e-01 1.695192579801596822e-01 2.979279037182309686e-01
1.247956981158920287e-01 -5.061396371127035998e-01 -3.296273084976747425e-01
3.539536390727047177e-01 1.829156386331617368e-01 1.723210815470513912e-01
5.222273178838918728e-01 3.105619405938369604e-01 5.032046659683897527e-01
3.379230212432810521e-01 5.718343299165290494e-01 1.807695847103792941e-01
2.596049939375357773e-01 2.821496586638602144e-01 3.821088206956523795e-03
4.450009440579398845e-01 -1.095230680533583190e-01 3.153249495910812605e-01
4.430725849132852723e-01 4.223608178238566491e-01 3.646846725231263631e-01
1.109203457847389579e-01 1.341779504409016943e-01 -2.920501767651503267e-01
-1.325212690018329718e-02 -3.984708753329479491e-01 -5.799107728463950284e-01
4.683324945942081707e-01 1.886344332036506422e-01 3.891523595308625239e-01
9.949119696035567395e-02 -5.485059988734420910e-01 -3.816937817320166793e-01
4.648144629651556614e-01 2.205833537202193384e-01 3.856845773730119831e-01
-6.161304039864622106e-02 -2.002024272085063672e-02 -6.336338580370056706e-01
-6.648990305253121846e-02 -4.694826988312262306e-01 -6.876466841313774170e-01
4.289673372499683834e-01 -4.234238008709292345e-01 2.537271799333817857e-01
1.194369489532131484e-01 -7.711542252583213075e-02 -2.970042308269911224e-01
1.606446800869572866e-01 -1.495019354267900502e-01 -2.263046750924551376e-01
-2.048813163339285315e-01 1.542061300120154410e-01 -8.871549612267323193e-01
7.851511672922233120e-02 2.545006885115513318e-01 -3.413292739421783795e-01
1.420542625048031860e-01 -8.688707491859638810e-02 -2.552144460118865310e-01
3.621336323358385623e-01 -1.892864009944544845e-01 1.506949667995364783e-01
1.276437999029845366e-02 -2.130663972610933043e-01 -5.122433797474543749e-01
2.999958432717683143e-01 4.751493460952605496e-01 9.942362464032007685e-02
2.629996175820166204e-01 -3.835850403949341292e-01 -5.610542313481691606e-02
4.369178921351972167e-01 -4.520910506200338796e-02 3.064512649743384998e-01
2.247072662839997015e-01 -4.786427610943744942e-02 -9.504972979408946032e-02
7.353249452803130304e-02 6.714342889204659437e-03 -3.754437011981175409e-01
-2.119291111562664545e-02 -3.914234711900940189e-01 -5.942224581313924059e-01
4.925673266606356293e-01 -2.556246270072372040e-01 3.907009063653073544e-01
3.927512009345641153e-01 -3.595908520594887081e-01 1.916130426270674647e-01
5.188697564037558774e-01 8.671558869870085728e-02 4.745485950557839505e-01
4.275448719890315857e-02 -7.345788460548202670e-01 -5.075118825652749077e-01
2.714310621403953627e-01 -4.496230671967919590e-01 -4.674483094441413134e-02
1.498264362116120962e-01 6.896675460224517273e-01 -1.631304164679851787e-01
1.656181030551313049e-01 2.361778466525621401e-01 -1.784656448727728328e-01
4.337368113660795554e-01 -1.262322435580534585e-01 2.923621556342405059e-01
3.263777341832097001e-01 3.649505944182800943e-01 1.383230418439737597e-01
2.975355741748529972e-02 5.004135805454915653e-01 -4.090181443241229231e-01
1.837040253061270612e-01 -2.342553068886094603e-01 -1.911515467621729414e-01
-1.507962951052016776e-01 4.903420552647282105e-02 -7.953750048314560672e-01
-1.470436233809321591e-01 -1.334871556781504209e-01 -8.064691211754920763e-01
3.929073426306515238e-01 -3.742874691344091342e-01 1.904436514544287085e-01
-2.172859580264868140e-01 4.351548553574678679e-02 -9.216400452986021063e-01
3.386855823695354428e-01 -4.976682690355993532e-01 7.562836000327882724e-02
1.501094308729183924e-02 -6.015168472935150668e-01 -5.467073657393195507e-01
3.222133009773122669e-01 2.921813643710459082e-02 9.699118820318362866e-02
-4.809262316786232228e-02 1.728279659621781150e-01 -5.888515791502539898e-01
3.938904824649809844e-01 -2.555372957046983876e-02 2.270561514390452840e-01
3.668499347520589038e-01 1.365798465572254893e-02 1.798370519869044171e-01
5.593129151090299178e-01 2.716027544628529800e-01 5.694415685817841855e-01
2.642666185345634022e-01 8.841615406421811374e-02 -6.671793663442577432e-03
1.019764175856169991e-01 -5.538729308020292619e-01 -3.775297112027484747e-01
3.899339015973968814e-01 -9.290123192297024268e-02 2.128636363296221856e-01
5.377964142663134162e-01 2.453839848020552827e-01 5.261464564916431552e-01
8.088791877291760801e-02 -8.265746128970615780e-01 -4.445792387231512488e-01
4.049917176903508609e-01 1.316956190185741560e-01 2.637167089172096079e-01
3.643310578564341040e-01 -3.989141416149365460e-01 1.339589442762075533e-01
-1.972425304746258101e-01 2.995626316657312715e-01 -8.582262171448009624e-01
3.490094597048459812e-02 -7.784176403611201556e-01 -5.267297610164828336e-01
5.596570578444415300e-01 6.311772566614946844e-02 5.493153378879118698e-01
-8.713609262569080305e-02 3.149324795788709386e-01 -6.485112041965150897e-01
5.612206431475980084e-01 -5.185087867333753459e-02 5.408142958610979711e-01
1.617690967013106773e-01 3.892055035607651647e-01 -1.704929162761371075e-01
4.287345348466624628e-01 7.280161593005107790e-01 3.680356458236722084e-01
5.249149222662788938e-01 -1.840534725451953291e-01 4.589945336458863268e-01
4.433825183594010122e-01 3.292180470088660882e-01 3.559883824837759003e-01
3.847097257276424487e-01 6.047704606645887271e-01 2.725136625678108993e-01
1.250463588065433840e-01 -6.054188619402673943e-01 -3.390472066420465169e-01
1.157361307673692719e-01 -1.852606709549925734e-01 -3.147789299128473384e-01
1.415072811100611949e-01 3.216349187826752498e-01 -2.155367201603123894e-01
6.147902148172646603e-02 2.353345828491589242e-01 -3.754502323425051857e-01
1.578692495389851999e-02 -5.565279667829461374e-01 -5.407567405278677075e-01
3.067625855575717431e-01 2.471182569500878778e-01 8.949300360184789249e-02
8.644215325010506934e-02 -7.819810228242437544e-01 -4.296335448770134957e-01
2.086347443661129841e-01 -4.708613129558262833e-01 -1.675932489942663917e-01
8.388752046604602830e-02 5.229837306805015240e-01 -3.044153056016024039e-01
3.838351627361481500e-01 -3.500354317853955899e-01 1.757073402443634635e-01
1.627141697265464260e-01 4.353504659801010201e-01 -1.641073713978805915e-01
5.034097048529334595e-01 -2.258948783389564952e-01 4.141638562498467513e-01
6.066050122004191802e-01 -2.323568799976320487e-01 6.086359881879639389e-01
6.286356151037014728e-01 -4.930968294396986112e-02 6.685321306135366681e-01
7.732800768890188414e-02 4.454767073422330470e-02 -3.644970076344303256e-01
1.949892855831829586e-01 4.240196582163989758e-01 -1.042125158093054060e-01
-8.105764458389681792e-02 -3.111655739350738248e-01 -6.994132304632372232e-01
3.887421913772154403e-02 1.037079490530703162e-02 -4.406093066107360512e-01
1.076678495936883931e-02 2.199306583538276627e-01 -4.728692934056197283e-01
7.535076939630498682e-02 6.030043496906228873e-01 -3.125815475159824386e-01
4.311347578673942471e-01 -7.415913516641169101e-02 2.926317643713574057e-01
-4.615404750729349553e-02 -9.757250195146940919e-02 -6.121334267347261493e-01
4.715407482210379891e-02 -9.036132650783547104e-01 -5.160387819449518965e-01
6.660917224323309460e-01 -1.682503889661336183e-01 7.274988842876620732e-01
1.976441451611192779e-01 1.027353282707169496e-01 -1.312109671054524362e-01
1.056716840690341136e-01 3.899428903837932614e-01 -2.764853886311440800e-01
3.027514138696048018e-01 -4.856677978522672690e-01 8.881901716572189812e-03
1.776671993394962346e-01 7.311409581026769855e-01 -1.063575044497066940e-01
2.220693431512948957e-02 4.745904486565408198e-01 -4.258603381994268688e-01
2.430051564829768251e-01 -3.344192250751951145e-01 -8.901017033742605888e-02
2.489034952360699993e-01 4.484392280764767924e-01 1.591320154447314384e-04
4.295813543257884781e-01 7.194969348262111319e-01 3.687877690805467235e-01
-8.214817879092369338e-03 3.307897038472879525e-01 -4.977108429661589173e-01
-1.047736662692197729e-01 5.690364300803436859e-02 -7.075736623347588239e-01
4.599013044633734615e-01 -2.115918438793471246e-01 3.333259151254590602e-01
9.111322033587276881e-02 -1.908800653757668220e-01 -3.618946089728807824e-01
-1.587115271544891348e-01 -1.294343433047519254e-01 -8.281262737601998714e-01
6.370317678066422795e-02 2.849101408245786060e-01 -3.663043861656096190e-01
3.961332248661162403e-01 3.116413871773927174e-02 2.369489197431952632e-01
-1.336001750294661117e-01 -2.025942342182798228e-01 -7.879379543038976808e-01
1.650471128023203171e-01 -4.151920221778739872e-01 -2.444585740829672282e-01
2.331083679367261241e-01 3.140213030865999372e-02 -7.126595692729886800e-02
8.858593002010460571e-02 -2.705719932789547033e-01 -3.746149026635084422e-01
1.170304880918771355e-03 2.439540366853650555e-01 -4.886197104738523866e-01
2.308758936050728239e-01 3.907237374522443685e-01 -3.967821523053781385e-02
-5.646484452112163904e-02 -2.602167421947857440e-01 -6.478371031044379835e-01
5.200796846636405180e-01 3.932972405635252189e-01 5.073891589715919803e-01
4.166644327164748668e-02 -7.608275567185864008e-02 -4.439455902876883187e-01
3.987402417079785599e-02 -8.057038336591921812e-01 -5.200461836705128071e-01
1.061315894115541503e-01 4.268624526817298426e-01 -2.719365449690769876e-01
1.200638748658187580e-02 -7.426542048257811501e-01 -5.664534918330160762e-01
2.410759074761696374e-01 5.026874027077187224e-01 -9.234657394313052978e-03
4.409354408743144105e-01 3.336714939455824314e-01 3.518053960999495966e-01
2.739845756630881687e-02 -5.922438980863578006e-01 -5.223616114933649079e-01
4.620694952739782813e-01 2.085205401234410116e-01 3.792924012685561785e-01
4.322406568232533552e-01 -3.629699248078631646e-01 2.659408258676636549e-01
4.395649881649867918e-01 -4.502115682130810453e-02 3.114749814612784440e-01
2.114739687553508773e-01 -6.665135332852696604e-02 -1.219427909653548331e-01
4.049449183187051604e-01 -2.950344302749134395e-01 2.211017408464380218e-01
4.722864734229350048e-01 4.247306845391939922e-01 4.201568879549240076e-01
1.333169965342416996e-01 -7.211489220843958492e-01 -3.349428003347870719e-01
8.763189885721970815e-03 2.270383090480345700e-01 -4.759492581745536910e-01
4.641693148769292510e-01 5.246043251706333788e-01 4.147624743241082323e-01
1.432630615897911332e-02 5.702474801197546239e-02 -4.823737984295024539e-01
1.880307709105763780e-01 8.004938504467676297e-02 -1.516482207443588248e-01
2.725010282065628009e-01 -5.120154893595566525e-01 -5.093961597132467406e-02
1.285608016026460187e-01 -7.660633821322659909e-01 -3.484115809353542370e-01
4.061739267555382615e-01 7.629652906218371555e-01 3.288621795514793944e-01
4.917786201631372256e-01 6.531061948612899848e-02 4.211929906269881174e-01
-1.732569929489406191e-01 -1.216593933936815225e-01 -8.548532294740827098e-01
4.694895655171822946e-01 -6.479461271562780844e-02 3.660841998695078536e-01
4.477891141423995247e-01 -2.023874377678118452e-01 3.113421200498054375e-01
3.564615503957712095e-01 -1.397252197794990880e-01 1.449096013603041466e-01
-8.424194528293964257e-02 3.040322550539672486e-01 -6.441253864580600563e-01
3.010942368100253397e-01 3.085744216509275217e-01 8.490011075303909027e-02
6.320716197031086558e-01 -2.254580614506605796e-01 6.574743872079688023e-01
5.886760966643277415e-01 1.734240616901951137e-01 6.151757277755021125e-01
-2.078709510721285791e-01 2.053251521817081038e-01 -8.877132511889964661e-01
9.915027698864929684e-02 -2.633403348216072914e-01 -3.539197232473805799e-01
4.663572645439311160e-01 2.588820350267884707e-01 3.924183411135007127e-01
3.305645558303760834e-01 -3.596248225278649291e-01 7.403050753354645241e-02
9.953863854097222408e-02 -7.308470274381161369e-01 -3.997755757584209868e-01
3.261386446503156816e-02 -5.709636792236018055e-01 -5.103798867433404496e-01
4.117526621164006584e-01 -4.566049236017226121e-01 2.178718828375878491e-01
2.992712785383316865e-01 8.576735826880118596e-01 1.361747364195190213e-01
1.385654324387088077e-01 -1.902146740370387890e-01 -2.721082186741539677e-01
2.190053198723374839e-01 -3.864754285218476859e-01 -1.395755113703793793e-01
1.738646293426928113e-01 7.196290430071873301e-01 -1.146944371770582533e-01
4.913635150692812759e-01 7.447984888258797620e-02 4.213219069175201947e-01
1.536702682631780059e-01 -3.266737597629971179e-01 -2.571478647503014359e-01
2.197056819590140209e-01 4.419352877378390221e-01 -5.569467711628034445e-02
2.345057905159017297e-01 5.376026785831740096e-01 -1.817754064159443628e-02
1.814476375807724251e-01 -6.041057848391669094e-02 -1.780930215110425041e-01
2.236061150626076910e-01 -2.366452226994920083e-01 -1.159450016361756874e-01
3.567209333103797952e-01 8.102846345721214094e-01 2.400748173857708834e-01
3.231298889826303422e-01 3.544912478764735697e-01 1.311398482433509538e-01
1.854751158674420308e-01 1.639211465438644016e-02 -1.628241848589360441e-01
5.070923317202442604e-01 -9.951732036104224410e-02 4.337211308586187419e-01
2.589539887338253021e-01 -7.874279953348649330e-02 -3.337512658743973376e-02
-1.742437095827528704e-01 8.281669396927880678e-02 -8.363414604283732068e-01
1.579644999342162404e-01 -5.012466736907417175e-01 -2.664259132594287705e-01
2.607142969468054794e-01 -2.454332067252941729e-01 -4.665863658181973461e-02
3.008012400958832155e-01 -1.588894093095271076e-01 3.776025428215788737e-02
3.434340327051673136e-01 7.214287895005563334e-01 2.060975885302579746e-01
2.602317268783843063e-01 -2.814267631122037150e-01 -5.115805084693058474e-02
2.604313181445599423e-01 4.367989846489446215e-01 2.079528939133854643e-02
2.693318138228757985e-01 5.965032258945268673e-01 5.353945375176662885e-02
1.020240676290092852e-01 4.628592386777433121e-01 -2.761155066017441095e-01
1.525326337409515232e-01 3.289381625596084491e-01 -1.939627621855296580e-01
2.432406097917916843e-01 6.571053319164130158e-02 -4.868940118417976193e-02
1.680278723996040668e-01 4.264596210039749979e-01 -1.549465411152470273e-01
3.310045162218474002e-01 -4.558845837943157897e-01 6.526943662813715352e-02
3.676864469012087189e-01 8.143773754091060413e-01 2.612156870041129619e-01
-5.452201624033680555e-02 -5.136514851611345689e-01 -6.694201629428744305e-01
1.968653776780009967e-01 -9.743827675851089720e-02 -1.526320472338932865e-01
7.546394329308500626e-02 -8.009352572644686807e-01 -4.522794665974093076e-01
1.459508364822657833e-01 4.809310677380213561e-01 -1.912601669064038779e-01
8.319990594115372895e-02 -1.297581259512146645e-01 -3.707654693789056433e-01
2.078662087035901551e-01 3.048793836853965211e-01 -9.173864438126189125e-02
4.721787408657944218e-01 3.992102430987747863e-01 4.174099116425839529e-01
6.116503542844720087e-01 4.106001108459712140e-02 6.454232568194485653e-01
3.830016582291563276e-01 -2.165560582744379958e-01 1.874335006425792705e-01
1.988709216081121708e-03 2.163189815259081161e-01 -4.898263324685321884e-01
-2.177868984055487955e-01 2.224316696995623510e-01 -9.047570107867978217e-01
-1.129740733118541340e-01 -2.726394384409834282e-01 -7.559197048524050055e-01
-5.302733236501157299e-02 -4.577891130406472331e-01 -6.610270391673623847e-01
2.055660342268251506e-01 5.697634629201652201e-01 -6.969023306114290051e-02
4.396051774447366084e-02 -7.908902400215443995e-01 -5.108433893938220116e-01
3.679350686138054827e-01 4.078529525287044044e-01 2.211729099742529570e-01
2.894236743783603627e-01 7.740395140961384701e-01 1.092207282099200427e-01
4.476355587633709665e-01 3.549197882165995854e-01 3.665911507001355374e-01
3.634934834828398853e-01 -4.405723574547563692e-01 1.282237861250423994e-01
-1.000149092324423145e-01 1.218257277680469264e-01 -6.921061448168349672e-01
5.085641538253272698e-01 1.326091198015399708e-01 4.596369133791577966e-01
5.169195215213083783e-01 4.256701080507744317e-01 5.046402643491705309e-01
4.912484479679702920e-01 4.234855360482916997e-01 4.558850779289547184e-01
-9.724814909199867852e-02 -1.567042966736787724e-01 -7.146322701967636748e-01
6.064607715182645381e-03 -1.034299940989373973e-01 -5.139849518754791013e-01
6.357064131046570310e-01 -5.442910284610269489e-02 6.813910293831599851e-01
4.310854875974153844e-01 -3.673186406042501795e-01 2.633233158900055715e-01
1.843318752632525925e-01 -5.788623382901834230e-02 -1.723880929824736230e-01
-1.980937437583278060e-01 -4.367637105854506319e-02 -8.940416905291610483e-01
1.232683894210481051e-01 5.323693765662949051e-01 -2.290207437170926619e-01
2.585261014037165683e-01 -5.637035079864688436e-01 -8.251370694794230021e-02
3.429825729107170429e-01 -2.517009797800995874e-01 1.082651509059750217e-01
5.460307187903893356e-01 3.369523708573602949e-01 5.508408322967506265e-01
5.291667325371837149e-01 8.654476879013858759e-02 4.940005380261968670e-01
-6.603044169733487956e-02 1.937904452444115799e-01 -6.206783873363392878e-01
4.717841464765121784e-01 -2.228176264130377338e-01 3.546746272285308255e-01
3.214594116807532043e-01 5.073318235884212157e-01 1.432129780205574077e-01
3.239849807568699613e-02 -8.403291333644271610e-01 -5.376311456225205676e-01
3.943787471415196033e-01 6.246960132152877820e-01 2.927810396012961447e-01
4.295050638145549438e-01 4.139635266707217265e-01 3.381950906339674656e-01
1.596529922028937232e-01 3.731172635905516399e-01 -1.760972322838816329e-01
-1.324031434639523219e-01 2.964881136883982804e-01 -7.359378024454987788e-01
3.377955831959903454e-01 -2.006897490933748640e-01 1.035414787017152338e-01
5.603149935599681664e-01 -2.213515422487922768e-01 5.222100761471077934e-01
2.474932077071974046e-01 2.160465703829543838e-01 -2.566683459632549541e-02
8.693252937618678455e-02 -5.177466873991860563e-01 -4.023736624855617783e-01
5.262382875223253764e-01 2.206744846095786694e-01 5.018305089934486096e-01
3.388923585993951493e-01 9.079863567086309262e-01 2.161021365107103909e-01
3.821886966261374141e-01 -2.120596174691403157e-01 1.863444969304152987e-01
4.024642166239958962e-01 5.070178931222425467e-01 2.963412026853746162e-01
-1.777078138628241932e-01 1.318225344620845840e-01 -8.380074443560414643e-01
4.251773343777754399e-01 -5.664585999307309577e-02 2.831131039486139422e-01
1.217162886399561217e-01 3.712985827546704809e-01 -2.480071459459008421e-01
4.663959119090979599e-01 -1.113706903635402687e-02 3.655822171673019927e-01
-4.137381339581764489e-02 2.601704773487626410e-01 -5.674437554317937060e-01
1.668776634302135409e-01 2.579050604031885019e-01 -1.739188750566988129e-01
5.279624816722885416e-01 2.744237222713111768e-01 5.104469905225477167e-01
5.395703689939321812e-01 -6.557164345667486349e-02 4.985117615766310184e-01
1.370387924981388839e-01 -3.043437893683991202e-01 -2.863684310284346224e-01
-1.312571499224943483e-01 3.832612649406222927e-01 -7.251234991716557499e-01
1.816478380169055662e-01 -1.999655295761423035e-01 -1.916220706800775275e-01
4.299621793772997469e-01 -4.635186165155315008e-01 2.516124591372929098e-01
4.006315105756216299e-01 6.533509779551395502e-02 2.488593983223457706e-01
4.997541274013188040e-01 3.398089088030613047e-01 4.636282257797130768e-01
2.852025748357112089e-01 -5.555533875727526327e-01 -3.126305823856885546e-02
7.781798254746108423e-02 4.742724224393259358e-01 -3.207456653137296110e-01
2.817658515160698443e-02 -6.389237451528200218e-01 -5.255423265375129827e-01
2.999870969013321842e-01 6.411884799270880508e-01 1.159539894465277526e-01
1.189865562041956398e-02 -6.094881639723910283e-01 -5.533863054057174269e-01
1.702052662906320957e-01 4.769271102171963594e-01 -1.458002220136151161e-01
1.954205056019737707e-01 -4.179150809303131542e-01 -1.873015744005703809e-01
6.974248017891295382e-04 -5.611452150446801790e-01 -5.697472918366457417e-01
4.567491255420735308e-01 -6.888006036302407598e-02 3.415881221266263701e-01
1.326733215408218980e-01 -1.025596178183881407e-01 -2.745132954444501339e-01
4.594330872182149361e-02 -1.051027451522562328e-01 -4.387511587052634332e-01
3.274445803485950268e-01 3.655292759942023739e-01 1.403978464112607683e-01
1.266246733366828414e-01 -3.170898222263860977e-01 -3.073291118384124943e-01
5.865455408254747205e-01 1.769225767248020220e-01 6.114960381207138473e-01
4.481730232475059084e-01 5.906118723877544774e-01 3.910956403946265758e-01
1.761388179898787099e-01 -3.429345705708788383e-01 -2.162860422558700035e-01
4.100359319890103937e-02 -2.451569859830995401e-01 -4.620482408873867741e-01
3.136399704512616293e-01 -5.201167341805733590e-01 2.603633118229691998e-02
4.710644059558615204e-01 -1.543479891078259336e-01 3.601372346341475406e-01
3.497913954483325982e-01 6.504816050806019323e-01 2.110473887035776153e-01
-8.435059709514541870e-02 -5.794688012639874486e-02 -6.804044433291119853e-01
1.022269683816678931e-01 -5.848402628122858493e-01 -3.801420835082093275e-01
3.139206820359261574e-01 3.178792535932380425e-01 1.100789488737009963e-01
-9.193453825321455664e-02 3.733060074321465360e-01 -6.517665364381449722e-01
1.036816058444126332e-01 -1.523465128923004175e-01 -3.342908601846188432e-01
1.690758904994609790e-01 -6.693497975285112034e-01 -2.621696884092591384e-01
4.165602547806128708e-01 7.564880359084326378e-02 2.800044367670158629e-01
-5.064669994215423299e-02 -3.619791229652585818e-02 -6.145115059926066214e-01
5.584699665868662066e-01 -2.849204447239238602e-01 5.123865356539889504e-01
-8.693583407286714637e-02 3.884182465010062590e-01 -6.408092216172374123e-01
3.412202500066687794e-01 7.522105494442437035e-01 2.049794945051161277e-01
4.265980550401119453e-01 -8.572956005763508747e-02 2.829009420508646344e-01
-1.349258720164721592e-01 -1.311597106777039889e-01 -7.833255860593245634e-01
2.061584555578081790e-01 -2.831951942421657709e-01 -1.535731075329762885e-01
1.635256536074507494e-01 -4.792233734119206723e-01 -2.537164161865745338e-01
6.695679774978932630e-02 -1.671513343770261451e-01 -4.052035424793775098e-01
-7.198368713787539619e-02 -2.941241026850274221e-01 -6.805583860874913071e-01
5.287961094689187097e-02 -5.810551417810143858e-03 -4.157412468275500372e-01
9.944090946932687691e-02 5.906857281950986804e-01 -2.682608442447665387e-01
-9.273230988774795736e-02 -4.190750264101949507e-01 -7.322409503607170134e-01
1.420705086780597350e-02 -6.320566638553328787e-01 -5.512708171929361356e-01
6.425627865694651109e-02 -7.399866347966227442e-01 -4.673963786893651773e-01
-1.746724013104075934e-01 9.506087636235176219e-02 -8.359317935313652637e-01
1.863974692059792160e-01 -4.569433297684653561e-01 -2.082512683556599353e-01
2.588377990424183817e-01 3.902592119059018483e-01 1.314435222523442116e-02
2.378708223178594428e-01 4.319036825242139610e-01 -2.234872692564749200e-02
2.605121591457331132e-01 -2.899900887941883609e-01 -5.148121691625211216e-02
3.171538859500991903e-01 -4.748664973113742027e-01 3.718973931931138233e-02
3.634399157878175912e-01 -5.237848032632562711e-01 1.198298305729959545e-01
1.496507988209710149e-01 -7.229084353432231325e-01 -3.042350763766153987e-01
3.308970596972722888e-01 -6.556829050917850621e-02 1.039638734556886102e-01
6.099691474897352972e-01 -1.297470428185539537e-01 6.252224649591010541e-01
1.699868739563423770e-01 -7.062409237752846902e-01 -2.641236957331843382e-01
-2.212866659910948663e-01 2.339999959115090788e-01 -9.102213218008616824e-01
-6.582178492034997108e-02 -4.250026056174326383e-01 -6.819507058748064399e-01
-8.079711094272146177e-02 7.521900161290075160e-02 -6.604148394803485145e-01
4.459745532903683918e-01 3.196033760918065569e-01 3.599310963432889587e-01
1.512200370236697206e-02 -2.680897232373308237e-01 -5.132691518907848138e-01
3.427680973865099290e-01 9.259025516892069874e-01 2.252156418414257566e-01
-1.303811679664914069e-01 3.156877039046272482e-01 -7.302013937612763517e-01
4.915665609526769231e-01 2.620701524653883119e-02 4.168951067659522614e-01
3.132764579262237725e-01 -3.148430471137333431e-01 4.580590700162501250e-02
3.968751885674328683e-01 3.607032155764478554e-01 2.711925413557596531e-01
1.067303986007807765e-01 -5.980003278701976344e-01 -3.729387287399444362e-01
4.430662670651558943e-01 -2.819600016022804634e-01 2.944824816438191273e-01
3.345775913511856436e-01 -1.790657689592400903e-01 9.961204670870771327e-02
-1.309839501008801810e-01 9.376303003553322635e-02 -7.534573687065386771e-01
3.791712861535434520e-01 -5.246539003053565242e-01 1.494872446809565047e-01
2.414056879143678114e-01 6.114521454025183544e-01 2.228002312464352763e-03
2.032405362096481316e-01 7.035654550507786098e-01 -6.075290231856341622e-02
5.687850015235972334e-01 -1.292705391283493210e-01 5.474011929784594610e-01
2.585437948286128940e-01 8.773225038361318409e-03 -2.542914622627021407e-02
3.196181028596439821e-02 9.820302390056599370e-03 -4.537337761453013041e-01
3.907916945781007567e-01 6.090998905314530532e-02 2.298138142434978937e-01
-3.865553510958455452e-02 -3.434189570400296154e-01 -6.224558758574946227e-01
3.254002797283215842e-01 -3.143043878346151176e-01 6.878265540104946951e-02
2.652953696315023535e-01 -4.780776332583197008e-01 -6.118155334600665352e-02
-9.364743886224670411e-02 -1.544076160374328877e-01 -7.075953623050934560e-01
5.457132050261560841e-02 -2.378407075419410391e-02 -4.143338342956878750e-01
-5.218014069075481431e-02 2.129901030294884534e-01 -5.925776129224613609e-01
3.770113258898051267e-01 5.967333446640459282e-01 2.571569919982654717e-01
2.150594424534409480e-02 -1.844696260132009935e-01 -4.928654441068372472e-01
9.568241295247284506e-02 -8.440033016463672766e-01 -4.183434927528895120e-01
-4.046957352312526013e-02 -3.160369370358072638e-01 -6.231569616346356311e-01
2.195324298217974646e-01 -6.622152168070103428e-01 -1.660581808059045095e-01
1.486551211583544141e-01 -4.557235398186514908e-01 -2.794909013216376192e-01
-1.354709817841113773e-01 2.666799514293123341e-01 -7.447088866965214660e-01
4.496587165755931426e-01 -3.150639897412678136e-01 3.036480969182675516e-01
-6.301867987912833369e-02 -3.593354666519218421e-01 -6.701065799227793329e-01
3.394278863845021088e-01 -4.432623948852197904e-01 8.245377488471350436e-02
2.631559696266445592e-01 -1.674748692641664649e-01 -3.427298788913497873e-02
2.524192381722084599e-01 6.505308136473968439e-01 2.694627699363032550e-02
-7.868260756221602537e-02 3.925963631355749994e-01 -6.247880896478499313e-01
9.775062118543738354e-02 -6.521843912547128363e-01 -3.953170084854544242e-01
5.328795734902057601e-01 -3.499125354860389558e-01 4.575247092785832970e-01
-6.387333865194665290e-03 3.321746552179450362e-01 -4.941175153011756471e-01
3.833569387982027066e-01 -4.085013465085947648e-01 1.689766237124629977e-01
5.451060358208332790e-01 -1.772022255818726799e-01 4.978535728269107841e-01
4.350886365815473389e-01 2.860555740313776574e-01 3.360053318158747748e-01
-9.761328255543319510e-02 -3.488725575608734968e-03 -7.000536960149195131e-01
5.237118618979204054e-01 -2.242395952716445262e-01 4.527150381681475655e-01
1.057712423830923371e-01 -4.032298096686758870e-01 -3.553420743473721943e-01
4.256005607610363062e-01 1.161117643731042620e-01 3.011297616894297868e-01
3.124212215745739152e-01 5.080458082648935808e-02 8.062808585196386268e-02
1.964206723839072022e-01 2.415224627585500217e-01 -1.196931840314328366e-01
5.598707250149635994e-01 -2.666580832811785706e-01 5.168549795876438147e-01
2.564213874055504272e-01 -3.004063850223210319e-01 -6.025388023988555858e-02
5.170172653849659516e-01 5.740120388270258944e-02 4.681246320385680781e-01
-2.060456668245660150e-01 2.371654777291719307e-01 -8.810890025024497030e-01
1.516194155712472652e-03 -1.983537816390573694e-01 -5.320446321621380426e-01
2.633845782811264913e-01 -5.827236702944843527e-01 -7.522304672952830062e-02
5.377951562849014183e-02 -5.279778368162956204e-01 -4.660771921656707839e-01
9.858977795483332696e-02 -4.931137143571399095e-01 -3.778779272147880230e-01
2.461339078407253356e-01 -6.435414249251347751e-01 -1.139005756475302139e-01
2.762229154529159958e-01 -3.203941590982082310e-01 -2.480613491626691702e-02
3.057994766419016575e-01 -7.539614683716157340e-02 5.553130786887219839e-02
3.209245721054574396e-01 2.094322159063780331e-01 1.125140586667222331e-01
1.731080241850763979e-01 2.100693774293009297e-01 -1.669059888336550945e-01
4.769325544817665241e-01 3.988054772189074115e-01 4.263578280555620492e-01
-3.736019151043085736e-03 -3.299747722033449238e-01 -5.550921389002551054e-01
3.456014302619636047e-01 -4.403538503968980611e-01 9.441623396730332296e-02
-7.136835910623501311e-02 -2.897205461772331958e-01 -6.789561134407212650e-01
-4.817783057225634435e-02 -4.821617799453990494e-01 -6.542867611710062592e-01
-8.731346229648745405e-02 -2.106250680050581747e-01 -7.012218638276591642e-01
5.078152572444551982e-01 3.077389353383440107e-01 4.756737889270353792e-01
6.540499656971094922e-01 -3.853908862254989964e-02 7.176575732514929307e-01
-1.931014973020390990e-02 3.377671741404752754e-03 -5.513180797352842388e-01
5.888741286394364449e-01 1.117491636501521113e-01 6.094038429067613061e-01
4.366321497296312137e-01 6.341416714228812479e-01 3.736128135530226158e-01
1.704753069207901872e-01 -7.425125591498696886e-01 -2.668149023271913500e-01
-1.149550119737555720e-01 6.156079259140793264e-02 -7.263598850001937723e-01
-6.362646085134194412e-03 4.076821808769296451e-01 -4.865460107760485320e-01
1.942180574783386737e-01 5.834560423815370322e-01 -8.978181812100777259e-02
3.957119805858655415e-01 4.068472602804523164e-01 2.735917709233202100e-01
3.170794469621366907e-01 5.737923243920769467e-01 1.415548074198418327e-01
-2.967926840959526219e-02 4.109895288772320021e-01 -5.303022216948403145e-01
3.079132140517613636e-01 -5.398101304429010483e-01 1.324591182201280068e-02
4.175873202207331381e-01 -9.164353616313145046e-02 2.652745643660684993e-01
4.657180263440608425e-01 -1.308338003037338160e-01 3.523719338532085854e-01
-4.383240755460806048e-01 8.059956801238948865e-02 -3.051989923535131655e-01
-5.414754853129122303e-01 2.384056178214613575e-01 -4.845056859906093361e-01
-3.667505532973162063e-01 -9.076513577008533673e-01 -2.683574077985887985e-01
-1.103195609498260898e-01 2.487271819194602496e-01 3.317292603976388365e-01
-1.968587339241223422e-01 2.837746518930951700e-02 1.461463542206358213e-01
-3.494203682928329613e-01 1.519623368926340846e-02 -1.436225410435272021e-01
-2.973462229213538754e-01 5.367930059592478098e-02 -4.132846653162247641e-02
-4.800497336366569834e-01 -4.017569655498112180e-01 -4.321616437585062420e-01
-4.404950598911069326e-01 -1.166845830687092134e-01 -3.289644476592653022e-01
-5.626402666025687171e-02 -3.118973616485051781e-01 3.780645873742970453e-01
-2.264137502898622423e-01 6.601837125376562865e-01 1.532290125376862822e-01
-1.381331172952725284e-01 -6.420828075221488573e-01 1.903657610658322508e-01
2.228376251195660074e-01 -6.926691818890962082e-02 9.299546500420214912e-01
-6.718379869785473524e-01 1.283366770812780500e-01 -7.419571636036352835e-01
-5.766281900390293202e-01 -2.022243675655655548e-01 -5.948822246594428487e-01
-2.062461261682067282e-01 1.305597229220792355e-01 1.385803203422822372e-01
-2.389011762202748190e-01 -2.398954847488259934e-01 3.991959469572231578e-02
-6.018970627694779640e-01 8.258233694765725053e-02 -6.142763655326393124e-01
-3.593013414344711220e-01 -8.150696759843029104e-01 -2.450464611529564463e-01
-3.067830483911261896e-01 -1.634151185647102211e-01 -8.080600651890061659e-02
-1.729214238499386658e-01 -6.561129878530483905e-01 1.231917094212516411e-01
-3.956166315542724576e-01 3.833068324958654460e-01 -1.942832754971480780e-01
-2.727893020263260637e-01 3.488229863915243700e-01 3.451546077870504964e-02
-5.792638868137595098e-01 -1.897219457441101098e-01 -5.986197084263132906e-01
-4.866817644154161071e-01 3.497267744634203757e-01 -3.698107857723644254e-01
-7.885744479958615993e-02 -5.690963311963415094e-01 3.097145878987097589e-01
-2.106302441578881413e-01 1.394732651952168279e-01 1.311793605061712664e-01
-4.005226587435984920e-01 -4.825920959271458588e-01 -2.898519033843427462e-01
-5.923648190768316946e-01 1.251172149536371181e-01 -5.920144310485198069e-01
2.267346571410822631e-01 -5.593193574848824567e-02 9.386518672273030939e-01
-3.308904859699853818e-01 -4.347677851163295748e-01 -1.534291420435062447e-01
8.697057996824662796e-02 3.067109638427193419e-01 7.105332715302979940e-01
9.418496223585583194e-02 2.999940605252466863e-01 7.235044518484153864e-01
-4.945626870875750869e-02 -3.657360984191211917e-01 3.855709408667703508e-01
7.802701667391062981e-03 -2.057516429742329844e-01 5.097766224320742223e-01
-3.755617851666716300e-02 -2.576691821237808711e-01 4.188405742822261524e-01
-4.106718345970751700e-03 -3.125808079026706210e-01 4.766126988352615279e-01
1.820916206961156469e-01 4.172002097685277577e-02 8.639748909664196619e-01
-3.415003255709219698e-01 4.701653606605221136e-01 -8.330705813765461321e-02
-5.815695225296839688e-01 2.902391906560602974e-01 -5.551477663427546450e-01
1.603698751297036040e-01 1.066361810836159302e-01 8.293739140076493710e-01
-2.933412378912669261e-01 -8.432741398187411086e-01 -1.231434221015094421e-01
-1.771871782895022840e-01 -3.536766698651731544e-01 1.452660382034197950e-01
-3.980170294926200225e-01 -5.795875544886993636e-01 -2.947806363015358366e-01
-3.908920893413896924e-01 3.321023058699256181e-01 -1.904532372750360469e-01
1.984977490668689559e-01 2.525098560105486570e-02 8.933534636466354817e-01
1.625383780915263809e-01 -2.637394990407606055e-01 7.965636069428069233e-01
-2.396077945051168778e-01 6.955526563371040583e-01 1.318071764315142946e-01
-3.159168180705395068e-01 -1.249268037938055242e-01 -9.424002881213500160e-02
9.230841392788700916e-02 3.607084916955378695e-01 7.260069717959137803e-01
7.976018210104217354e-02 -4.094731752153479842e-01 6.255277367024423274e-01
1.829508828482963867e-01 -1.625062043209754281e-01 8.452470382845190811e-01
-1.414711443333973306e-01 -1.461226810212238603e-01 2.334801189754452944e-01
-6.092419962480413731e-02 9.263754728670218208e-01 4.926554925266049545e-01
-4.035345387240129034e-01 4.322749941719215561e-01 -2.043740243120877598e-01
-3.778993405671323691e-01 3.972218471454815880e-01 -1.593976550652054514e-01
-3.123349018819673861e-01 -2.015957261191687611e-01 -9.510810224280998038e-02
-1.177478354956228296e-01 -5.271918482315510746e-01 2.403587976542743976e-01
-4.806719798495160539e-02 -2.018551384275493188e-01 4.045291463846059643e-01
6.072985282327585110e-02 1.522148894155440080e-01 6.455221624997889984e-01
-4.896940149081515092e-01 3.108826235406836891e-01 -3.793772638193161906e-01
1.873049653459310238e-01 -5.246096879344502861e-02 8.644462405745173550e-01
-4.381761211279004004e-02 3.881473635516071718e-01 4.713616999954406417e-01
3.198130565019439986e-02 3.225263111289617401e-01 6.081386261048536968e-01
-1.753496953221782007e-01 3.400144682843475596e-01 2.178711788778889547e-01
1.522447249630935473e-01 1.770721446249305941e-01 8.210307303021840974e-01
4.345154736391020067e-02 5.622439347663265030e-01 6.537153922112819426e-01
-3.082724335462052601e-01 -7.698639773127008423e-01 -1.440587103335495556e-01
-1.517134233331588755e-01 -6.787146094840924571e-01 1.610382496616031001e-01
-4.600163104778136058e-01 -1.391761867205039138e-01 -3.681156114973199167e-01
5.407609226866786495e-02 -3.642411938715290343e-01 5.814733141302904640e-01
-6.557041434030144722e-02 7.541461996969132942e-02 3.990667824274180542e-01
-6.638166503777602756e-01 1.638635490904105929e-01 -7.232503649626944586e-01
-1.237267840761194504e-01 7.550577980219321805e-01 3.568388143409549351e-01
-4.384897823795252392e-01 3.000173600701413687e-02 -3.105547117473296259e-01
-4.454969562880858325e-01 -4.428097465569801883e-01 -3.709223007921223503e-01
-4.201389259233433149e-02 -4.720245463693090726e-01 3.890502341910532236e-01
-4.907900374555444478e-01 2.016082747993909463e-01 -3.923394783452131551e-01
-1.854921913501786090e-01 -7.009333631867957770e-01 9.495693325835344312e-02
-2.227839898298777099e-01 -3.313969974595543655e-01 6.127436700110214934e-02
-4.983322729860203415e-01 1.989808420403703371e-01 -4.068617710289100242e-01
7.010673793632088424e-02 -3.705937385600494016e-01 6.111501198535945756e-01
-2.223347173294069334e-01 -5.650713941688920855e-02 8.951842644506183277e-02
-1.896358411354135132e-01 -3.904272128997008928e-01 1.180663432876021962e-01
-5.360682863094320405e-01 1.823069430246829770e-01 -4.798726515368175738e-01
-1.107121377998215445e-01 6.733804443907094317e-01 3.733065140463020515e-01
-9.117841099955863171e-02 6.996896343101476345e-01 4.128617150504743649e-01
-2.147166115580161419e-02 -6.516851426490975763e-02 4.684362804512948175e-01
-3.027214652637512105e-01 -3.884117956963963891e-01 -9.554899708018686766e-02
3.984756251046309150e-02 6.183161682096981471e-01 6.524891426199808109e-01
-4.121754574868238125e-02 1.484124099521514917e-01 4.523865853851797292e-01
-7.639881094485223567e-02 1.316884187079801483e-01 3.842010926249762037e-01
-4.559097827158181682e-01 3.413043492415632207e-02 -3.430800552302402662e-01
1.659480172643515439e-01 -5.923467964425911669e-02 8.233906314277067429e-01
-1.426158441012863598e-01 4.546513509411476139e-01 2.911869031284060605e-01
-2.132599762458294024e-01 7.050475463568258716e-01 1.825704369105650982e-01
3.061541326261128879e-03 3.817041087981174474e-01 5.593561581496899748e-01
2.159435743383057160e-01 -9.763576203782640961e-02 9.140926075673855289e-01
-3.161524463241116023e-01 2.031764413253957513e-01 -6.198787543065537031e-02
-3.312206627234048906e-02 -3.578291671242440075e-01 4.172427467788000777e-01
2.381857676108497524e-01 -1.506797733720431909e-01 9.508607573791287848e-01
-2.337715847217303466e-01 -5.409002094723507348e-01 1.962123013944814046e-02
-1.925213037733429222e-01 2.307383424009585293e-01 1.745139377026827532e-01
6.636501568632083292e-02 -2.417764044014237002e-01 6.169129760518949901e-01
-5.066845203933552089e-01 -1.985803856799747136e-01 -4.622733649351464802e-01
-4.522108776925222173e-01 -5.816510801620554671e-01 -3.974530813686548703e-01
-3.505966569055466442e-01 -1.232717834195126705e-01 -1.596458611713117981e-01
-6.326053517729087750e-01 4.526233802622013636e-02 -6.760571253997903485e-01
-2.865140232588088420e-02 -1.293493142742381530e-01 4.484651708439494344e-01
-4.028691217640907873e-01 1.812502770252870654e-01 -2.281321694075318651e-01
-1.219698037297330673e-01 6.072184545683174672e-01 3.454276458443101272e-01
-1.766152295223498980e-01 -2.370819448681564263e-03 1.813574082495886530e-01
-4.357353185707139587e-01 2.876120852010572437e-01 -2.796741388568681486e-01
3.130992757559972629e-03 1.998582414073380720e-01 5.413653252583574549e-01
-3.675194432869272609e-01 -4.941678860751982372e-01 -2.286048105194207203e-01
-1.469192951655322321e-01 -2.636071179394035568e-01 2.114709455666348714e-01
-4.727649724940714560e-01 -1.061126320405139239e-01 -3.889250903283563710e-01
-1.931276637392193851e-01 1.000899234578688929e-01 1.603474827463124419e-01
-4.517373387341258040e-01 4.139334792219146464e-01 -2.973411287492303545e-01
-6.532088733237610689e-02 8.050433709828176410e-01 4.722509234442602843e-01
-4.055915988243604109e-01 4.101556385667415316e-01 -2.104677430729106624e-01
-6.548315531605647388e-01 9.578228818283344992e-02 -7.130465780721914060e-01
-2.161254534801263505e-01 7.044362307416218716e-01 1.770916256679628265e-01
-3.265062079429071895e-01 -8.136193904663647780e-01 -1.828946635122681297e-01
-1.863456564118292635e-01 4.190168305877408628e-01 2.049537194450556932e-01
-6.181940311523123621e-02 8.857627656995754606e-01 4.869155642340459167e-01
1.897837952853037857e-01 1.552146210317435597e-02 8.759079788903294528e-01
2.834712324182303220e-02 -2.677457163168758258e-01 5.424427841218588675e-01
-4.115929460909967808e-01 -1.435236067526359516e-01 -2.769925788460199101e-01
-5.443235294599170215e-01 -2.228495263785137404e-01 -5.358577512898962114e-01
-9.486561518125505299e-02 2.993442589654887742e-01 3.659930741110326569e-01
-6.875117515023893011e-02 6.961568375946044496e-01 4.549138545988374860e-01
-4.678530727700234287e-02 -4.920823515344368571e-01 3.780298075784740974e-01
3.705767680573816142e-02 -8.876859083079303991e-02 5.767484870531550678e-01
6.350461861769571281e-02 4.311453425651046167e-02 6.398959651154491057e-01
-1.954888498294328480e-01 -6.481962607776681207e-01 8.131139371073906053e-02
-1.944837145576113480e-01 7.050160360569023288e-01 2.180684381484453704e-01
1.925408747286885477e-02 6.698550662758898655e-01 6.186883056664329583e-01
-3.382343669488888094e-01 3.974046687437352565e-01 -8.438304596370392596e-02
-2.457916841688440324e-01 -2.906238596294543619e-01 2.183597511216186365e-02
-5.633132961074579503e-01 -2.373754022062233848e-01 -5.732101763427386310e-01
-3.760495771052470015e-01 -5.461325203810954987e-01 -2.499117475962071844e-01
-4.103882269244292780e-01 -6.503863030503400644e-01 -3.252269935132028333e-01
-1.026761053235800553e-01 -5.849447437717285592e-01 2.631001515577542360e-01
-2.625763906050853080e-01 6.545340878154602693e-02 2.558582245416235468e-02
-3.794587569559426665e-01 -8.883744990616195825e-01 -2.904643259385268350e-01
8.074044116640255453e-02 4.907775358054414228e-01 7.170971174483289357e-01
9.514067422966532295e-02 1.154187713687340328e-01 7.069173075608076173e-01
-1.784076024272774064e-01 5.370346563291281683e-01 2.317238229859654164e-01
-4.657513708020376564e-01 -3.158287270997097163e-01 -3.965637521865126303e-01
-1.284600513543680302e-02 1.097956804852176088e-01 5.021815485042715466e-01
-6.253723890245941330e-01 -8.896438028426670308e-03 -6.677787116831452874e-01
5.541423104162607888e-02 4.443112233326778071e-01 6.645810107606889838e-01
-4.894248897237016838e-01 4.120921320419113631e-01 -3.687822170345413375e-01
-1.754841171366956498e-01 -4.557928574137027899e-01 1.383095382363044301e-01
-4.621128206572029384e-01 -2.631033065375679159e-01 -3.844297399121333059e-01
-1.731324789238551376e-01 -4.964009534821897107e-01 1.387090223930780020e-01
-1.936359942997278316e-01 3.520621470854662927e-01 1.844970636321920099e-01
-3.070152292204021971e-01 3.426005126283865332e-01 -3.081718455382009142e-02
-1.393670354803067390e-01 -3.422256242633603951e-01 2.179154941833380543e-01
-4.377598731832714196e-01 1.848545883977455173e-01 -2.937425241002283305e-01
-2.840980135678962126e-01 -7.224742270180186665e-01 -9.362831953447470212e-02
-4.212587145999951432e-01 -5.511182322056108474e-01 -3.358876021976223147e-01
-3.853598510173238956e-01 2.986055677804339004e-01 -1.833313521871089424e-01
-1.498141947083742043e-01 2.271151656317017264e-01 2.549011591894876361e-01
-7.221644399381448032e-02 -4.469397981302273837e-01 3.344447430067455929e-01
-5.112969087586486383e-01 -6.312910185608974767e-02 -4.574956000758733654e-01
-5.034389334123222648e-01 1.796844861719214814e-01 -4.184401787048809829e-01
-5.436418855507212378e-01 -3.157774200733980130e-03 -5.126751942305910470e-01
-5.270925975420607257e-01 9.407070902245416588e-02 -4.716952305068524143e-01
-3.274128855001415817e-01 5.455975429867671034e-01 -4.915396960802800169e-02
9.998639924709798454e-02 -3.639308097490966398e-01 6.683089746759501848e-01
-3.210122560072545261e-01 -6.386779653208315422e-01 -1.550729215339579636e-01
-1.125165445294992739e-01 1.095075438153630537e-01 3.137011613345754846e-01
-3.513998472407953155e-01 4.329793159328460539e-01 -1.057303752380326783e-01
-5.471595268110510668e-01 8.642517786475201191e-02 -5.103986244412160866e-01
5.959554114997792085e-02 -2.606417593893503581e-01 6.022335613683301725e-01
-3.745411683676617698e-01 -5.108018151549975627e-01 -2.435387905021336452e-01
-1.641073853615634681e-01 -3.775696905738094578e-01 1.676155060677822495e-01
-4.943397955847492198e-01 3.456979169156322862e-01 -3.846916798794534076e-01
-4.273055108895776333e-01 -6.486641000425561465e-01 -3.570416513278707460e-01
-3.843386622889050780e-02 -2.872890358722341997e-01 4.142292746985283269e-01
-1.711795625875491556e-01 -3.081123908201204298e-01 1.611656963813201948e-01
1.341564055456258286e-01 -2.078864574178287961e-03 7.689767255446002814e-01
-1.750789610597167367e-01 -3.529288494860661762e-01 1.493266667368868816e-01
-4.961956695836558517e-01 1.421523423659869778e-01 -4.084853339790177063e-01
-5.634938853511074486e-01 -1.186677584560549975e-01 -5.617216199659438303e-01
-2.279770397910287627e-01 -4.398716027412816199e-01 4.064541407670706208e-02
-2.683612557532321641e-01 -1.306231742411386731e-01 -4.892221305917590288e-03
-2.996607374360409914e-01 2.518074002995068783e-01 -2.595984511414217363e-02
-9.749031929746122815e-02 -4.237540171623548901e-01 2.889688816831625373e-01
9.854168495213581902e-02 -6.365982597293025347e-02 6.955013838630714762e-01
-5.251312145809656773e-01 1.171928929262851526e-01 -4.656824744157316287e-01
-4.112917391191200367e-01 2.041568038978713306e-01 -2.417744119038365003e-01
