2.436547435362485803e-01 6.243377939727637327e-02 -4.397512207822343866e-01
-4.658553888276688593e-01 5.291953633924421918e-02 -7.105605629108570076e-01
-1.169480896037567441e-01 1.821335694927573301e-01 -4.018797210545675402e-01
-3.840675322972742500e-01 -1.035760886424143129e-01 -9.014389721986095783e-01
1.766698904894728750e-01 3.083162969481781368e-01 -1.175291440656997116e-01
5.427633476438636917e-01 -1.559459715131518986e-01 -6.390021073479136282e-01
4.394978350704040193e-01 3.467287046683112939e-01 3.195612510703181586e-02
2.906245637652526415e-01 -1.901459737151677820e-01 -7.786729293062212287e-01
6.524871368243044811e-01 1.721692456353965672e-01 -1.367815770288970667e-01
9.789006155332058423e-02 -5.033566423687851898e-02 -6.515591807577658656e-01
1.733945441784210117e-01 6.145839561911117799e-02 -4.666153030579506256e-01
-4.199386720366810599e-01 5.132584772424173547e-01 -4.514492823055769877e-02
4.068489832992380206e-01 -3.077719264698929036e-02 -5.119091377267858123e-01
-5.906677571621856693e-01 3.450600920830229623e-01 -3.441258897396919370e-01
3.417763582792458094e-02 3.663693664824618779e-01 -8.740900501652811017e-02
-3.151905597490336497e-01 -6.498426449616431788e-02 -8.220636943796645335e-01
6.492237651356523864e-01 2.759325420639043291e-01 8.268576846346317386e-03
6.594409058055024087e-01 3.415519517601054433e-01 1.044529377027120093e-01
2.054410022269321234e-01 6.535840308902473028e-01 3.794959431399059224e-01
-7.110236213710784993e-03 6.394012950240282045e-01 2.823973782329746718e-01
-6.138758287237713884e-02 4.243896410478711356e-01 -4.031057697857848982e-02
6.749018511219196936e-01 1.606772835144141542e-01 -1.448454874339730469e-01
-1.375886699244736888e-01 1.548562624658755271e-01 -4.478098768295341592e-01
-7.088141855975978178e-02 4.877833471036709945e-01 4.558620897971499969e-02
7.987217106705777336e-01 6.177765785918877539e-02 -2.393049520995533253e-01
4.257947306965546574e-01 6.626351704318950153e-02 -3.682759801464242089e-01
2.148531606438277008e-01 3.201273110748296680e-01 -8.703144617523411730e-02
-3.053076078584170405e-01 -9.024783799891097913e-02 -8.540823536096907587e-01
3.828070927217507302e-01 -2.287667106648230350e-03 -4.804808057695298396e-01
2.292515351863203682e-02 7.192429319755216932e-02 -5.064539702958382739e-01
4.496676700465100374e-01 6.293943591351212064e-01 4.340075344481926778e-01
1.514865462964566645e-01 -1.898422184659601664e-01 -8.287222755224046278e-01
7.101827391362263153e-01 9.352938110232981994e-02 -2.266778775099968501e-01
3.529256705085701551e-01 2.074230771994657052e-01 -1.957751320865508404e-01
6.308354440405903318e-01 2.284734639421094893e-01 -6.528674630001413126e-02
-1.653654463477185477e-01 3.548034676922456887e-01 -1.761004633329832925e-01
-2.767812192695645046e-01 7.289541194491165887e-01 3.107714997939520774e-01
1.085265079816825767e-01 2.275199590781143422e-02 -5.446976637072508121e-01
-2.695169956788533439e-01 4.749236799721146540e-01 -4.459933183482219649e-02
-1.085783630451472720e-01 -1.332530551507148386e-01 -8.433190276544375585e-01
-3.244033406282316734e-01 6.904427022555851279e-01 2.392205183237097466e-01
1.227263449899319708e-01 4.169324736425898403e-01 1.597409915185259849e-02
-6.253116202067334761e-01 6.810060450351868022e-01 1.167558583529247213e-01
-1.730724878884453560e-02 7.090500190470033770e-01 3.768542847721624844e-01
7.274202241621614551e-01 5.052245598773113383e-02 -2.810341916074725055e-01
-3.273702859760854733e-01 1.677159278778180829e-01 -4.985369513855270052e-01
-8.891595158122829468e-02 -1.492144440723535415e-01 -8.586802195697164075e-01
-9.883906634244047501e-03 7.002291277919538981e-01 3.671160548300990700e-01
1.125093922719866690e-01 5.640424313093079789e-01 2.195902228669028289e-01
1.401051043169745935e-01 3.546299532219875372e-01 -6.552432831937209101e-02
-3.554529315639363279e-02 4.907662229887100880e-01 6.260946710585334196e-02
1.294387090792234289e-02 7.288480124799283644e-01 4.157303879799393864e-01
-2.804282784860726019e-01 5.630810174952937119e-01 7.568271588534553063e-02
-2.694614578595245225e-01 5.520805946858045044e-01 6.415838976323189058e-02
-3.663409442214344280e-01 1.643307690642812069e-01 -5.174457089548863964e-01
-4.196234088625238057e-01 1.763446269059424087e-01 -5.198446996255182695e-01
1.364259496630673002e-02 6.040841918148802669e-01 2.401536843883675387e-01
-2.286738517505617074e-01 3.835280271721167034e-01 -1.585862685079678369e-01
3.611085355446342349e-01 6.568576467258463447e-01 4.405835832898201687e-01
-9.348979235814221245e-02 1.124721347021368466e-02 -6.342002412751852614e-01
6.734488683006967236e-01 1.118976801813889865e-01 -2.141179160543267845e-01
4.973906077077530630e-01 1.184018283225924256e-01 -2.688231969656180720e-01
-9.524546697244386240e-02 3.574928116971730629e-01 -1.468717594580310482e-01
-4.264171727141688462e-01 -3.333383887867189151e-03 -7.755303839598599591e-01
6.498896106295816155e-01 6.249015629565628054e-03 -3.715560220259501167e-01
1.322242868686198114e-01 7.176098493009067658e-01 4.431657510599989469e-01
2.551025767825631507e-01 7.095037165566532300e-01 4.763203591767118938e-01
5.278852791203199335e-02 -7.082707551591313488e-02 -6.968000542111533191e-01
-5.097671442511482187e-01 5.946763024032323264e-01 3.700898457520909735e-02
-3.552175120548355797e-02 4.799803332757562879e-01 4.741740684785716170e-02
3.040816894444704488e-01 5.377559463833128106e-01 2.520444580721962757e-01
5.313262294851093248e-01 -1.547787433088212428e-01 -6.415063625762547073e-01
1.627789194277746987e-01 -1.658454597497436012e-01 -7.908068164008681400e-01
-9.822571910416254271e-02 6.847100133551662360e-01 3.131956603712134912e-01
5.311515850161100394e-01 1.416327697993649375e-02 -4.034790022781022389e-01
-2.128903754353861644e-01 5.228116527942006098e-01 4.343278291546993214e-02
-4.210287563829164248e-01 6.806951460058912051e-01 1.904288241980016116e-01
-2.877972093172502799e-01 1.363957858849373095e-01 -5.283199747434307314e-01
1.763028781628811492e-01 7.003537167428779409e-01 4.348377379855946634e-01
-2.603010533501987078e-01 9.471129603331393532e-03 -6.972201999497555924e-01
3.275380107636955973e-01 9.608542216218932119e-02 -3.618940769794175560e-01
-2.381009011885597826e-01 -1.615820139284085966e-01 -9.302322128994320316e-01
-4.790886233858855370e-01 2.869770061414797513e-01 -3.855032018422615003e-01
3.521207274099428242e-01 -6.977455871288311406e-02 -5.867229805263018960e-01
4.652091570313640623e-01 5.895559882142657748e-02 -3.642760290504967746e-01
-1.609053154103350092e-02 2.642439029599317341e-02 -5.847315537699450116e-01
-4.656519524352295547e-01 5.895269785334746881e-01 4.575642746933379634e-02
2.829643482814014344e-01 5.652382624215928075e-01 2.831143131179646999e-01
-3.617655153407938751e-01 2.293044710013774357e-01 -4.242180851432728050e-01
1.407983973398207189e-01 1.772544465235479649e-01 -3.152488786205063787e-01
7.349983538465566790e-02 6.780940492525728835e-01 3.661715101788726723e-01
-5.439654906061427431e-01 4.795920781217494766e-01 -1.375864169393756498e-01
-7.479453124899389238e-02 4.523041836810808847e-01 -5.834354749614498008e-03
-4.363996170881819792e-01 6.097455404066385309e-01 8.486289386393987277e-02
-1.344798111143810371e-01 3.830701822315707994e-01 -1.250591610540295051e-01
6.545328514157854327e-01 3.447168908404746324e-01 1.071327228972403511e-01
-3.644526059170856147e-01 -5.030716850893748870e-02 -8.192508174569159696e-01
-5.488897786617938923e-01 2.999396792868974648e-01 -3.925577851724583733e-01
9.220292309803326813e-02 -1.339626673363564502e-01 -7.714782959857733324e-01
3.028225009549857516e-01 4.872240130083250742e-01 1.803727691705638569e-01
-7.251634497741341612e-01 6.883497984760664767e-01 9.088052060999106396e-02
3.751022711786057284e-01 2.374950717735143380e-01 -1.453491632411602896e-01
-2.825116339728145354e-01 3.681389096971773300e-01 -1.998058525322634893e-01
3.242168213854597081e-01 4.566060731413406626e-01 1.449843503270739076e-01
-9.837060381151266353e-02 5.482718805107937854e-01 1.208602481076780921e-01
2.497954646872675710e-01 4.983229389327180070e-01 1.767770270271631916e-01
4.335769121061830988e-01 3.281299019990082111e-01 3.596719734504594691e-03
3.077845392315416428e-01 -2.361931905049771512e-03 -5.078026561743742562e-01
-1.098820582715437366e-01 4.027999829446374941e-02 -5.992311091564075376e-01
1.023249126697263894e-01 -1.306394737048066079e-01 -7.631227810981483506e-01
-1.764936600569805003e-01 1.466253532143809990e-01 -4.735239479025153408e-01
3.937310479318821277e-01 5.298292068649848030e-01 2.733968696456029468e-01
4.548427274067493586e-01 5.229598172978211501e-02 -3.774222595468018082e-01
7.785158336955118052e-01 -9.650843027092724513e-02 -4.697086444064855759e-01
-2.130969373168228875e-01 4.436295016135484159e-01 -6.823390271356669090e-02
8.607407449137842725e-01 -8.939057139413891795e-02 -4.298473064539127253e-01
3.808063089203356927e-02 6.594784420629429267e-01 3.270868363008472279e-01
-4.182624645854774448e-01 4.249840326928048251e-01 -1.689423784059975731e-01
4.754617709737887776e-01 3.378901082266136391e-02 -3.960238976947185185e-01
2.641973756334231593e-01 -1.618146210200459567e-01 -7.483328653815477516e-01
-9.075568646406499684e-02 6.973562964931511177e-01 3.337281507260762003e-01
2.327981416024504646e-01 -4.166202251199488393e-02 -5.903925154736320291e-01
1.117866566298371667e-01 3.987716250624640524e-01 -1.358883724104129227e-02
1.041248218112022506e-01 2.162563636047926952e-01 -2.735879958413695023e-01
4.841631424256009342e-01 5.790223924408999245e-01 3.755326046596685896e-01
-5.437399981776674940e-01 3.803196912476482505e-01 -2.774096149372196063e-01
-5.637275490499890074e-01 2.527973691736551398e-01 -4.643785930279329954e-01
-3.202442480947345627e-01 2.999382085633059414e-01 -3.096102878779189993e-01
6.489401820194152792e-01 -1.326242380086410932e-01 -5.676151384150570633e-01
9.021196998199726425e-01 -1.636479278872554344e-01 -5.194867829810273507e-01
-7.036914286241549576e-02 2.906848037048192501e-01 -2.319997728320509212e-01
3.806507612591664702e-01 6.157400702390113389e-01 3.897260657698124464e-01
1.545673568759132477e-01 -1.127516690399344018e-01 -7.189605539244720012e-01
4.607601933060700289e-02 -1.390138848317395148e-01 -7.953312283407762973e-01
4.928875282685576398e-01 6.067190983432553253e-01 4.177307835596352215e-01
1.711219848209083183e-01 2.817666147941829680e-01 -1.569584325085575105e-01
6.813986924447231752e-01 2.540219678965126016e-01 -1.093745251986882015e-02
6.394701333487594619e-01 4.356527102602514301e-01 2.298244114320274478e-01
1.375564282945979100e-01 3.900461826357222717e-01 -1.653670911628141518e-02
1.066659446722528076e-01 5.051260393843080010e-01 1.344391718261571111e-01
-4.024833875155171548e-01 -1.372907532227668481e-01 -9.556342229823079348e-01
-3.729177281471028893e-01 -1.653165645697944885e-01 -9.844050903708442268e-01
-5.194952431242457758e-01 4.710032143515816005e-01 -1.408132580847507864e-01
3.943875095387317509e-01 5.439273799177614110e-01 2.935036414068472599e-01
5.009640629035319592e-03 3.414000199151496218e-01 -1.331801753146727163e-01
5.600125521239891491e-01 -1.771444645572222421e-01 -6.626194522563398914e-01
4.309514068507170337e-01 4.351362581412989150e-01 1.534487411671090762e-01
7.080875188165364209e-01 4.592565512235043113e-02 -2.945261323548422072e-01
-6.499487473131686510e-01 7.554931227902438318e-01 2.127927954206506878e-01
8.341559283016432014e-01 -1.925961657476325528e-01 -5.849400157504279774e-01
2.637999941909378032e-01 3.395503000766175727e-01 -4.190128097924734202e-02
-2.331193626338453340e-01 2.613143475425789841e-01 -3.324353076214156544e-01
-6.742078093295095220e-02 3.359909309829717250e-02 -5.932421487074425182e-01
7.951102138246700646e-01 9.598124888436655386e-03 -1.880835549645794302e-01
6.038032149711933805e-01 2.944292398165330171e-01 3.920484335252814589e-01
6.169013327130684621e-01 4.344617348893405340e-01 3.605237205672072731e-01
7.172193836829439118e-01 -2.731061553001680187e-01 2.763881241850512857e-02
5.786172415009015468e-01 1.774100697413676375e-01 4.604868239751362391e-01
4.803044365051669096e-01 1.190321559529912837e-01 7.480993947055976090e-01
6.999565136373426810e-01 2.370131127333334475e-01 1.048712629575378336e-01
8.011658309980678183e-01 -1.912916449765178772e-01 -2.163031176972562697e-01
6.952867357066505605e-01 -5.210767615785157902e-01 7.973374589062086348e-02
9.042638695428617535e-01 -1.980738661278158286e-01 -5.214078982875387513e-01
5.024031722513853104e-01 4.577991593881670651e-01 7.001775081809116230e-01
5.007314658454877776e-01 4.569162437047176173e-01 7.050736961526417046e-01
7.756946909481977626e-01 -4.961841332086802114e-01 -1.566723949154890660e-01
6.365962591615934585e-01 1.578023429804591427e-01 2.880944363524497454e-01
7.675431127286576061e-01 -2.649792052594996949e-01 -1.206999806706088169e-01
6.729218007170647553e-01 -6.492380647522444370e-02 1.692757065050865262e-01
4.764857330472104247e-01 2.998741154817824994e-01 7.686768615778829528e-01
5.037782135259160077e-01 4.326016788182467376e-01 6.948185688785150083e-01
8.862909174636339760e-01 -1.312854209656688365e-01 -4.648493300788874016e-01
8.885685868989340319e-01 -2.253637462783721068e-01 -4.764146749735806430e-01
7.094686396010729812e-01 -2.018312193309452218e-01 5.421113403751495752e-02
4.226707846216825604e-01 1.631761322150982463e-01 9.207312559813621844e-01
5.578256959307564822e-01 1.812649636350862625e-01 5.221443656209594497e-01
5.620284564511845993e-01 -1.009704857279516560e-01 4.952232831432267779e-01
8.477301836467652230e-01 -1.474591256422606855e-01 -3.516951333096722254e-01
8.214980856037829016e-01 -5.591060776742057259e-01 -2.952987580561998171e-01
7.299729245966891655e-01 -1.388801692487961204e-01 -3.165603030365986541e-03
5.924248301696858343e-01 1.256930598574509950e-01 4.170151977495456519e-01
5.558605281027341194e-01 5.360535461349542619e-01 5.461780406730417647e-01
7.463665954209347531e-01 -2.327462423822708182e-01 -5.644675230676177158e-02
6.766098054759184244e-01 -4.414135582150408577e-01 1.390346103373071573e-01
7.118354825935711006e-01 6.169188778676128887e-02 6.075134869271429233e-02
5.390970405786117414e-01 4.038562748247932488e-01 5.889400138932895379e-01
4.047244105351023857e-01 1.909417805495549070e-01 9.752067495301316447e-01
5.423730258793143522e-01 7.006748441613023237e-01 5.945031268987185369e-01
5.158771573782724440e-01 2.717259313184374192e-01 6.507904424649919584e-01
6.092495021519825915e-01 1.528310183265586264e-01 3.686757111145776977e-01
7.426531194537313585e-01 -4.461109705400215786e-01 -5.642981880539042761e-02
8.898291224968231106e-01 -1.342797220180277917e-01 -4.754620261190839470e-01
7.693171572802834923e-01 -2.900410849415203107e-01 -1.272314027069806064e-01
6.968620960180312851e-01 7.168104773055673784e-02 1.055255948311309006e-01
7.373269320309151498e-01 1.551363500623466618e-01 -9.801002550984093051e-03
6.453899854579054907e-01 1.817727695525725093e-02 2.549280860570437013e-01
5.627484015318344746e-01 -9.966235748006486983e-03 4.977698123627241622e-01
4.770048267446232448e-01 9.697232355327607689e-02 7.567198337099430017e-01
6.118352425934386885e-01 1.680914574841067544e-01 3.618161910209169441e-01
5.989155616394964410e-01 5.491467093044023473e-01 4.195805150578899578e-01
8.519468489291014413e-01 -2.475771545931208517e-01 -3.693023689957825040e-01
5.519368299189767457e-01 6.283571462895853887e-01 5.625178605525620323e-01
5.898473142174365247e-01 4.364362529419816283e-01 4.405964560949558462e-01
5.840095192134168167e-01 -1.643243557437633617e-01 4.269932206572372713e-01
7.852549006288206401e-01 -2.664873737358261149e-02 -1.608133009423787230e-01
7.362899956873352192e-01 1.982028780407528723e-01 -4.523605325903903678e-03
7.121087760960874702e-01 1.077583043048027933e-01 6.230982169992541758e-02
6.456318519749486562e-01 4.449883340251799546e-01 2.761374250422072851e-01
8.182589797748063276e-01 -2.242228920505160983e-01 -2.685218336997139410e-01
4.443558325620809435e-01 2.447868219752201702e-01 8.608227021472775187e-01
4.421130223310595908e-01 1.190006070978963798e-01 8.609910727241458783e-01
5.361989035192122888e-01 3.057661339698152791e-01 5.924682046457627749e-01
5.123257206723103030e-01 2.506437303960144525e-01 6.602054971393709337e-01
8.532733815077644390e-01 -8.702977564231516305e-02 -3.649766350524833447e-01
5.202025512639329996e-01 2.911632872013113493e-01 6.390030890685914899e-01
5.640676159650522825e-01 6.056232862345291013e-01 5.254916370934911152e-01
6.011399109073324309e-01 8.790194777595672360e-02 3.893122964449183820e-01
6.661431362951286683e-01 1.170065203554241512e-02 1.932493664811470446e-01
6.062955186782247319e-01 2.382856866790761530e-01 3.817972538314782782e-01
7.470233563413659628e-01 7.423734831007247625e-02 -4.261909426377791243e-02
6.531649224378616170e-01 2.401244810188644108e-01 2.433463911428674908e-01
6.692818329828956747e-01 -1.135383382123846818e-01 1.775381857753704218e-01
5.683701215422350961e-01 -1.429806873376323305e-02 4.809295686002063586e-01
5.629323941238700835e-01 1.603505775869026317e-01 5.059747120629088935e-01
7.318313374983951292e-01 -5.424607081401740943e-02 -4.311589034380981789e-03
6.353954776175613217e-01 2.750798291626734352e-02 2.849510114125059501e-01
7.294388524007974217e-01 1.091810537243194934e-01 1.115543620388908738e-02
5.536465071322281828e-01 5.703676387057186881e-02 5.281166764119691326e-01
7.725272828345587373e-01 -2.528131975437807877e-01 -1.348081798492512251e-01
9.001592660886660324e-01 -2.553190087411059128e-01 -5.122152966193557200e-01
6.579104088697124153e-01 -2.047495757003794936e-01 2.064666506107837862e-01
8.698272302372443976e-01 -3.181227519117597602e-01 -4.257802954531827999e-01
6.825645349031516096e-01 3.401852688385251788e-01 1.615814286560093294e-01
5.560771622304901962e-01 4.061597372793371297e-01 5.388653297546199816e-01
7.639761762602294004e-01 -6.734346107462179098e-01 -1.311375710925510307e-01
7.024180336861503005e-01 -5.667262156936532236e-01 5.630881999872321131e-02
7.138719558817254729e-01 -9.735062209666442423e-02 4.656191697547740899e-02
7.403799905815660054e-01 4.387612075203146944e-02 -2.454098159735002699e-02
6.509746335417623264e-01 -3.641335605982595203e-01 2.187815224645413281e-01
8.528638912488845092e-01 -3.441513880224305044e-01 -3.769739277283415957e-01
8.642891197011910442e-01 -7.830965073156521961e-02 -3.970910741072233852e-01
7.636156103389925009e-01 -4.360103066665483307e-01 -1.178758078647076518e-01
5.713276213038190887e-01 -1.785998145938550719e-01 4.637474404664494454e-01
7.378726181134570572e-01 1.774311217829425691e-01 -1.026881249384553434e-02
7.176321526434258358e-01 -5.839305710576644382e-01 1.045234439051682430e-02
8.060717111192396978e-01 -4.288632644662589144e-02 -2.231815956507818000e-01
6.303927003236597937e-01 -3.484586130998780229e-01 2.804266215729164236e-01
4.367599504383787856e-01 6.978719150084328193e-02 8.742867012127609749e-01
7.148621452318700831e-01 2.436379050816676606e-01 6.115071977532075126e-02
4.576509370549929900e-01 1.443294671427268194e-01 8.163622937819963177e-01
7.319495192947385043e-01 -3.711179781145162448e-01 -2.093790702973549744e-02
6.950393917407675648e-01 3.226365450815372737e-01 1.238044850507770966e-01
5.081955262800741391e-01 5.935031619417229232e-01 6.900261883518709061e-01
6.089084330953957735e-01 8.003677983907539484e-02 3.659446355568534703e-01
5.719050624794146387e-01 4.275510220501338998e-01 4.931770934615063440e-01
6.806935058948598849e-01 2.617709643514813389e-01 1.630842040738128274e-01
5.127275141403461189e-01 5.888290604368544567e-01 6.763895964003581174e-01
5.611370253889172988e-01 9.077026811817787144e-02 5.077076185610807091e-01
6.191156440764548075e-01 -1.834040210768347057e-01 3.222399169939076935e-01
6.347428989026430157e-01 2.410917896684234563e-01 2.978513294706469083e-01
6.979521462911276730e-01 -5.182906779668609021e-01 7.199794325887706736e-02
8.039622196453994896e-01 -4.556996997739243271e-01 -2.381512322586540331e-01
7.166955323756194485e-01 -3.792652483345358982e-01 2.373416357985265457e-02
7.185792996470573568e-01 -6.243163382242351567e-01 5.578067686993250403e-03
8.513513394575068505e-01 -1.736775374184119924e-01 -3.637459993653822110e-01
7.993977700273935394e-01 -4.885927985909087334e-02 -2.037603336980926549e-01
5.191697832377198951e-01 4.013857372088557307e-01 6.477178086081210040e-01
5.761964555248784148e-01 2.889016188943658858e-01 4.733696962909261785e-01
8.409778234065412583e-01 -5.109671889235622988e-01 -3.504078139564337779e-01
8.010185510853661262e-01 -3.665951802355521538e-01 -2.248726959039982487e-01
5.427321524755110982e-01 2.251036015118028921e-01 5.690125629500205617e-01
5.806873284748261810e-01 -1.829665652263590958e-01 4.358559640790443668e-01
7.518582108745094361e-01 -1.932400133622772243e-01 -7.065054930689475265e-02
5.439541088182040518e-01 1.866580571316206749e-01 5.634256183341469493e-01
6.299925772468158991e-01 2.101905381883479029e-01 3.103058898492726536e-01
4.247713365337139058e-01 2.346665852320733714e-01 9.181943518199332521e-01
5.822293118521247868e-01 2.842494309467641020e-02 4.421565732892549505e-01
6.984716159131398872e-01 -7.355720041016886035e-02 9.330732438899996817e-02
5.643206196492960292e-01 6.394458434870449182e-01 5.264811479015625295e-01
5.843587779937643445e-01 -1.683779209139935895e-01 4.257525942414208675e-01
5.044460886193409266e-01 2.827270886340836897e-01 6.851456294805267078e-01
6.599839223169640112e-01 -2.001078203956298540e-01 2.005758093781550566e-01
7.013964874151448203e-01 -5.694314896840296791e-01 5.918953317740637682e-02
5.795078998683531601e-01 1.581523142837927554e-01 4.568648238186674981e-01
8.579159257187396470e-01 -1.302333436219479945e-01 -3.809191993082586825e-01
8.287342595964930503e-01 -6.569473665257102857e-02 -2.913433944623809446e-01
5.182793019693764380e-01 3.809229713694672337e-01 6.492989342992476764e-01
5.964033106112680560e-01 1.090074561057355895e-01 4.043977631826612962e-01
7.512403331270455231e-01 -5.580816551060524544e-01 -8.756517923574069773e-02
4.394102190888795056e-01 1.004041079614542975e-01 8.680252632016580705e-01
7.391739447761332960e-01 -5.741776362585486737e-01 -5.272391327834093089e-02
5.531781692613888524e-01 5.686597503977113277e-01 5.557819617810008106e-01
7.200219201122566304e-01 -5.871769761235837715e-01 3.221464105202874028e-03
8.300215719355928945e-01 -3.936346626761232925e-01 -3.119941847979796345e-01
6.895958606553614922e-01 -3.546463917608184691e-01 1.051050365141038834e-01
5.255674677672097506e-01 -8.568059375756605089e-02 6.037868738948188874e-01
5.326880253729328052e-01 -5.719912114542871628e-02 5.842016300027257358e-01
4.941705097936481272e-01 3.342837360864511220e-01 7.181684454108272497e-01
6.659479087802774311e-01 1.660504674651305246e-01 2.017550480242171485e-01
7.569165058197113716e-01 -7.154554691663150834e-01 -1.124277956446489424e-01
7.706344330234038420e-01 -6.874746860498875956e-01 -1.515404932062952570e-01
8.311942383297441506e-01 -2.089584130086577785e-01 -3.059741804445700875e-01
7.604384525680391027e-01 -3.176548895859224730e-01 -1.024045298949202709e-01
7.369786955503744297e-01 -2.619421725432195536e-01 -3.019597567692473145e-02
6.862547654413652110e-01 2.789143629599888374e-01 1.475258134062129300e-01
7.954181890785007036e-01 -3.756734473263070861e-01 -2.087844318158658119e-01
4.923385888141156852e-01 9.696238995306855069e-02 7.113929322233049080e-01
6.738651647912712317e-01 2.004076028800650666e-01 1.801165936860013306e-01
7.679911297196992948e-01 -9.252756681417405316e-02 -1.131658724776993807e-01
6.660499539580160278e-01 -3.395872855491063325e-01 1.754799664025699646e-01
4.925748199517557269e-01 3.752674960592514847e-02 7.076415653500648384e-01
7.677374046226672633e-01 -5.120963516522192283e-01 -1.339681389517042298e-01
7.635523757506161857e-01 -1.840272030378961587e-01 -1.047451002625692656e-01
7.326786562885621024e-01 -5.166022434095574045e-01 -3.056641497161623200e-02
4.928462416997735906e-01 4.296433450933067610e-01 7.269813655322840962e-01
7.779485263599590361e-01 -2.493757272915743048e-02 -1.391278598524411381e-01
4.995963313892794466e-01 1.753961370688216295e-02 6.858593806850162844e-01
4.856413559473500285e-01 4.958707113778128978e-02 7.287563009545929837e-01
8.158345544048519749e-01 -4.553423094155405471e-01 -2.732273333203988908e-01
7.604235033846196146e-01 -1.832315170487210654e-01 -9.545532374660688213e-02
5.172025447891334116e-01 4.185310506507326500e-01 6.544136535364666329e-01
7.492323519438256474e-01 -5.124722144850258898e-01 -7.928676321024651086e-02
6.191457933089614674e-01 -1.958239656456303435e-01 3.215128125564289951e-01
6.657961373009495532e-01 2.699197833783157363e-01 2.075392080566067499e-01
6.150286243182934154e-01 2.427390255669356345e-01 3.562110705319538884e-01
8.026595114311357859e-01 -8.319428441406245822e-02 -2.151657062036052004e-01
5.896317585373549441e-01 1.399183171763905553e-01 4.260021977845344643e-01
5.727731927100092602e-01 -4.517091440781485778e-02 4.663282839664714685e-01
6.716687763901802999e-01 1.227019288857769952e-01 1.826175277277985454e-01
7.114688794887583656e-01 2.433589066900242182e-01 7.116683546083758805e-02
5.507167707027363912e-01 5.464579750025571059e-01 5.619173686402507695e-01
7.977462547311607866e-01 3.062206652785210911e-03 -1.962113908220666780e-01
7.367252286619924151e-01 7.061615523794084748e-02 -1.236398179539978555e-02
5.450145291548025295e-01 6.400385946422522121e-01 5.835801359358414597e-01
4.458682001655376315e-01 2.491805560254641838e-01 8.565778600877120841e-01
5.412154755705843590e-01 6.776818949852959628e-01 5.967437353812462542e-01
5.675551985137381461e-01 5.527204528115812199e-01 5.124648949871010162e-01
8.221764369714984477e-01 1.061379319170987524e-02 -2.680387683435448976e-01
5.593585356152994681e-01 1.231098998098132946e-01 5.146260218374495432e-01
6.016788583188593664e-01 1.827478227623381968e-01 3.925911876597042438e-01
8.335952414730437576e-01 -4.429889084345453587e-01 -3.250931161573937245e-01
5.294099697158597406e-01 4.988506833576816235e-01 6.224545052644979704e-01
8.806287201714797508e-01 -2.949383465859830578e-01 -4.565184230760924167e-01
7.994183483414980529e-01 -4.727127704392560248e-01 -2.255935326949609077e-01
4.580213580964550557e-01 1.248544527577261087e-01 8.142669479680855193e-01
7.556176637854457034e-01 -6.459502163055078627e-01 -1.050181128591355650e-01
5.041475734494688110e-01 3.361545564415515663e-01 6.887724812276260211e-01
6.476309415649064150e-01 -3.867909834094220289e-01 2.275015710660952817e-01
5.770572379316221134e-01 -9.721478871956702739e-02 4.509913318138230598e-01
8.247233183039945903e-01 -5.129091513208779984e-01 -3.024594730071101800e-01
6.538193041442695863e-01 -2.037410867131635439e-01 2.186117040332881956e-01
5.782573949706286687e-01 2.246648999965086269e-01 4.639778963253015087e-01
5.432521960682608064e-01 -8.182633648420842287e-02 5.517090428554859427e-01
7.668599491420845515e-01 -6.588266183428058698e-01 -1.389115856839774621e-01
6.303099268295475621e-01 3.205122591964264522e-01 3.150347794999817097e-01
6.098688416952492419e-01 -9.324151630123525547e-02 3.542047770695279096e-01
8.927623309110707117e-01 -1.379659015377571463e-01 -4.843219006084324429e-01
8.357932399534852008e-01 -3.682453442202394678e-01 -3.277509662742416618e-01
5.157260435655498521e-01 1.939635012679671588e-01 6.472426573348596390e-01
7.292134037796985657e-01 -2.683091618386145849e-01 -7.568936733794648375e-03
5.023212974249267049e-01 6.030253004959409413e-01 7.078794587573283836e-01
7.978656203720854156e-01 -4.353612584711393646e-02 -1.989578821827056032e-01
7.124936815030721293e-01 -2.980844980043634851e-01 4.032484403553836944e-02
6.433711023982439103e-01 -1.011556244583848747e-02 2.594425393291608373e-01
4.515870780254389039e-01 2.938500954627594197e-01 8.419675057877031854e-01
6.049210213594516938e-01 -3.985270449180801366e-02 3.715729257094561033e-01
6.485985560796304616e-01 -2.183762979143947028e-02 2.433881222678941081e-01
6.322448555337758513e-01 1.408388152257536441e-01 3.000857489990157445e-01
4.370965965380941842e-01 2.037325834046570527e-01 8.801720437514192197e-01
7.412266592829540590e-01 -5.711719786970427259e-01 -5.863731566982851445e-02
6.857244530807614646e-01 -4.799962673460918539e-01 1.101099323286244963e-01
7.153185705589396592e-01 -3.765898763543777672e-02 4.535196443073334638e-02
6.701947435797924735e-01 -3.029622363410579000e-01 1.651093686458898480e-01
6.995633247428549861e-01 1.316060646407555268e-01 1.006190086140593409e-01
7.848126767879037846e-01 7.377051209090260131e-02 -1.543477896003682959e-01
7.934498695333237483e-01 -2.151073339003265472e-01 -1.947181976551587701e-01
6.255580098602357975e-01 2.068407761894108521e-01 3.232423409715272089e-01
4.568490678450051745e-01 1.829896435836946833e-01 8.207184917225837095e-01
7.449068873453185136e-01 -6.209303018433588450e-01 -7.207198909061378334e-02
6.491293088645764264e-01 -2.373666051586389991e-01 2.307480011988296276e-01
8.150472815654320469e-01 -2.633393310443226110e-01 -2.610374183214309030e-01
5.921394982948694485e-01 -1.303743085900346543e-01 4.047050486496374111e-01
6.898423002452324093e-01 -3.111615728739888787e-01 1.066102786434659361e-01
7.129487011302113597e-01 -5.098291302945495707e-02 5.167284697570488639e-02
7.507486184883357394e-01 -5.020829062006515464e-01 -8.323515175738566141e-02
5.805221714461346050e-01 5.912379269246482716e-01 4.761132533477218098e-01
4.519529345063432180e-01 1.228576514748965787e-01 8.321025541606790199e-01
5.702740097759215754e-01 4.046164877397588344e-01 4.968203691910163533e-01
6.763213724242791436e-01 -2.266717075865492259e-01 1.509180048143486108e-01
5.906880068468961520e-01 4.426176727255486942e-01 4.384289053493331534e-01
7.602538867697328229e-01 -3.772070277973104679e-01 -1.049180109983441495e-01
4.688919718939418835e-01 2.699708351827397879e-01 7.895878537326656010e-01
6.340711333717691245e-01 4.920381613196415094e-01 3.127275917115955872e-01
4.610153254566509151e-01 2.259474450052992855e-01 8.106097336600225356e-01
5.516042678892713047e-01 -1.744528087523914972e-01 5.222624258042432022e-01
8.629279272893300989e-01 -3.834382038222642897e-01 -4.087411533090717919e-01
5.537682098336458303e-01 -1.870098011491067858e-01 5.152208194290076593e-01
7.565855748545063930e-01 -9.414891445082377089e-03 -7.518190291716890516e-02
6.845218148868789099e-01 -7.029878819566935666e-02 1.347101227411955648e-01
7.061678319363112744e-01 8.608469522070935631e-03 7.477807465999397607e-02
6.586740097446629472e-01 9.426588010669829020e-04 2.147753894008280762e-01
5.827179422499425554e-01 9.800144592181767034e-02 4.442861719274744936e-01
5.926364128790887476e-01 -2.592763786754662680e-01 3.966147758486742725e-01
8.033593395596593245e-01 5.472991181021193141e-02 -2.101495428404511479e-01
4.935004161334813899e-01 4.785627157698406631e-01 7.275605093412937929e-01
7.548772172001353420e-01 -2.817482551461200080e-01 -8.412115366362446500e-02
6.282358221590110814e-01 2.770500452044074580e-01 3.189332515444178173e-01
7.138482977663985762e-01 1.128859091029045802e-01 5.743121255817022763e-02
6.914145845379172650e-01 -7.269613573873156750e-03 1.175728521769681123e-01
5.675227551425657824e-01 5.547274571062387194e-01 5.126638923002169168e-01
5.531747445867937207e-01 -1.162092235796254591e-01 5.206119558892861043e-01
6.183009478305757645e-01 -1.727447900500214961e-01 3.251956879191952310e-01
6.172261052500251921e-01 5.083877136030419130e-01 3.633611032822928189e-01
7.146317051927968400e-01 -2.966683503120134957e-01 3.407761943296678392e-02
7.228242622665862482e-01 1.413600296406123009e-02 2.582583068794757838e-02
7.589962701437812376e-01 -1.368813359616359582e-01 -8.885554058784859988e-02
7.906165893732983729e-01 -1.144092715209097527e-01 -1.811704345231739954e-01
5.561970469287921270e-01 3.213669220783461067e-01 5.341553421644447130e-01
6.271213934482497976e-01 -3.672582936482386984e-01 2.891308640671675922e-01
7.814115861674593155e-01 -2.202288276945025824e-01 -1.593962757127179997e-01
5.664951245029777871e-01 1.108521017515559648e-01 4.929007079419267523e-01
-6.547212695470213673e-01 3.535009334865982789e-01 -1.997302808581552791e-01
-5.233349284216778363e-01 -5.559625548272518758e-01 -6.348235384679077331e-01
-6.728675201639162662e-01 1.652714693410938518e-01 -1.557591224841065602e-01
-4.258208935100965542e-01 -2.303035787606600715e-01 -9.063453480983353350e-01
-5.572832560568622418e-01 2.335152282123147127e-02 -5.047147264893805385e-01
-6.633395130516678284e-01 4.817738097416344734e-01 -1.676657909307906202e-01
-7.534490258076212976e-01 -5.086969887449967892e-02 7.133603745597391632e-02
-5.852828420607962823e-01 1.025078391271174449e-01 -4.178822565344571527e-01
-6.336651517252305243e-01 -3.954807552968573892e-01 -3.004453280129626425e-01
-7.887102885404368990e-01 4.394126724742341006e-01 2.007525155943919448e-01
-4.865763714591148648e-01 -3.470935497016134907e-01 -7.327522148557551462e-01
-7.708177349264009326e-01 5.237790825376051895e-01 1.521960781383866479e-01
-5.891769567830106302e-01 1.576844818562092576e-01 -4.035370105711624800e-01
-8.277502726372844011e-01 5.294452068116121124e-01 3.207789375716359470e-01
-4.995113267611233088e-01 -2.158356974377324544e-01 -6.877742525334146206e-01
-5.607259867752745208e-01 -7.728387678129183813e-02 -4.997074683526494532e-01
-6.703139589803407405e-01 -2.043186991225251214e-01 -1.822924033650429598e-01
-8.115063065371910245e-01 5.050614727759769051e-01 2.715094598622854183e-01
-6.646942000365921865e-01 8.944732135231538150e-02 -1.838142555810255430e-01
-8.375792376355354341e-01 2.636167640564482384e-01 3.361782338944697135e-01
-5.139793017282104914e-01 3.368595194489825990e-03 -6.337471005589999651e-01
-7.284560877790544620e-01 -3.294685910439484194e-02 -1.622091288048246698e-03
-6.991309001545623625e-01 4.084844891515062026e-01 -6.563164180757821708e-02
-5.792219333265986592e-01 -1.002759067100922885e-01 -4.462147501971662211e-01
-6.284430249626817844e-01 1.415604291257651914e-01 -2.882953045550588067e-01
-7.260048235696788810e-01 -8.174222453056124993e-02 -1.137449944439480193e-02
-6.287268910824861390e-01 -2.226803526224540031e-01 -3.061664035097218517e-01
-4.302429773590405460e-01 -8.582023965483903671e-02 -8.858519549523513614e-01
-7.740213757410969730e-01 2.699794626293275934e-01 1.486288993787177604e-01
-4.310686557735806668e-01 -3.031923524437145634e-01 -8.945771616146446226e-01
-7.836552226876561944e-01 6.934233862242704660e-01 1.988577506322253274e-01
-6.835782693040293179e-01 -2.425593569661293469e-01 -1.450476170494876815e-01
-5.491198739694520548e-01 -4.607898526494179081e-01 -5.537147908915835970e-01
-4.842792196617420331e-01 -1.878329517076695876e-01 -7.313617170147863611e-01
-5.428292854365801556e-01 3.869745537130094004e-02 -5.466521812764160160e-01
-5.291599093236931672e-01 1.378532059003969856e-01 -5.819652696425662297e-01
-6.497022573897737185e-01 4.240168655311647439e-01 -2.109441725186171623e-01
-4.990745166926337517e-01 -4.540481970018365732e-01 -7.013018801911934386e-01
-4.662827355448826983e-01 -2.008774578847291603e-02 -7.759423964487985881e-01
-5.110211453985429308e-01 -2.522887374265378457e-01 -6.556238938973725228e-01
-4.701114931414303033e-01 -8.245040296601059693e-02 -7.678280662100192000e-01
-8.130158611790475609e-01 1.338028294069648627e-01 2.569009881774935167e-01
-4.991913956642664019e-01 -3.928319062249095439e-01 -6.978118488117673879e-01
-5.947246048389464024e-01 -4.323775149178361588e-01 -4.174483535683362057e-01
-6.762041183191581650e-01 2.539730451961948465e-01 -1.413397898948949571e-01
-8.273999133759927238e-01 2.389435122240000375e-01 3.048208827666696319e-01
-7.443946543935042737e-01 2.668806234001315780e-01 6.089353559470151583e-02
-4.851079376959956391e-01 -2.363196580032007332e-01 -7.314026873600535383e-01
-5.598963311389263398e-01 6.046166362636466729e-02 -4.950842504637299468e-01
-4.509688692752774619e-01 -4.086174356752458880e-01 -8.411678441052979904e-01
-7.664773594862834827e-01 1.246762000518013558e-01 1.188649991209007467e-01
-7.143211190771114882e-01 5.358166729752781299e-01 -1.418880350329467833e-02
-6.801031097260240577e-01 2.339857554581543375e-01 -1.308411252266198921e-01
-4.198583945748382562e-01 -1.746613145128965427e-01 -9.211121995703329679e-01
-6.744368480808969890e-01 -2.093418088905756036e-01 -1.703632249888097916e-01
-4.783819622243292713e-01 9.538668645379071512e-03 -7.386554075298866762e-01
-6.320105510915198233e-01 3.036323981353490353e-01 -2.694244852726634942e-01
-5.630205422157064099e-01 -4.130539810002539225e-01 -5.101725245348456284e-01
-8.136564577038606361e-01 3.265534777688212653e-01 2.686957360656673233e-01
-5.411326945906276276e-01 -1.200422506257296656e-01 -5.598213708045978176e-01
-7.026842634017803624e-01 -2.189639783471207801e-01 -8.735851966139557279e-02
-6.414106638230471225e-01 3.872208866175467779e-01 -2.373441338502668696e-01
-6.729343886348232440e-01 -8.476780238238333653e-02 -1.684053970880740880e-01
-4.982033832859109612e-01 -2.180660601298402557e-01 -6.917550841332652523e-01
-6.803249102851347541e-01 3.331963572689587427e-01 -1.250892675186221215e-01
-5.309518769521311965e-01 -6.369436138645910850e-01 -6.164677516531483770e-01
-4.991271821009707343e-01 -3.245257642133439480e-01 -6.944929352939596123e-01
-5.614084727330839186e-01 -4.107077169944296779e-02 -4.958298660492765353e-01
-8.381401973726354537e-01 4.821493300396485493e-01 3.490619337782068787e-01
-6.493207219084383697e-01 4.496727607800178328e-01 -2.107541024142113029e-01
-8.332118471375704605e-01 4.192621391337213455e-01 3.312634288075904099e-01
-5.692128154718719690e-01 -3.073160385486874424e-01 -4.864367367553988353e-01
-6.319351703269141529e-01 3.014166385495631317e-01 -2.697611282089036888e-01
-5.602832144313698581e-01 -6.031128732103525625e-01 -5.280269121208915895e-01
-7.562900911808655424e-01 6.174827708403960447e-01 1.140659025950160055e-01
-5.717667482762418540e-01 2.450759165951300611e-01 -4.505122539842393303e-01
-5.926233335978831063e-01 6.791898693097411788e-02 -3.979606128556900102e-01
-7.259336583923587938e-01 2.522719236678916746e-02 -6.090092133497954086e-03
-6.939535250547075318e-01 -2.083441854481887789e-01 -1.126209488488169319e-01
-5.325483138950218853e-01 -3.838268124515123447e-01 -5.987466834112040726e-01
-7.383791506935242221e-01 -2.265550404420645647e-01 1.776514435028611963e-02
-9.027331780578717879e-01 1.602288541164939295e-01 5.234615948849138389e-01
-6.063099426669533720e-01 -1.020252136399341508e-01 -3.662328224407446764e-01
-5.108643123205359737e-01 -5.796153013431990519e-01 -6.729014959919150662e-01
-6.756959776567315057e-01 5.151217695433119026e-01 -1.294272430720781464e-01
-5.401899140142186750e-01 1.741963771679340134e-01 -5.474938621127585225e-01
-6.540745290139476920e-01 9.512156475785356335e-02 -2.149143853506710611e-01
-5.263504508622419698e-01 -4.699287892712988857e-01 -6.214903405268477066e-01
-7.571415704282966619e-01 -5.259998375388049568e-02 8.216226819793755187e-02
-7.320334330005848766e-01 -7.140360724790652258e-02 6.977058450911893285e-03
-6.874896724089524236e-01 2.313041492631415508e-01 -1.091442947197096142e-01
-4.606994087953130146e-01 -2.963727943893669503e-02 -7.929371714263381277e-01
-5.696981289551673600e-01 -1.403293741007343443e-01 -4.764244394561102935e-01
-6.390798971589461974e-01 4.234658386300570454e-01 -2.423720292338155391e-01
-6.966542990854297512e-01 1.922973212573441115e-01 -8.405747364675195121e-02
-5.654826297875985563e-01 6.627378811994018293e-02 -4.782726726245588589e-01
-6.714938860128939480e-01 2.200850673054037254e-01 -1.570039190001960849e-01
-6.454526204561157332e-01 -4.036576695838035578e-01 -2.660217605625995740e-01
-6.021310244956175062e-01 -2.073786983899665939e-02 -3.744101053396761136e-01
-5.783577587363090133e-01 1.559771544915336261e-01 -4.356061136516263255e-01
-4.933355182462104693e-01 -1.201179491770747593e-01 -7.011130596356719424e-01
-5.284455215506500547e-01 1.109781897828925612e-01 -5.854574973254558223e-01
-7.204704445337247742e-01 4.134143460411941473e-01 -2.299004814436727152e-03
-7.694095716559379294e-01 3.543156947028501813e-01 1.393286259438599461e-01
-5.284550584840668197e-01 -1.248436287542472045e-01 -5.975429256085430518e-01
-4.996301080048787813e-01 -5.179732077334874285e-01 -7.029432392527521500e-01
-5.818054407617976320e-01 5.655228295742697336e-02 -4.305220375023313117e-01
-4.248627104861116277e-01 -9.872683401264246983e-02 -9.024189321230003946e-01
-7.755338676149493571e-01 1.851414913318966127e-01 1.487418750739865070e-01
-7.529582579918387975e-01 5.709177745414132366e-01 1.018251134472321628e-01
-7.311562833846834142e-01 1.019871354021418264e-01 1.329089606936668423e-02
-4.559022669022886332e-01 -3.128073891224043557e-01 -8.216632484530377312e-01
-6.184829707460910431e-01 2.166022752933422224e-01 -3.138823633480715691e-01
-8.403245467496859300e-01 4.094054418077813784e-01 3.517821560445925089e-01
-5.864337356695767944e-01 -1.382586238506220422e-01 -4.268478449812154740e-01
-4.869472783867342947e-01 -1.367062918327890397e-01 -7.208487140482211508e-01
-7.452418816425789849e-01 4.776070486550224592e-01 7.422245500719956701e-02
-5.199395313058686741e-01 -4.860260232668464631e-01 -6.412678087019220152e-01
-5.522777444865086816e-01 -6.792915549066881331e-01 -5.556040939447195459e-01
-6.152653106721879261e-01 1.118332911968370619e-01 -3.287754620523562488e-01
-6.665926962626879115e-01 2.177560251675480785e-01 -1.716114064397838701e-01
-5.627221687224258639e-01 -2.622656349432235245e-01 -5.033088652425671272e-01
-6.024554161404520602e-01 -3.018949089019504761e-01 -3.878935924236254218e-01
-5.872012644745190357e-01 -2.202545969249228852e-01 -4.287909830909047981e-01
-5.893395469796917086e-01 1.811790783579890762e-01 -4.018495332941184328e-01
-4.247268703422068525e-01 -1.307903226820944509e-01 -9.044675007063225358e-01
-5.598317011934657028e-01 -2.301020914822709817e-01 -5.102008812190003129e-01
-7.195512234552327024e-01 2.222942653053229245e-01 -1.483360460394129131e-02
-5.300542831580272729e-01 -2.655607470071866816e-01 -6.000439509894894830e-01
-5.903819413727818821e-01 -6.445866971406997992e-02 -4.113860705463641132e-01
-4.254782427214252039e-01 -1.678164749884701601e-01 -9.041484017000511741e-01
-6.380423701657634838e-01 3.658080911882489183e-01 -2.484006894795220410e-01
-6.862470430836873359e-01 1.063448144085714919e-01 -1.192363609536093993e-01
-7.457549958414121383e-01 2.957679775557509050e-01 6.639856264998619806e-02
-6.500470487862691771e-01 3.334101862676342454e-01 -2.145792286192434173e-01
-6.301385668584488231e-01 -4.890324111850796740e-01 -3.156753960775230405e-01
-7.591512694765139013e-01 -1.991633607717935295e-01 8.057429072035331152e-02
-6.186053630774959178e-01 3.701342978367480607e-01 -3.056339897343053891e-01
-9.007902284523050529e-01 2.453496569143667205e-01 5.220907204122307022e-01
-5.295085953221073671e-01 1.252365341589997405e-01 -5.815826477304015807e-01
-7.039476791618985985e-01 -1.848275679729293186e-01 -8.187037178362893686e-02
-7.013698107542025717e-01 -1.374858570811823555e-01 -8.705868180478058826e-02
-7.486891234962803621e-01 -8.892304226437061643e-02 5.531111933888693821e-02
-4.220154432368777853e-01 -1.819049883457471983e-01 -9.151080838979732679e-01
-5.614584149540502445e-01 -5.723861836413879356e-03 -4.938665488289728511e-01
-4.034694307068920627e-01 -2.011939104240406673e-01 -9.709206707464993480e-01
-8.222188181306853139e-01 -3.110044098518436814e-02 2.756341050594103281e-01
-5.750489568855543521e-01 -6.337105937347692342e-01 -4.859513129908771267e-01
-7.728166974299651715e-01 -1.155290408561982091e-01 1.252652099295566424e-01
-6.735574015643995827e-01 -3.186998144166295344e-01 -1.785803237338703386e-01
-4.775287599900751578e-01 -3.902373782012442671e-01 -7.617130290754530186e-01
-7.598773164090495413e-01 1.891724377296552240e-01 1.026683839334569665e-01
-7.652399217230222428e-01 -2.701418616014513926e-02 1.074151670246655116e-01
-7.179556280550227765e-01 2.730293466547250025e-01 -1.694401947038807338e-02
-4.655190205705262985e-01 -3.480285509786616993e-01 -7.950454852872216316e-01
-5.089817748478721038e-01 -5.738866295741370527e-01 -6.781719824770067184e-01
-7.665780573823508526e-01 4.317927061453669113e-02 1.149763526664235314e-01
-7.670977064447209726e-01 5.850271888104651569e-02 1.172995581585878355e-01
-7.544502708326792373e-01 -1.866484480943940705e-01 6.732106495335650476e-02
-8.065041878043300860e-01 3.798107455425406842e-01 2.502894261435644196e-01
-7.308528980050414958e-01 -2.667275319792852817e-01 -6.545923414181743089e-03
-6.770336294701516655e-01 -1.661741937376859934e-01 -1.604697545024843242e-01
-8.441027527006303988e-01 1.352051748165397360e-01 3.488654501012428688e-01
-5.721482024781484599e-01 -1.541361536829927992e-01 -4.698912778027453108e-01
-6.995128223033045822e-01 1.010479769160579494e-01 -8.029498503357512806e-02
-4.072002179462148042e-01 -2.352232861210637738e-01 -9.616405246550691066e-01
-5.893135449354004463e-01 -4.592558674666237517e-02 -4.135922343760042308e-01
-7.038853170352014077e-01 1.048635187839972172e-01 -6.717395480618226777e-02
-6.582527072917627731e-01 -1.763035662007118648e-03 -2.075404844283849359e-01
-7.700854907159115914e-01 2.754621565242512671e-01 1.372761102644493025e-01
-6.216799656947097352e-01 3.231684881841753731e-01 -2.989580310011754061e-01
-7.415086252359320840e-01 6.001773893652273539e-01 6.948315390453553564e-02
-6.595912948547972832e-01 -2.083442563563007444e-01 -2.141952355795122553e-01
-7.616197922832658174e-01 6.322527427113887599e-01 1.305791254154879955e-01
-5.202486427539010361e-01 -6.226815503727257672e-01 -6.473737566482438144e-01
-8.189819636164281658e-01 3.715536829335438496e-01 2.867494148632779294e-01
-5.757852550747459830e-01 1.023834046060930342e-01 -4.459633858421418462e-01
-5.325111224599113902e-01 1.153546677384916647e-01 -5.732148270611137075e-01
-6.154356397107836329e-01 -5.425172478583505098e-02 -3.368033734245372557e-01
-6.754881259437141017e-01 -1.430850444155274959e-01 -1.638522058190093889e-01
-6.662704113954036611e-01 1.764743045395467946e-01 -1.746846222530264725e-01
-8.354586394061439547e-01 1.225434916790142242e-01 3.226631680128886903e-01
-5.189353468274110481e-01 -1.963157791957734766e-01 -6.293544216643830458e-01
-7.680980309924178018e-01 -1.533169565693704162e-01 1.093758188956562294e-01
-5.922897380127004618e-01 -1.970175842250403153e-02 -4.034475911147624716e-01
-6.980582483565710428e-01 -2.240557473312861092e-01 -1.012945092959302990e-01
-6.188995784790879418e-01 -2.545633420100246735e-01 -3.368535604702689312e-01
-5.738801200337294572e-01 -7.372673000585558412e-02 -4.606413077525476907e-01
-4.937311837850705265e-01 -3.217949923524138223e-01 -7.103031591966151304e-01
-5.348453134398684083e-01 -1.550006401349765528e-01 -5.802025149103664514e-01
-6.706787415388604234e-01 2.077551310450140645e-02 -1.696515440075886672e-01
-4.789797503158499392e-01 -4.140985143284272585e-01 -7.586496126589609146e-01
-6.463473767640547374e-01 -3.288448412872092552e-01 -2.595339118364343167e-01
-7.706150712916791656e-01 5.032200784748517286e-01 1.505409388941337245e-01
-7.753673990886075229e-01 1.885857939195994259e-01 1.484267222115988050e-01
-6.186414394700798791e-01 -2.339460757902266375e-01 -3.365575547546457713e-01
-7.169442825847276435e-01 2.511159004497457436e-01 -2.105918572246690684e-02
-7.448884387062246759e-01 -1.790333693072996279e-01 3.944758871859148364e-02
-8.011522365897623121e-01 2.154509697580189176e-01 2.260263513601212804e-01
-5.056976796240110206e-01 -5.504788036739259593e-02 -6.612281811017245436e-01
-8.214301463644009260e-01 3.199597278791136423e-01 2.913359479352605752e-01
-5.262412908114973975e-01 1.183395783152459274e-01 -5.915950358424381106e-01
-8.681404103259846572e-01 3.081138590417955014e-01 4.288023553704051194e-01
-4.630735363955224559e-01 -2.510694335456199466e-01 -7.972937383439586689e-01
-7.146205985450911902e-01 -2.501774964310784014e-02 -4.211230852845800759e-02
-8.164600434063805645e-01 8.965963510769747735e-02 2.648144103873761868e-01
-8.784288277378119458e-01 1.746716305039088812e-01 4.523601592246793146e-01
