2.846730834745515026e-01 4.694490005331596882e-01 -2.754145124704020509e-01
-4.522604429914051094e-01 7.994949806799666048e-01 3.341677937807745469e-01
3.057157829237428306e-02 -6.639304209778192911e-01 2.419269021020413815e-02
2.078326470607314014e-01 1.327988763853575060e-01 -1.852493560734514988e-01
-1.246124028898802638e-01 -6.588561823095808734e-01 1.571781043719795434e-01
3.641801793009226129e-01 -5.129912423652058795e-01 -2.732980500457375950e-01
-3.709365019196302904e-01 8.082197054215369825e-01 2.636608052883615549e-01
6.578417490153398717e-02 8.643723989808406172e-01 -1.156381083663767378e-01
3.551272465224869501e-01 -6.890730170584704606e-01 -2.528945855835237344e-01
7.037675850581200099e-02 -1.417894428294717076e-04 -5.760257692762066339e-02
6.639430326095234480e-02 -7.354498197120962200e-01 -1.462058172123440738e-03
-9.978238514737995668e-02 7.324749447094552890e-01 3.608930822068000255e-02
4.108990513376029607e-01 -8.770660169413774243e-01 -2.873408761210330398e-01
-1.475582544085062009e-01 4.082206682840978096e-01 1.003906245612711523e-01
-2.459015077742494060e-01 -4.332209081496143921e-02 2.172704038062785448e-01
-4.572152492000173263e-01 6.735665460075620503e-01 3.474539706058825672e-01
1.717491662969723026e-02 -9.343284987996304247e-01 5.509078117599617436e-02
9.427295817722125548e-02 -7.538310261622552799e-01 -2.410026510912841383e-02
-1.555143595005070156e-01 -5.276229283666540315e-01 1.743232234638964484e-01
2.989208491162014258e-01 -8.008217705774869355e-01 -1.965846637070115810e-01
-3.365428523331406296e-01 9.225333753465241315e-01 2.259106308032980959e-01
2.424784166041732414e-01 -6.492016468745712698e-01 -1.589543265639466463e-01
3.097706382377219403e-01 9.141575520273337307e-01 -3.288644591003779261e-01
2.675710018041285720e-01 1.849820388376431923e-01 -2.403236850536738245e-01
2.813462647884593659e-01 7.253431116913268417e-02 -2.440987192053163668e-01
1.142962702849613654e-01 -8.378083564671311434e-01 -3.528543690019336071e-02
3.481615117263457404e-01 -7.974085361971716690e-01 -2.391417586801978801e-01
1.840796370523637565e-02 -1.294933404519821307e-01 -3.671972168479282518e-03
-3.340677739522914802e-01 1.560559587966097450e-01 2.787369168756770876e-01
-1.100474621994569496e-01 1.074036734006020705e-01 8.972496979851649068e-02
3.153735390691979057e-01 -3.589198630862757144e-01 -2.424048749361586985e-01
3.890679211989329644e-01 -8.861612134135754548e-01 -2.679293531980799781e-01
3.278868490634816862e-02 -9.004858945200305831e-02 -1.885730869355005043e-02
5.226998379209789325e-02 1.902182342070126431e-01 -5.569145991205651930e-02
-1.156094381055924603e-01 5.598883590969917501e-01 6.206316763321944457e-02
1.819580059821571671e-01 -4.857578764395882320e-01 -1.186674971340603846e-01
-4.605564854923571150e-01 8.251140201091661242e-01 3.394597884970987356e-01
-1.651406989834181827e-01 6.813552456014669856e-01 9.591660856984876582e-02
-2.752490824004334424e-01 -6.986222484345876449e-01 2.894708892070833595e-01
3.927148491908739047e-01 -2.361647520305963990e-02 -3.329038757200957765e-01
3.301930439790440874e-01 -2.505042711030052716e-01 -2.629121681478401307e-01
-2.835332220567189920e-01 4.423967339441181590e-01 2.147833053227686806e-01
-3.407047085703862055e-01 -5.918793402988353769e-01 3.380637438054382993e-01
-8.025024916691365917e-02 8.482637649325082407e-02 6.573899210187859887e-02
-9.277684344976913633e-02 3.922102997193488982e-01 5.446496639812989371e-02
-1.845249742990898445e-01 -5.848914607312394320e-02 1.656171110945883207e-01
3.813182186405383312e-01 3.148385966841085182e-01 -3.473765434332858337e-01
-2.059478617875612760e-01 -1.529713209190359802e-01 1.907997090596579293e-01
-1.659148811145861602e-01 3.102568538178747670e-01 1.231880106412379661e-01
1.532626515191139738e-01 7.825918555152382439e-01 -1.849448379957677469e-01
-1.954319776641815776e-01 9.401979492450244225e-01 1.033879281264889066e-01
-1.991661919358007349e-01 -6.992815848599104323e-01 2.241403192594692839e-01
-4.561721143259685474e-01 5.915244848797314159e-01 3.524396682184350316e-01
-3.289065049772516569e-01 -1.249076309247492689e-01 2.944457249714934610e-01
-3.555675262383329316e-01 -2.770271414346982541e-01 3.282617860828427880e-01
-6.134685966384936101e-02 -1.065757495749739686e-01 6.321806018312749187e-02
3.318911664301298359e-01 8.992610873905827473e-01 -3.468045627525857544e-01
2.337122671729550127e-01 5.513244088301185591e-02 -2.019193028513047994e-01
1.949607478444960462e-01 -5.018930111650663495e-01 -1.286839020275088175e-01
-1.685310086919931671e-01 -5.575712729097483944e-01 1.876555649904721457e-01
-3.958095084806348418e-01 4.066123155434326342e-01 3.138276313724105981e-01
3.224257973501768459e-01 -3.453023341962556114e-01 -2.494411811221551589e-01
-2.309727365019244028e-01 6.751194148201965506e-01 1.529329993352235018e-01
1.297804847618768687e-01 9.582337424485375399e-01 -1.773594330271382746e-01
2.795820317712576220e-01 -7.362815399917782555e-01 -1.845941206279592128e-01
-3.763579188425512645e-01 -3.520109033949443411e-01 3.515029308915643136e-01
3.705958022534214247e-01 -2.330888306779737087e-02 -3.139190858620260483e-01
-4.756263807490642148e-01 8.464131977486117897e-01 3.508822537052309065e-01
-3.710142290587427616e-01 2.187457474166597804e-01 3.059903286613828710e-01
3.346945172756830567e-01 -7.550944320376439256e-01 -2.306033415282609800e-01
-1.503622100749677504e-01 -1.488926265091468915e-01 1.427426698787364612e-01
-1.561354210134227316e-01 1.726076155967342651e-01 1.246533994058914713e-01
-2.743242474072021819e-01 -7.738954421173864784e-01 2.940729431049786124e-01
-1.956954046246182355e-01 8.318214283518176044e-01 1.113844179630037040e-01
1.062992521756678105e-01 -1.929146512957054804e-01 -7.464970756650129990e-02
-1.895126669621935989e-01 -3.374427099387574125e-01 1.899027869221094067e-01
2.105884374324654834e-02 -6.283001894349506955e-01 2.981242626035723875e-02
-3.058869415373921541e-01 6.040223791994134839e-01 2.224039422010759270e-01
1.002875391140301345e-02 3.095309511492397997e-02 -7.975053019713695263e-03
4.070540851956765960e-01 -2.072748324360781588e-02 -3.454326743402479361e-01
-3.411890791143833840e-02 -5.051844670464910037e-01 6.839966849854646480e-02
1.339445216650680948e-02 5.670966495348739311e-01 -4.930636270199349747e-02
-2.051564269106205540e-02 6.968524715908227529e-01 -2.947043230403919786e-02
7.550384458087799899e-02 -5.446417600389541480e-01 -2.296997714030724058e-02
3.230150897283105005e-01 -7.981006024322281345e-01 -2.174838816634449556e-01
-9.441993754681821116e-02 4.471821024151130808e-01 5.193563269655404602e-02
2.431729329396721262e-01 -8.145908567995613359e-02 -2.002558082455707655e-01
-2.417471175483490997e-01 8.321444025134369094e-01 1.509333862885210986e-01
-5.031268090886611283e-02 -7.177041438216096303e-01 9.755167942259389269e-02
5.274431709670453217e-02 6.244837913321271694e-01 -8.723401510482231558e-02
-7.307949027054058688e-02 -3.507471883622867992e-01 9.080591677800073369e-02
-2.771116468303916813e-04 -6.232184873183642670e-01 4.778202443674550715e-02
-4.250868878959711272e-02 5.132139865237778098e-01 2.594223297598053507e-03
-1.813828667329565048e-01 -2.613643751499761247e-01 1.774623820101639826e-01
1.518871308955625082e-02 -1.578556428756013874e-01 1.127776388522160013e-03
1.032407796321789389e-01 2.419375829496855923e-01 -1.031985935541656768e-01
-1.953066224072152676e-02 6.330183217273412932e-01 -2.574019120495256094e-02
-1.606734835388689553e-01 -8.069228445088590940e-01 1.987810418123501233e-01
-9.407869174952733504e-02 -3.345929391733133418e-01 1.076922894194755481e-01
-3.490520051109827215e-01 3.193683483446353999e-01 2.799040382115589032e-01
-2.795419130306290856e-01 -5.694725347658674552e-01 2.839002323100434655e-01
-1.446340953282256904e-03 -1.727076747346445451e-01 1.648706403516589716e-02
-3.484513974956535143e-01 3.225039327118416344e-01 2.791631297239588472e-01
2.647066569808408376e-01 8.467474861812570586e-01 -2.853080802332517152e-01
-8.328712521004894009e-02 -3.878800930450364559e-01 1.022395811151153577e-01
3.320479740475112962e-01 5.050633166665005058e-01 -3.186770323544421135e-01
3.075165381977126855e-01 -2.550758888504190969e-01 -2.430985370295813408e-01
-1.843036900707574824e-02 -2.257588057949724003e-01 3.488493435256725256e-02
-2.467358444846685650e-01 -6.011866136682429973e-01 2.579838201786368024e-01
-2.821629952709399716e-02 -5.100016916611630480e-01 6.367294572892528981e-02
-4.404933418631010733e-01 8.712205600620038792e-01 3.189139388427410515e-01
2.616560978699180029e-01 7.174411214668002801e-01 -2.734160353068175731e-01
-2.008233553318881925e-02 -9.501303949857543563e-01 8.823877434476250226e-02
-3.661315199846469914e-01 7.861736806354514551e-01 2.611125006773788448e-01
-5.556761186805406899e-02 -5.305315258393507039e-01 8.864776175978210382e-02
3.926738516603695550e-01 -5.102700579522827518e-01 -2.979776900986834676e-01
-1.830015704065230675e-01 6.548634635580851127e-01 1.131637578232610325e-01
-1.250684603056180788e-01 -2.665602726746134077e-01 1.294440738053086737e-01
6.203736051941603769e-02 1.886609595902308534e-01 -6.397289296921075674e-02
-2.229505983181214457e-01 -1.140325888056680226e-01 2.026183802982862991e-01
-2.030294030072379852e-02 -9.209140174489639508e-01 8.633365160665867899e-02
1.338075647955591987e-02 -9.718751436215358752e-02 -1.668293277210344469e-03
9.924937719403202629e-02 1.947854669275629058e-01 -9.638818847908330045e-02
-2.817208095012427305e-01 5.123674735820914899e-02 2.412703824699326816e-01
-2.384728340063305141e-01 8.237276287822632437e-01 1.487232487209224352e-01
-3.491588910902833631e-01 -3.480152049060330488e-01 3.278443986346323835e-01
-2.211658715194377844e-01 -3.603810010286163101e-01 2.187468843441171817e-01
-2.255209859275792428e-01 -2.938676237015879211e-01 2.177205020861273099e-01
1.467062175244052691e-01 -1.828427979241497858e-01 -1.100934222842774729e-01
-3.385363946769085475e-01 -5.537283792920605352e-01 3.334652581278674255e-01
-1.000909820743613038e-01 5.524489616371409673e-01 4.926156897035897236e-02
-2.243736551472133578e-01 -8.956063482024766431e-01 2.598766668864894713e-01
-2.299880001035761734e-01 -7.786422579577742531e-02 2.060724872663591278e-01
1.560354661504147755e-01 -4.605042147761913007e-01 -9.820290040787871266e-02
-1.107431107296932699e-01 -6.341137794884696977e-01 1.434863323295139936e-01
-8.627055747992790069e-02 7.246566284426770865e-01 2.503916723756129115e-02
-1.183422316938192997e-01 -7.188361633001329187e-02 1.097067679674139096e-01
1.983408636258210678e-01 1.781719496784438250e-01 -1.803461428688923618e-01
-3.170010529747278039e-01 -4.515548974408022387e-01 3.076345950937682261e-01
-8.158801789999508766e-03 1.943260880225904652e-01 -4.059667745079897395e-03
-2.125808967493693358e-01 8.156103729643039424e-01 1.270563425479783459e-01
-1.245817859199641470e-01 1.745976262023607173e-01 9.739676286554833917e-02
-4.373662035468942749e-02 -9.240511962117440303e-01 1.066950776541542023e-01
-1.070029801155696209e-01 7.682497564854176009e-01 3.972904856310836147e-02
-1.712303689136615292e-01 -4.181129026950856642e-01 1.799765567948886924e-01
2.237537075630134098e-01 -7.763085807919525294e-01 -1.337512126475841889e-01
3.141355569547427118e-01 -7.121998561671936123e-01 -2.160124327763742746e-01
-2.736880732912286285e-01 -7.892708398977260620e-02 2.437000555083094211e-01
-1.104099322680578144e-01 -9.243040762605624350e-01 1.640054217631623512e-01
-4.012140746921912249e-01 7.964054926177648319e-01 2.905252773968752811e-01
2.311807769442858485e-01 -8.923006353536694357e-01 -1.318171466722675711e-01
3.613466102438030875e-02 -5.408048933413505122e-01 1.058477916633569771e-02
2.691194773662100026e-01 -3.763562958552135740e-01 -2.014087561530412684e-01
-3.466392870107679602e-01 -7.979792215242371700e-01 3.579397823943826218e-01
3.971556313010950884e-02 5.209784989064570881e-01 -6.861755703027805353e-02
4.954920164597528126e-02 -3.144410350495171480e-01 -1.717161210368717272e-02
2.386395560309660102e-01 3.625657034780045418e-01 -2.281949450282611813e-01
-1.233076822232516273e-01 -8.630952344360806050e-01 1.707000175647213902e-01
-4.277032656484080486e-01 8.467796153041545759e-01 3.096757676667769577e-01
-7.176083303088331977e-02 7.388745176329024611e-01 1.155163539377660614e-02
-4.158634267182114153e-01 1.844052141935892180e-03 3.600800476149953466e-01
-3.246287375801157893e-01 -8.417032738436892869e-02 2.878491614916666719e-01
-6.554304939605153091e-02 2.052430077621333615e-01 4.446777982277996810e-02
-6.174743231416907237e-04 9.595904504361116305e-02 -3.487420544923558723e-03
1.577143480049881530e-01 2.074531884041586893e-01 -1.475352155955479416e-01
3.513779447222545871e-01 -1.944851403576497162e-01 -2.851326308204429338e-01
1.834854882700353296e-01 -1.852647985950499343e-01 -1.415241126261187476e-01
3.491189886767109285e-01 -4.079627926071658361e-01 -2.678860912920114634e-01
6.568962932737887339e-02 -3.978302758459158484e-01 -2.506239428652310211e-02
2.273702105414059094e-01 2.085535399142365853e-01 -2.074692181908067701e-01
-3.214321138714704706e-01 4.970904992039335002e-01 2.434284239231309377e-01
3.862480023625623482e-01 3.061151762773916540e-01 -3.509872630126804061e-01
1.307920136140295064e-01 -7.303368456969421274e-01 -5.716543114315972285e-02
-2.643264590694466287e-01 -7.006225147113156471e-01 2.802285161571354544e-01
2.785127814482140085e-01 -5.159425936532936463e-01 -1.994726656748320726e-01
-1.994536726561775553e-01 -1.988689189840515958e-01 1.885099274586477525e-01
-2.031031770249357160e-01 -7.177414327318025755e-01 2.288468521406210598e-01
3.573693377905875490e-01 -4.596536354800766500e-01 -2.712695862764582522e-01
-1.487129069915268109e-01 -5.644164562894374848e-01 1.711166887511617607e-01
-5.948921120701428089e-02 -1.443649199673740502e-01 6.433110744718818774e-02
-9.426852146830369539e-02 7.114298654734566574e-01 3.286009979672457892e-02
1.513299645428856088e-01 5.376987606263845532e-01 -1.657263093507203577e-01
-3.246449438840894874e-01 -4.573699504894380152e-01 3.146198859858519992e-01
7.931433657282140059e-02 -7.235715914775026070e-01 -1.341582874469256226e-02
1.206557026601977195e-01 7.757760933275797965e-01 -1.564371060039179417e-01
1.511621742030534211e-02 -3.807750210920896050e-01 1.717242677375513046e-02
4.560148275470125023e-01 -5.845817842762927041e-01 -3.470786063190393067e-01
7.793071249079393248e-02 9.563455174664925451e-01 -1.326696730861242346e-01
-2.380073093076482682e-01 -2.921141769520974041e-01 2.283242546524639205e-01
-1.695329393696800302e-01 3.666535730628964207e-02 1.459123259428272423e-01
-1.252609118856718162e-01 -3.698011934358946817e-01 1.370113743591641342e-01
3.886307083381673744e-01 -2.544607337737642486e-03 -3.309051452495507806e-01
-2.822166110732882149e-01 -6.024969883257436098e-01 2.885663042414495782e-01
-1.229057687724051523e-01 3.132669322658832023e-01 8.601457609401835791e-02
-1.932926493782883837e-01 1.792504191556554272e-01 1.561062544974403110e-01
9.664440369055676827e-02 4.738781711760379767e-01 -1.141594806208573454e-01
5.943318512732193026e-02 -3.908680083699979657e-01 -2.018541156005072834e-02
-9.046085505923877335e-02 -8.551554329452615288e-02 8.672571947152982186e-02
3.045775210356037044e-01 4.300964645189587210e-01 -2.896969403513372510e-01
2.209642013474372446e-01 -6.282076291115171740e-01 -1.419723943132305266e-01
-3.628390563628591248e-01 7.667126028108298685e-01 2.596785698358594074e-01
-4.247556222331026476e-01 4.340121874626609033e-01 3.367365037761251290e-01
2.780985847513371412e-01 -1.403638590720384383e-01 -2.260441179244960241e-01
4.678811089454610467e-02 -2.415433503593078512e-01 -2.002546220597412399e-02
9.943045737538139250e-03 6.087821208331393175e-01 -4.932924556124093640e-02
-4.273364250502239003e-01 4.434785074519827508e-01 3.382754871283286668e-01
1.551205208628091969e-01 4.481926634253751707e-01 -1.625663251647535001e-01
-2.703319593812593125e-01 3.618006242584948517e-01 2.092178850170171855e-01
-3.427843318045660226e-01 -8.641020950897576602e-01 3.593679527998340784e-01
2.079418727167859499e-02 -2.598849379686980487e-01 3.626065210176833333e-03
1.175707948713399648e-01 9.541480590392156236e-01 -1.665747505697281472e-01
-3.940429739713501855e-01 5.080334168583484633e-01 3.050381983924779772e-01
-7.064922551509954241e-02 7.849102083349617232e-01 7.295873911042458082e-03
-1.032867422394116892e-02 5.943283027615398062e-01 -3.087352999949481355e-02
1.153655445525974821e-01 9.366110470369426455e-01 -1.634224564768159138e-01
1.987257506996301659e-01 -5.369536685478518701e-01 -1.294054623073082055e-01
3.846840782790327817e-01 -6.199472492724132922e-01 -2.832487172549335019e-01
2.074353709800601797e-01 -5.494315987385263167e-01 -1.359950040789676129e-01
-4.795056143858995590e-01 6.398852733840472151e-01 3.690228283774961149e-01
2.159972962191830936e-01 4.468152184795633475e-01 -2.147788323518249887e-01
4.241099209716286400e-01 -7.657929524395223897e-01 -3.066707413960300110e-01
-1.739680023118321261e-01 5.443267759733798616e-01 1.133262371755405507e-01
-9.870134531009683299e-02 5.371278505880341392e-01 4.916591488151611511e-02
3.512219202027577758e-01 -5.945709140170788443e-01 -2.563141401948822451e-01
1.941646800289947017e-01 -8.220359191900529217e-01 -1.050469813852722700e-01
2.751814349966278384e-01 -5.336705407516640909e-01 -1.953390307114001301e-01
3.007445202708151077e-01 -5.606298521151917846e-01 -2.153724613116664854e-01
2.012555958220946795e-01 -5.263296916363653377e-01 -1.323410452112734337e-01
-1.271318821752355499e-01 5.268429870772802781e-01 7.433358582842448936e-02
-3.366568503114479305e-01 1.182133347256317385e-01 2.836748562855496147e-01
-3.871385399619030609e-01 -3.918681537740534293e-01 3.636242846507692916e-01
-2.332071057492152988e-01 7.006952419464712589e-01 1.530193111995006017e-01
-1.542098476900251314e-01 -1.079315752570913639e-01 1.431122052910363263e-01
-6.651831016917483796e-02 9.188018377491867783e-01 -5.853262125700287553e-03
-3.086627602885927413e-01 -6.665706038638830044e-01 3.158852165606889639e-01
-3.756973076078470308e-01 1.481850027105211520e-01 3.150733867325763438e-01
-2.407546561031703725e-01 -3.865531894902230481e-01 2.374559116691324911e-01
2.584965293251901830e-01 -3.894975463039224706e-01 -1.913383121014728405e-01
-1.717132197128338755e-01 -5.168523060606281527e-01 1.874706573637952289e-01
3.306800115279922014e-01 -3.866980694392238571e-01 -2.535661120254078527e-01
3.791291350558760875e-01 1.165433224974100485e-01 -3.312785559652028367e-01
-3.235932611235099038e-02 1.045431949094380586e-01 2.317282858096709683e-02
-7.424422264690430130e-04 -6.335123078405032748e-01 4.891990426341245174e-02
-7.863380014436723020e-02 8.869490594386582050e-01 6.841255154699209251e-03
-3.525674727769479988e-01 2.039384859380406756e-01 2.912006927376331045e-01
-3.768554630570905006e-01 2.012266707889384942e-01 3.122657287401249260e-01
-3.145049834125465682e-01 -8.720550634921385713e-01 3.356377713862173651e-01
-3.239356305431047578e-01 3.428339003004982621e-01 2.566392204734500582e-01
-2.534551461800743644e-01 3.780185633233352216e-01 1.935529246799314318e-01
-5.597939118484045878e-02 7.617534324313962601e-01 -3.649638163108874685e-03
-2.113333716530332515e-02 7.342780706313617456e-02 1.575720245979208428e-02
1.976884899740450618e-01 4.741257845030542040e-01 -2.010041694014791103e-01
1.971983766016123796e-01 -7.579504351401576967e-01 -1.122484813858755093e-01
-1.715003714588098083e-01 2.471360835882391027e-01 1.325130949752983123e-01
2.523706053761276547e-01 -3.850684718470884227e-01 -1.863918661266717181e-01
-4.427078818521443943e-02 7.776145165484331656e-01 -1.484798317039854286e-02
3.698950899849727247e-01 -6.418438317210777289e-01 -2.689706855853905010e-01
3.747498010036729998e-01 -4.707252294512268009e-01 -2.854107903758747455e-01
3.669816522859991048e-01 -3.613969928418141464e-01 -2.865740007939571732e-01
2.806327801595105975e-01 -4.912215759245154856e-01 -2.030667654016325707e-01
-1.787213569417756831e-01 2.788622003237319902e-01 1.364434448052332383e-01
-1.782831503075348045e-01 -6.625431816328797296e-02 1.608102562648406342e-01
2.213551841981712676e-01 4.579617046005707293e-01 -2.201820072089051006e-01
-1.187639008054746231e-01 9.217405179800464143e-01 3.883055534571691614e-02
3.047453544042848517e-01 2.418811527997083710e-01 -2.763469355526946836e-01
-7.577525817455080248e-02 1.353551813901369694e-01 5.827094658179898107e-02
-5.016712123864858902e-02 3.895477525717154499e-02 4.317742928087430626e-02
-2.162775295582732571e-01 2.062213469946273525e-01 1.739234069209554534e-01
1.440235141230481741e-01 -7.318733783937858561e-01 -6.842506439129733553e-02
-6.055738205354405101e-03 3.988493423185275888e-01 -2.053025766835380253e-02
1.327266840701862294e-01 2.029855610182201842e-02 -1.126451996729935789e-01
3.294554335379737964e-01 -4.994954545134853707e-01 -2.444267506257439826e-01
-3.980357937257631568e-02 -4.623583801979623265e-01 7.021404761368887915e-02
-1.564664465673900329e-01 2.090812642250007847e-01 1.223228460380744592e-01
-1.096170092988481976e-02 3.983483083134692904e-01 -1.627865393889342885e-02
1.034774551330543690e-01 6.053112964454768763e-01 -1.294542914789479915e-01
2.523678163773521166e-01 9.055201713294283583e-02 -2.204894009983015823e-01
1.148969049339608889e-01 2.161536093397018465e-01 -1.113660741281569111e-01
-1.530075302649552549e-01 9.304325810802089869e-01 6.763283898699054553e-02
-9.638251669397641941e-02 3.902599047775738572e-02 8.288509963200363373e-02
2.114208991911907531e-01 7.942782160967396532e-01 -2.357579393392276179e-01
-3.629975808676404458e-01 1.900421031590558418e-01 3.011595696132394195e-01
4.244373959779121352e-01 -3.490080953183933854e-01 -3.368338110465210478e-01
-1.094776342335470817e-02 6.698037427739689242e-01 -3.575281069640336845e-02
-2.392652687960942770e-01 -8.186517702436563182e-02 2.143312724364094812e-01
-1.305069693638203077e-01 2.758250603897713371e-01 9.523068938778021797e-02
-1.809431515024103113e-02 -2.014196282098483504e-01 3.285115035831127905e-02
8.599777957677416651e-02 -5.915512392400297248e-01 -2.862418307097224640e-02
-1.392418859914513751e-01 5.950132339228512285e-02 1.182460579543536533e-01
2.119028865148731289e-01 -3.084593662276559067e-01 -1.571105958286265203e-01
-2.837831587967579727e-01 5.447169240641797083e-01 2.076621603731043930e-01
-2.702701635307546701e-01 9.227047868089550686e-01 1.689503820979855742e-01
3.230252194137843702e-01 -4.051923157430619149e-01 -2.456624104504567530e-01
-1.205336766329798137e-01 4.655204982099054312e-01 7.306032112024139769e-02
-2.900793303940024659e-01 -3.145004442500516917e-01 2.746746134126733518e-01
1.929722730080514759e-01 -3.404475354784484153e-01 -1.385501526369805059e-01
-2.415224869262264096e-01 -4.191769377507054695e-01 2.404546884305029109e-01
4.954234946231952930e-02 -5.699611822653170012e-01 1.153965096315575809e-03
4.347901910568410244e-01 -2.680795147156053715e-01 -3.515321716326135770e-01
-1.136012663547100593e-01 -6.306748788383316207e-01 1.456957841616151050e-01
2.722678011947057830e-01 -5.862106638550471788e-02 -2.268943444922403019e-01
-3.240576809971639216e-01 3.223947115867354940e-01 2.582094995374885071e-01
-3.342079690893292598e-01 -2.975093321979664918e-01 3.113760553838397227e-01
-7.683591610182640558e-03 6.778766453294826633e-01 -3.913649773300278967e-02
2.286462616336888132e-01 1.469900996390134384e-01 -2.041518934358023118e-01
-1.375182885840928737e-01 7.837689733378814250e-01 6.483811771548697589e-02
-8.337663778177384008e-03 -8.245944570637513404e-01 6.914622299697804897e-02
-3.037872015363835554e-01 2.373008637144533028e-01 2.468919869244030618e-01
3.897264952186519499e-02 -9.143130531687944373e-02 -2.407203960296649264e-02
1.108894243847419192e-01 -3.804486671596750136e-01 -6.514865367246468197e-02
-2.837235699359478280e-01 5.819666458076050430e-01 2.049403119099929005e-01
3.003603242681779917e-01 2.146748656833778746e-01 -2.706283168041779819e-01
-4.030459661555241269e-01 -1.657964348506658359e-01 3.610851328105167957e-01
1.237491643920251017e-01 6.228029762463421770e-01 -1.481277993877794241e-01
-1.785021251457716285e-01 5.984025852938604229e-02 1.519579851632040235e-01
-1.817591898278622664e-01 -5.379609504005389287e-01 1.976165333698756132e-01
4.500442090932748052e-01 -5.749137059515260217e-01 -3.426412278887486784e-01
-2.819920278747681253e-01 -7.304680594779153768e-01 2.975482926275629936e-01
2.441238341495774455e-01 -8.029006804336886738e-01 -1.493486740523511380e-01
1.416315284547499942e-01 -2.707173216545233907e-01 -9.943253119755124381e-02
-2.133593953553963030e-01 -4.226092824507964307e-01 2.165002970561935858e-01
-6.974398631010587934e-02 9.213901067376718546e-01 -3.267014203829706528e-03
-4.713073797922607833e-01 6.394638504641565468e-01 3.620083196615833665e-01
9.982697097792306296e-02 7.899423620175416438e-01 -1.395546880399634593e-01
-1.700485807059000098e-01 8.504858769023743159e-01 8.800800474015485486e-02
-1.523554401740283004e-01 7.541435714477704444e-01 7.971165890513999541e-02
-1.774981185293336983e-01 -8.266792175825276034e-01 2.146548559513175025e-01
1.942432963813665175e-02 5.702867884812464760e-01 -5.471654081297347427e-02
-4.151199033587126830e-01 3.258305665903513115e-01 3.362127083426481033e-01
-1.372055454658469842e-01 -4.777527660976465529e-01 1.550150294973298704e-01
-3.030485334498487227e-01 8.128266328498530147e-01 2.049945434132193767e-01
-2.267987975856443073e-01 7.456936672540033229e-01 1.442864752584483434e-01
2.738298843873646082e-01 9.618707880813293087e-01 -3.014014899138818815e-01
3.324718861558448868e-01 -4.643932162481152481e-01 -2.495354596015398607e-01
-1.180603020384964896e-01 -8.392692655810083391e-01 1.644827377260778267e-01
9.507356229977281803e-03 -8.659234601507951323e-01 5.677515171618345569e-02
4.228556545160621072e-01 -4.581561593242453601e-01 -3.276491804829609333e-01
-1.594937235048072069e-02 -5.611782553777071997e-02 2.059049560820800165e-02
-2.797620801869816209e-01 -7.297795810540282924e-01 2.955827431140792827e-01
-1.176794613047276589e-02 4.032696596366464048e-01 -1.593868901114412970e-02
2.347055866120882073e-01 -6.190092416244182827e-01 -1.544398176198782668e-01
1.502861449309798869e-01 5.878509833183369615e-01 -1.684250551142711105e-01
-4.068185192923441384e-01 -2.375559746375846548e-02 3.541431649355338829e-01
1.852320234823601752e-01 7.115512784822960457e-01 -2.073227390185769237e-01
-2.174919504891009436e-01 -6.539819686873378224e-01 2.366398122144653116e-01
2.672665852975552592e-01 3.808795882841650160e-01 -2.541071075067830587e-01
2.171477999993710051e-01 -1.094149386976869393e-01 -1.758881615023866474e-01
2.110254548518007978e-01 -7.645824880708838034e-01 -1.236545663722059263e-01
1.566863679600766501e-01 -2.559374139468213460e-01 -1.134287733710204055e-01
2.397454587038586882e-01 8.296751656008596321e-01 -2.626349721335256571e-01
-2.300736969023665646e-01 1.021469905069531670e-01 1.932401008634569151e-01
4.992001489715228169e-02 2.954253052588121792e-02 -4.215238454783160754e-02
1.166514219337407010e-01 -7.503564377621985138e-01 -4.357913718682078497e-02
2.725117836649140757e-01 -6.994557212296873550e-01 -1.811589256299347417e-01
3.350261716681285362e-01 1.027719306553656481e-01 -2.923936382771642473e-01
-1.725822579649665123e-01 -6.597059675679444180e-01 1.984594093292047778e-01
2.729660811437826240e-01 9.009266050298769812e-01 -2.962897916306101442e-01
3.800169743419731239e-01 -6.799059673704178630e-01 -2.749395055705447510e-01
-3.034078621007686993e-01 -2.386629826407297983e-01 2.806905701658748975e-01
-3.888365109595381397e-01 2.721741041527795391e-01 3.174743898292412547e-01
3.649222531652173140e-01 -7.906466574332152719e-01 -2.540290202209025128e-01
5.555993735037199205e-02 -8.330977017534557660e-02 -3.890773436110512434e-02
-2.349375058264302762e-01 -4.197210449222293360e-01 2.348352404225168277e-01
-1.878253851972360444e-01 -6.280304145718422770e-01 2.092867911265926806e-01
-2.672066180339324748e-01 1.140047281388201217e-01 2.242981805965260367e-01
1.327415745770977040e-01 -4.078502195613856879e-02 -1.082785667594591689e-01
-2.805072206107137034e-01 1.630761689958209193e-01 2.322091458106659845e-01
-1.614082025189228775e-01 -8.171441111691413184e-01 2.001452046339854685e-01
2.492658908891548161e-02 2.616029360811414350e-01 -3.731332208629093566e-02
9.286930657436225089e-02 4.663908357112813707e-01 -1.103787393493251973e-01
-2.130427769515155778e-01 9.368444522269885333e-01 1.187612760693501357e-01
7.811020299133153433e-02 6.743555032557629891e-01 -1.126064447476980007e-01
6.378567732460660444e-02 -4.521306680947151935e-01 -1.953322977935348370e-02
-9.470798308088380912e-02 1.759011914399198073e-01 7.163281723219776242e-02
1.736371387460155513e-01 3.444845243706996518e-01 -1.710421846684264113e-01
-9.750027410524432503e-02 5.207520145711539428e-01 4.930791393353121249e-02
1.350435119526544603e-01 2.137338855906159574e-01 -1.285045204934881224e-01
3.496954625009294770e-01 -3.956263902010785372e-01 -2.692659205212062368e-01
2.199374822734339596e-01 7.835549661047642653e-03 -1.866916814224587884e-01
-2.719872744970028844e-01 9.104725735257495067e-01 1.713028881215481469e-01
-4.027604533465548031e-01 7.682391295449453317e-01 2.938734831691050542e-01
1.843913148808951769e-02 8.631849399993725136e-01 -7.486949279527471690e-02
-1.691837710282114438e-01 -1.996049344807486747e-01 1.625518442208031267e-01
2.201564804623530325e-01 4.050462803067833573e-01 -2.153581570217902308e-01
-2.292389382831643840e-01 -4.646445012342590442e-01 2.331592927550066308e-01
-4.622645353342767077e-02 7.411123337712774983e-01 -1.055043613337816773e-02
-8.999607580707462418e-02 8.885412415093525418e-01 1.649067824911377989e-02
1.693990705568422517e-01 7.487978996663419151e-02 -1.480709299440901017e-01
1.588310223807841426e-01 -7.345658559802736853e-01 -8.095608099187669160e-02
-4.207440680339605971e-02 4.805796353689182343e-01 4.560787646536206691e-03
-2.385177251812881927e-01 -1.784080411548336631e-01 2.206106157369426002e-01
-7.075764537990793246e-02 1.686438914012253210e-01 5.157266769539067125e-02
-1.001548505981211395e-01 -3.908397065073287990e-01 1.169461677285229956e-01
-2.834254180627249209e-01 1.498137839580362396e-01 2.356676013691716420e-01
-1.621055230836367655e-01 3.921134131791444988e-01 1.140458774290134675e-01
-3.526409401632353835e-01 -7.278096876854722730e-01 3.580661362436947104e-01
7.083531359585491793e-02 -5.490616980504418043e-01 -1.864142945987531247e-02
7.698046995220392263e-02 3.796153330456965014e-01 -9.050407280077267524e-02
-1.154448314918312124e-01 1.266833153781911081e-01 9.298064909504107078e-02
-3.628998282623003835e-01 5.247744807938564682e-01 2.770767076668388396e-01
-5.260599185978710041e-02 -1.070467485368809257e-01 5.574082246566290644e-02
3.516207037389736390e-01 2.319114079217217128e-01 -3.159120209028662973e-01
-3.100883218895262305e-01 -3.061334185483406412e-01 2.912684112747955245e-01
-2.624418949909742560e-01 6.128806797015219354e-01 1.844366182384125641e-01
-1.081318519940595128e-02 4.888262542828544777e-01 -2.289315044680969441e-02
-1.616004500048953962e-01 -2.094436569092829603e-01 1.567409088645554116e-01
-3.241649046407144019e-01 -7.890163198043272930e-01 3.379849993651657947e-01
3.878259515261490709e-01 2.951339662990636326e-01 -3.515558856169371249e-01
-4.692805002742796439e-01 8.194957651239167529e-01 3.473591176188454699e-01
3.607200738644416593e-01 -8.117147143373966145e-01 -2.489076092988166400e-01
-4.091330491991976293e-02 4.171373457520649031e-01 8.111593344859361829e-03
1.348864498066512652e-01 7.948513384948223681e-01 -1.700331647444260630e-01
2.793761623584331000e-01 -2.339264386071016055e-01 -2.204339050482701512e-01
3.910723527906519448e-01 -7.613025852112074998e-02 -3.277274715033104413e-01
-2.116490084678328276e-01 2.962411133307435787e-02 1.826073878888200552e-01
-1.313711338909175075e-01 -1.842729138605137817e-01 1.289602981484913036e-01
-4.279239405327319723e-01 8.101253779235837449e-01 3.124933433028790342e-01
1.030636515447968665e-01 -5.317900916578766068e-01 -4.757346081954462458e-02
-1.530936710445114646e-01 -6.663654057130938835e-01 1.821903672039158484e-01
2.263654696917765663e-01 -3.731219813363249038e-01 -1.649022283838013081e-01
4.871734885739122806e-02 -2.081457551773650827e-02 -3.750854991349217293e-02
1.358392382199404280e-01 7.557982881435062472e-01 -1.680519587348314747e-01
3.024512966905902323e-01 -4.820591257350399089e-02 -2.535776697500549681e-01
-6.057036106436004819e-02 4.034913851596624856e-01 2.598120990704797309e-02
2.969455305437985748e-01 -5.274712274329884654e-01 -2.144853286799206227e-01
1.792300040963653029e-01 -8.666984955179087846e-01 -8.901153741266838726e-02
-4.577144925658662156e-01 7.385963560220558666e-01 3.432206131590151976e-01
-3.566772742934664620e-01 -5.964181375691135489e-01 3.521143425574055352e-01
-1.827442473414675472e-01 -3.771246878139915548e-01 1.869317266550890588e-01
-1.538750368886058484e-01 -1.151355051621580500e-01 1.433409937978995796e-01
2.557794668829811435e-01 7.809473763000448487e-01 -2.729193844199662156e-01
-4.027489922408278855e-01 7.088489859471317489e-01 2.981216510339508852e-01
8.782860018698114210e-03 -8.233029598706179675e-01 5.434200404973175969e-02
-2.331639056547799016e-01 2.839711182973682635e-01 1.828595063161957968e-01
3.108631059381917194e-01 -3.069938506203617745e-01 -2.422519412425019614e-01
-9.026678752981705245e-02 -1.163769063116158048e-01 8.877158393585196650e-02
3.939574616073754365e-01 -8.157648598097481107e-01 -2.771780373087071592e-01
4.041249063771266137e-01 -1.449281186877911243e-01 -3.340109899023947504e-01
1.949365874317564584e-01 1.956165419396258265e-01 -1.786715584664775314e-01
3.842392269596868193e-01 -7.882344720324093723e-01 -2.708009917701466596e-01
9.828789969182909203e-02 -4.015005355512303864e-01 -5.281086646376425414e-02
9.121340264813992960e-02 5.222518774731382818e-02 -7.926193994553294708e-02
-3.575003686590933483e-01 6.036194542535253671e-01 2.667841217468724935e-01
-2.905675087523977296e-01 5.143145611688795249e-01 2.156716535753748776e-01
-6.444660599694548853e-02 1.680183008840871739e-01 4.619445913741098558e-02
8.248549469015159508e-02 -8.979164183255636256e-02 -6.158007771019737703e-02
-1.103044154679718725e-01 6.283276008478687613e-01 5.259777711329144401e-02
-3.589032903525726237e-01 4.672389320274632496e-01 2.777675423637696595e-01
-2.580033798594777994e-01 2.272204252281219972e-01 2.082727848712243313e-01
-1.651917052197885982e-01 3.738802764139834700e-01 1.180050632099616664e-01
1.284305401690734594e-01 5.003311166934523158e-01 -1.433697916348950774e-01
1.863356345891377663e-01 6.700244160306054186e-02 -1.620597061554267249e-01
2.047035584329959801e-01 9.827572749406831010e-01 -2.434988779998097930e-01
8.838215592343352800e-02 -2.948645770229744167e-01 -5.194422199662691864e-02
1.338083607527001395e-01 -3.671528678758940734e-01 -8.579609087430251080e-02
3.027618295283763250e-01 1.719098152405146851e-01 -2.696258552866406255e-01
4.039340260353156409e-01 -2.233289342283532042e-01 -3.282259675918708375e-01
3.212860834772017782e-01 -7.297985482870895657e-01 -2.208951126215330241e-01
-7.263693740820180433e-02 -8.962920358748757144e-01 1.295388376413645626e-01
1.646350373609352935e-01 5.799877074054852200e-01 -1.801912603864606888e-01
2.808323921719727001e-01 -3.842375526860344892e-02 -2.357019363823024127e-01
1.876691699956596349e-01 1.845634505255436819e-01 -1.716342256180899695e-01
1.535201718875283394e-01 -4.176580998057480287e-01 -9.911339528990398273e-02
-5.040687886966932485e-02 2.884820596700984896e-01 2.549342562780171004e-02
-1.459221750154267583e-01 -2.675526077697795158e-01 1.474347659365712881e-01
3.919566229463040119e-01 -2.823538746780642761e-01 -3.137019815603465100e-01
1.247895918743068336e-02 8.565200953280802665e-01 -6.927009079870631580e-02
-2.065248145797046464e-01 -9.993118843862240641e-02 1.874927351425425825e-01
-1.249744823086059720e-01 3.368445443400053252e-01 8.610180378594857464e-02
4.503423217762809183e-01 -6.011307431988707206e-01 -3.410177472358005835e-01
7.175392907568439727e-02 -1.900886550901551009e-01 -4.516760769969969946e-02
-2.031958037133690942e-01 -3.820319130268258201e-01 2.048575257961278151e-01
-1.979570660465109488e-01 4.522494055452315198e-01 1.405415300334977857e-01
-3.112432757362686986e-01 -2.979770550129614559e-01 2.916760843080604682e-01
1.607407906142240273e-01 -8.030417521122427127e-01 -7.768771464429220786e-02
3.910237998166367079e-01 -7.706172211482549272e-01 -2.778940392901568246e-01
-2.318349954157405690e-01 3.593329733664408221e-01 1.763144580197955336e-01
2.508385289354000403e-01 -4.010042660023053207e-01 -1.839328290916492636e-01
9.839342365245713068e-03 -7.902132348197696832e-01 5.106178122089498339e-02
2.260673563614715165e-01 5.989768928877937659e-01 -2.343413441594048574e-01
-1.864034945012124078e-01 1.052807253545065963e-01 1.554897276180927934e-01
5.754317860520467148e-02 -1.945041317537344050e-01 -3.263977403516941933e-02
-2.225482116888074235e-01 -8.634346060835624836e-01 2.560014930616171802e-01
2.164531365888447412e-01 -7.275319337376391360e-01 -1.309749244604986318e-01
2.428096747187464821e-01 5.316156125787886433e-01 -2.438984649540111849e-01
3.260793585596890587e-01 4.733735551622720306e-01 -3.112761968725859529e-01
3.083342853129116823e-01 -5.178131777413046422e-01 -2.249640981527510075e-01
-2.754026022018519204e-01 9.125674181802994056e-01 1.740874795581179579e-01
-3.204211649761261049e-01 -5.041008706596316058e-01 3.143408079214711215e-01
-1.353095541662523438e-01 -6.642685902833643796e-01 1.667581865127543694e-01
2.594823803886737723e-01 1.368690826390772108e-01 -2.299236616579301007e-01
5.347051172114361539e-02 6.496846496800902371e-02 -4.774320401806069619e-02
-2.733136995484323761e-01 -1.089609077755603894e-01 2.455316523020678598e-01
-3.153002215046954437e-01 1.958826074809909001e-01 2.597546065881283228e-01
-2.306976762163599481e-01 4.160607506652455601e-01 1.712700261969392346e-01
2.948478224323273778e-01 5.211134033573625590e-01 -2.878617549221617611e-01
-2.305933112893105985e-01 7.147792138874714540e-01 1.497635241602523204e-01
-4.282800156375792255e-01 3.023389184202370239e-01 3.492054101517292342e-01
1.334247936079357433e-01 2.405483324492148078e-01 -1.290360396189552949e-01
-2.946121875700821180e-01 -6.207098649613128627e-01 3.005235772424259544e-01
-8.798658391530925216e-02 -8.104604929971163108e-01 1.365750010035939044e-01
-4.104711035649159512e-01 1.113439987305967077e-01 3.475957650738134563e-01
2.836582098121824824e-01 -3.799660186645013038e-01 -2.136430518422363645e-01
2.024725469863075111e-01 7.889777756227953631e-01 -2.276886235446789475e-01
-1.367304791853363177e-01 9.221332220936157009e-01 5.424103697731490203e-02
-2.373112851131157011e-02 -2.192850033744272453e-01 3.897572039083672946e-02
2.982363767301890456e-01 -3.984588300318590015e-01 -2.248441804136592226e-01
3.387895409854198986e-02 -3.753550764538804430e-01 6.610664963698280284e-04
2.650934429207477128e-01 -1.768890353818779529e-02 -2.236640949882836016e-01
1.244821509454726860e-01 -6.342149996784550714e-01 -5.863490212073886598e-02
-3.634362074411688903e-01 1.401488772776100511e-01 3.051136088038886029e-01
-1.672419322402472763e-01 -6.649946208185026908e-01 1.942496540661884930e-01
1.699916773841323170e-01 4.360863814777270475e-01 -1.744771055153060413e-01
8.327168131301201925e-02 9.806593624455277325e-02 -7.572422159749504778e-02
-9.300721660387474554e-02 -6.253497896674377055e-01 1.276175817708499471e-01
1.198839105440476227e-01 -8.576381043231343648e-01 -3.866517536097069385e-02
-3.547792129029365138e-01 8.366068810975431091e-01 2.477416487025293212e-01
4.472098309757018275e-01 -8.774410778812937739e-01 -3.185157499244218315e-01
-2.843625183197012185e-01 2.933449085855501237e-01 2.261822886281052436e-01
3.270083195496840678e-01 4.496356876830157057e-01 -3.103725483725437995e-01
-1.596614973425436457e-01 4.389648274951735152e-01 1.085866883730042948e-01
3.446624897533038384e-02 -5.404476989751134663e-01 1.199283226484618679e-02
2.500718153954318290e-01 7.952137324650064842e-01 -2.690376494882237846e-01
-2.097262268079110314e-01 -5.405680926645627382e-01 2.218354606018543562e-01
8.392464692971403351e-02 9.779716958905237956e-01 -1.393707497104550996e-01
2.918066006916506527e-01 -5.901936108619361132e-01 -2.055725352935973138e-01
1.291371571892483694e-01 -4.646158330174703366e-01 -7.479446412718959714e-02
2.883249874647011990e-01 4.784430745735673840e-01 -2.791974208278024117e-01
-2.705428855663046805e-01 -6.199353334807663485e-01 2.797853543984855640e-01
1.655106557168200543e-01 -6.071273091247679776e-01 -9.583266605555956774e-02
6.602999082756823290e-02 -4.172712460288486858e-01 -2.396103263294612623e-02
3.555231786942946171e-01 5.620818230824650152e-01 -3.429371984765950954e-01
-8.282570507362825574e-02 4.511478824450166486e-02 7.079922413642786294e-02
-1.603422211556384813e-01 7.339180227473562912e-01 8.802476459305473566e-02
-2.560323832409885370e-01 -5.161099296456976848e-01 2.598726829835742436e-01
5.958992319358886319e-02 8.963572368995184059e-01 -1.126085775453253002e-01
3.310335205260331315e-01 -5.646516122033845564e-01 -2.411113822805865115e-01
4.728110793784904287e-01 -8.390696935185510963e-01 -3.432659022604619414e-01
1.113078278058502874e-01 -8.917949213951458232e-01 -2.884687244289291935e-02
-1.255574460146774984e-01 -6.938802105500893047e-01 1.605012489209831361e-01
3.004928449026123549e-01 -5.073520953156308577e-01 -2.189759819585418710e-01
-4.316844125059985937e-01 2.907293457753173938e-01 3.529631561802401007e-01
3.037124555398214298e-02 -3.144528057022212275e-01 -6.911974787205645487e-04
2.678791001806695715e-01 -8.330100224828160815e-01 -1.676028064301341436e-01
-4.192414787927279535e-02 -8.627700347736739772e-01 1.007440303299148576e-01
-3.247733743667017281e-01 1.039028503376375479e-02 2.811938607018709679e-01
4.734208938860733351e-01 -8.755724323656516317e-01 -3.411728259151389775e-01
2.196008709735536579e-01 6.151950801226081511e-01 -2.299474829585680391e-01
-1.909765180803615070e-01 2.348681901805542704e-01 1.501284549719446026e-01
-1.599186332856004367e-01 -9.386862749380341375e-01 2.075792687702940065e-01
-2.886950718320667741e-01 -2.295850842471655051e-01 2.673970594641050802e-01
8.719912106341447602e-03 -8.645708998568306380e-02 1.567433876126229746e-03
3.622757103619597130e-01 8.031735370073300739e-02 -3.141992041412399739e-01
3.085689693492109087e-01 -9.962483243485803497e-02 -2.551480567810756050e-01
-1.512921023363623940e-01 -6.355668260999650654e-01 1.784341587046407995e-01
-5.479074673708585197e-02 -6.868851313648854928e-01 9.919008056068970292e-02
3.268156639094069171e-01 -2.303798064828359304e-02 -2.763183426931542508e-01
1.256934668918373021e-01 -1.044785440932981241e-04 -1.051387640523308714e-01
-4.064430408798608285e-01 4.743054368909525587e-01 3.181116957813845958e-01
-2.127308167405203010e-01 8.633532568098016835e-01 1.237622102007934488e-01
-2.381800744225038291e-01 -5.633678533111290826e-02 2.115684923232571679e-01
2.346853144662028323e-02 1.360833565310305693e-01 -2.706120588728884446e-02
2.662759675975633344e-01 -6.250440770700772530e-01 -1.811354971190939356e-01
2.882324693638753654e-01 8.819321700623377058e-01 -3.080463428400425641e-01
2.738575184138547502e-01 5.087558683387564118e-01 -2.689388562654667636e-01
-1.152811494078797572e-01 -4.981246254978518584e-01 1.376360238252216095e-01
-2.498289511488241410e-01 9.070758097920571528e-01 1.525058283792635472e-01
2.104781853456501040e-01 9.533976822752338043e-01 -2.463560449889916903e-01
2.201491652355467843e-01 -8.038718031510118101e-01 -1.286776744495653213e-01
-2.618303439901818463e-01 4.231815978979342474e-01 1.975117174580780233e-01
-5.495584725241179497e-02 4.820041402672530784e-01 1.552764705060245831e-02
1.757128495130753643e-01 -8.313273489876160660e-01 -8.852521327475647295e-02
1.514295610237401946e-01 2.612942773640813399e-01 -1.459948866818940039e-01
1.025432909178808361e-01 -6.074435044665441596e-01 -4.170229379681819615e-02
-2.751443840448401512e-01 -2.438582843028732627e-01 2.567763133180300805e-01
1.866472369850894764e-01 7.544713060455797704e-01 -2.116160088144267148e-01
3.006292649885640711e-01 -5.682688681950087695e-01 -2.147257383244380591e-01
-1.010797954562315387e-01 -1.252590241159966256e-02 9.061750747158855979e-02
-7.544663041411393822e-02 8.719787286488890343e-01 5.175835961677505148e-03
1.197670973155125634e-01 8.882164439310733517e-01 -1.637350163104106249e-01
-2.216591463769742865e-01 7.374007834984680487e-01 1.404645494462368194e-01
-3.245037897941371319e-01 -7.488332211018207119e-01 3.353952482092562026e-01
-2.207891649689068259e-01 -5.114397229559219937e-01 2.292534381860613091e-01
-2.267496842352763331e-01 -8.224501669150583449e-01 2.566734011518222447e-01
1.958187047322753616e-01 -4.716538113664965892e-01 -1.315891620868668010e-01
-3.389776309020396949e-01 7.560183335164263885e-02 2.887241576700311230e-01
-1.661712813629377672e-01 -5.655382096189327523e-01 1.861990519693263457e-01
-3.301535102686368184e-01 -3.521000410254580548e-01 3.118059864999929709e-01
-4.151060382006850347e-01 8.578634130930070656e-01 2.980563406091336631e-01
-3.052274213702465544e-01 4.053619394445967528e-01 2.360803122303989088e-01
3.984570535715358242e-01 -2.397300287800615548e-01 -3.223437310363155284e-01
-2.366430368204049950e-01 8.754945205775794825e-01 1.434394462885266175e-01
-1.171852083223700602e-01 -5.009283688404391199e-01 1.394731932573285704e-01
-4.291242933480685084e-01 4.011654234217565951e-01 3.428454630517330792e-01
-2.374801657618468287e-01 -9.638711081620542354e-01 2.760333473365574886e-01
2.915596200038035324e-01 7.298597439541015808e-01 -3.000024201767732546e-01
3.956448705970517787e-01 -4.069111038840165784e-01 -3.079410692573295028e-01
-2.966317162834882226e-01 5.889653581025697804e-01 2.155304730718345940e-01
1.319642014669722418e-02 2.903794420983038527e-01 -2.929676762077258745e-02
-4.570504530386800685e-02 -1.025507162224313235e-01 4.948850991803402377e-02
4.990747985010330484e-02 4.499169560072312918e-02 -4.324925151295803266e-02
9.978413082382463217e-02 1.545522895988252210e-01 -9.396315620455780726e-02
-1.720364133639512294e-01 8.806241706929774926e-01 8.755535919495720243e-02
7.174039225867614999e-02 1.561774426501331969e-01 -6.998175675281652353e-02
1.063672553793733738e-01 -7.800769432891020705e-02 -8.294647426206734619e-02
3.106267755632002303e-01 6.520234263258920526e-01 -3.108062530285621849e-01
2.003538334802074106e-01 8.130435259126924663e-01 -2.275934283993287510e-01
-2.071282765216838073e-01 -6.988018804102132941e-01 2.309477263182867779e-01
-3.920108886937533343e-01 6.850511330145531153e-01 2.906006280460586844e-01
3.367138224897839316e-01 8.515008416397948920e-01 -3.475244562961912753e-01
-1.467887198767478807e-01 8.908952967384867749e-01 6.512368268758321477e-02
-1.717124782639394553e-01 7.886675655709544097e-01 9.386989332517881035e-02
1.467323175771194921e-01 2.756321370846618879e-01 -1.429865194017331809e-01
2.955905730677268473e-01 6.561074287397627991e-01 -2.981784863395338658e-01
3.233089132047769487e-01 5.171924706847930847e-02 -2.786647702134446569e-01
2.674378119834153189e-01 -5.946302516536400296e-01 -1.843144068629389287e-01
1.076345821447516199e-01 4.500962422804816176e-01 -1.218982526438953523e-01
1.380106677419923877e-01 1.771884320105273913e-01 -1.284340392789801444e-01
-5.854394241161171158e-02 1.364732100106074431e-01 4.338396131555307539e-02
2.217979145157705501e-01 7.142407322056201213e-01 -2.389365418632019011e-01
-3.781705301769297534e-01 -1.028785937874699963e-01 3.351987945600953256e-01
9.814216830245137135e-02 8.044888707411769202e-01 -1.391498629705332224e-01
-3.473555647182672845e-01 7.869446283046486190e-01 2.449230946699549882e-01
2.276999371793946292e-01 5.461140371483196310e-01 -2.319541787959462920e-01
3.841603612111996191e-01 -9.066344419785374309e-02 -3.207460475202141281e-01
-1.049879786355362443e-01 -2.651259994886400739e-01 1.120861338829054338e-01
3.826197070507255660e-01 3.719083031541708384e-01 -3.525865602994240344e-01
