1.157901918974014732e-01 8.886244054836996975e-01 5.628569654312218784e-01
-4.230474097012633661e-01 9.425429061195024216e-01 -2.163984072452258822e-01
-2.728778029668992300e-01 9.119458157986083391e-01 9.772165794628098756e-02
-2.333818737017281583e-02 9.472940292593095002e-01 8.303420792849378063e-02
5.557080190216526772e-01 9.125046557809856074e-01 7.762809284549742062e-01
1.548866867642645084e-01 9.192115972152824499e-01 4.045902789835091884e-01
1.029101126008770406e-01 9.110259776385872810e-01 4.127735182770348454e-01
-7.196984215328759982e-01 9.444351385410892918e-01 -4.723643574973257486e-01
4.393680380240713168e-01 8.828428479282804942e-01 8.652038988263291985e-01
1.969194965530267349e-01 9.058618648713598898e-01 5.223099159597297536e-01
6.930919601268660524e-02 8.897043000847361105e-01 5.178729159942578875e-01
-1.204965855929924778e-01 -9.006714289550243890e-01 -5.772843236694901181e-01
2.663566689861289749e-01 -9.212213530631552239e-01 -1.308992058246264134e-01
1.761729766811434006e-01 -9.307818783032737464e-01 -1.456048943711462373e-01
4.358228660321114556e-01 -9.561143222523779128e-01 2.258524843739797838e-01
-1.453395695423829181e-01 -9.002595399510986418e-01 -6.002980687900177914e-01
-1.664290418691029561e-01 -9.468833599903581089e-01 -3.273585183781326791e-01
4.521171402529245431e-01 -9.351751489324324762e-01 1.088889943739825006e-01
6.583049274913972682e-02 -9.111494341755511650e-01 -3.586714290725279142e-01
5.100963954885108509e-02 -9.275097359051893697e-01 -2.690050484942102527e-01
-3.556950394809412219e-01 -8.965230124815717350e-01 -7.967143884628825612e-01
6.982225765931990846e-01 -9.725943418858135070e-01 5.444545099986565218e-01
6.364251291711645608e-01 -9.498098226155587964e-01 3.517210289760939190e-01
-3.373032612717569156e-01 -9.287310840893929775e-01 -5.810347696740025825e-01
-1.584768312685197467e-01 -9.182068729962308273e-01 -4.993643545624687485e-01
-1.441246619292266273e-01 -8.832947372833065414e-01 -7.049278644468328636e-01
-3.615960087542353651e-01 -8.727370073882154689e-01 -9.496731268971555506e-01
-3.464784460680530587e-01 -9.398348582245122929e-01 -5.194505360377746905e-01
6.026996611025136480e-02 -9.028073267891476572e-01 -4.151898860472281738e-01
2.538623954256846726e-01 -9.174322261855822891e-01 -1.647763528295247693e-01
2.595764588632049064e-01 -9.600000609114617278e-01 1.049719228006552457e-01
4.147736725910688427e-01 -9.432856883468333509e-01 1.286497908191920891e-01
5.187747954726791288e-01 -9.671913342893578847e-01 3.631032325691291307e-01
2.559557596373875366e-01 -9.533482616018688072e-01 6.057476004471473024e-02
2.685387013904786402e-01 -9.371419844593178450e-01 -2.997470571450105981e-02
2.998649375682893026e-01 -9.087742612304242629e-01 -1.808180494257997095e-01
-4.988070738033837936e-01 -9.408249249015996352e-01 -6.386731549688012821e-01
-6.124895959036397858e-02 -9.121959201783150784e-01 -4.567592523010556849e-01
6.894340380385522993e-01 -9.412298935498704111e-01 3.419324087195214079e-01
6.213719066547631620e-01 -9.767254139511053479e-01 5.069177067801579062e-01
6.032563430799331439e-01 -9.429551203065480447e-01 2.817384141072309944e-01
7.145940494063431903e-01 -9.361504702791648702e-01 3.310159446932918192e-01
3.359462760571266249e-01 -9.100343702518808309e-01 -1.432722436062810467e-01
-2.295825377480348040e-01 -9.286845707104959269e-01 -4.926555731777552127e-01
5.233932255769072617e-01 -9.844329583449025201e-01 4.742582622997519315e-01
-2.985922408637352032e-01 -9.437477571627989059e-01 -4.556703595012897567e-01
-4.918710966870452617e-01 -9.202973064594321961e-01 -7.607772867050326404e-01
-2.419908262311179226e-01 -9.125796886266147601e-01 -6.031448935059118277e-01
-3.570351255513090627e-02 -9.139671166202618657e-01 -4.247036780514575893e-01
-1.880407066017371065e-01 -9.074990071958157767e-01 -5.903710161527055966e-01
-4.083322945328283216e-01 -9.379123283241291853e-01 -5.823351276964015000e-01
-3.475723473354245807e-01 -9.195560093672676683e-01 -6.466154083073074599e-01
-2.652163912691444247e-01 -9.111250569647031394e-01 -6.313198269629817228e-01
9.531991096782470307e-02 -9.378703333576355883e-01 -1.680223324626547721e-01
1.494083582370991092e-01 -9.387699326700148506e-01 -1.178989082771834535e-01
-4.739098519371432450e-01 -9.283880362815302156e-01 -6.956165319199287822e-01
-4.638828502692194378e-01 -9.072694631750775063e-01 -8.188558564819645724e-01
9.876827308783051040e-02 -9.509960639681457328e-01 -8.345767107301622911e-02
-5.168223821932955708e-01 -9.232080583671201657e-01 -7.631920516136033728e-01
4.976608484296921597e-01 -1.000000000000000000e+00 5.500038113934498929e-01
1.197800010143557775e-01 -9.469742515565394703e-01 -9.120361699786432019e-02
7.668951093020983656e-01 -9.482409416567270100e-01 4.493470721893512154e-01
-2.267298326166257705e-01 -9.441889831362239027e-01 -3.937705684628545200e-01
-4.929162598055588651e-01 -9.288427541561895540e-01 -7.084301306265339271e-01
-4.016330706897842107e-01 -9.007797350474834319e-01 -8.080235335642961259e-01
2.006601551805661798e-01 -9.187173080438739703e-01 -2.005675857411457208e-01
-3.540908242991390176e-01 -9.098235365911462313e-01 -7.125793747254048904e-01
3.059806980244706431e-01 -9.105272981331997695e-01 -1.648688188548541045e-01
7.370524182300871585e-01 -9.363557044597197176e-01 3.507801093882649823e-01
5.081136359223912269e-01 -9.484975896664382677e-01 2.379327154314407888e-01
6.087482004906378252e-01 -9.947129496240293411e-01 6.085244651646161129e-01
5.922861191891956034e-01 -9.360378167401989247e-01 2.296384542903756598e-01
2.625707502328146759e-01 -9.430103311558801771e-01 1.651595723944439178e-03
2.959694395906998232e-01 -9.813892585392641754e-01 2.681062264666038697e-01
5.135054302421447892e-01 -9.501481015314015011e-01 2.526476603978064506e-01
-4.371142377113147459e-01 -8.926333304468255792e-01 -8.879522215223879522e-01
7.905020369123957891e-02 -9.260865166895591027e-01 -2.547853974966480806e-01
-4.989636359763167661e-01 -9.204247792478020829e-01 -7.658217133436776569e-01
1.703891427241177037e-01 -9.229304366802499882e-01 -1.992520770546671038e-01
-2.145522892842823270e-01 -8.803082604189160776e-01 -7.814944131838466035e-01
-2.464080924137735662e-01 -9.351208201625340610e-01 -4.664305604770214719e-01
1.172300977238569797e-01 -9.439611822360934879e-01 -1.120631414884607768e-01
4.468050953963598193e-01 -9.928233123623868561e-01 4.634576039916026846e-01
-2.936975458170929532e-01 -9.099034680290408739e-01 -6.623698057266624861e-01
-1.365246443360658424e-02 -9.127289881102631508e-01 -4.142617626866660352e-01
7.054395346477299045e-01 -9.313478654168051429e-01 2.935775432347406122e-01
-1.592274985545219235e-01 -9.091660781330275221e-01 -5.562739582644197212e-01
5.098057808877000108e-01 -9.412899127171477920e-01 1.944476235937726005e-01
1.265449572890931518e-01 -9.266850345806650902e-01 -2.119641366944118033e-01
8.017772542892091792e-02 -9.534564107826150048e-01 -8.344109064885223137e-02
-1.077867960104572642e-01 -8.857381727576096875e-01 -6.598030251000296387e-01
-3.943456671496770594e-01 -9.135612752849936458e-01 -7.224418895320500189e-01
-5.250290432185058531e-01 -9.395940772015269893e-01 -6.679211659385717592e-01
-4.552648252983780841e-01 -9.135232503072047150e-01 -7.728234021937734344e-01
5.760831034911282345e-01 -9.334270915622445708e-01 2.000457210564070831e-01
3.120864794036077861e-01 -9.749430833938962371e-01 2.412362082242982542e-01
-3.242384803021707285e-01 -9.229483399896478701e-01 -6.062864179189697555e-01
-4.634178395823646546e-01 -9.193235358210209984e-01 -7.434194818065885668e-01
-1.955183933333498325e-01 -9.046159114456171491e-01 -6.144775078682803704e-01
-2.751157971778714906e-01 -9.170145845836548126e-01 -6.027977664277753833e-01
-3.602743691821191918e-01 -8.836813688906413056e-01 -8.804411475332585280e-01
4.158395983138089003e-01 -9.792271161601892038e-01 3.533132855566360475e-01
5.717420481076433969e-01 -9.495140688340392154e-01 2.966365703805874388e-01
-7.931276898544994958e-02 -9.378790917102689528e-01 -3.117142489319210119e-01
5.038992364982994299e-02 -8.957647156767196694e-01 -4.671726945110132312e-01
6.042425032066514046e-01 -9.864227576126809449e-01 5.531975226793643952e-01
2.051709518760395090e-01 -9.592689464457662130e-01 5.563657120245347337e-02
2.653370533369164841e-01 -9.697686203823775442e-01 1.705367394252020330e-01
-1.726345780631555471e-01 -8.875221919339707499e-01 -7.020735342887285402e-01
-3.888143110670516656e-01 -9.023432080843739600e-01 -7.877371254150773439e-01
7.678428564015381541e-01 -9.500685327042249773e-01 4.615065295306695625e-01
4.937031973587224232e-01 -9.863258848458250627e-01 4.616054684989656098e-01
2.978585891558084842e-01 -9.893426945346048829e-01 3.191826129882631147e-01
3.552930882478564367e-01 -9.345354394063418724e-01 2.520653505020047785e-02
-4.479761529122501806e-01 -9.231131565115877624e-01 -7.071131382154755007e-01
-3.578018159089370043e-01 -9.185561564045979788e-01 -6.612611476263976495e-01
4.467207250114328398e-01 -9.207996813539086611e-01 1.493944458116894594e-02
3.600160608273441087e-01 -9.812182410943074418e-01 3.197604826646200937e-01
-3.211448009824151989e-02 -9.085147229862803320e-01 -4.556982585424078636e-01
-1.740374899611314002e-02 -9.013414402160490058e-01 -4.882531308826215111e-01
-3.151385178842630030e-01 -9.308133952915308429e-01 -5.498248460876175026e-01
1.933279442934345282e-01 -9.457697831858453696e-01 -3.816317032987068258e-02
4.205804182669106717e-01 -9.810131962364829761e-01 3.683364934418876246e-01
-2.584073578055284259e-01 -8.990850018400677879e-01 -7.006813950235478705e-01
4.871002053307240676e-01 -9.184800956366692137e-01 3.373455593140505665e-02
5.167374096109677017e-01 -9.718521426575168487e-01 3.904462942499005162e-01
2.718492639748198991e-01 -9.087521383715286838e-01 -2.040165055610738409e-01
4.405929525708170980e-01 -9.575590394790277626e-01 2.387743173199066149e-01
6.403662966403557144e-01 -9.707729450713715735e-01 4.854901571190278209e-01
-2.179757572278926692e-01 -9.450736254245386547e-01 -3.810566274039704493e-01
4.408293552624622524e-01 -9.819492546687180745e-01 3.908324071944321854e-01
-5.339617493928230374e-01 -9.234165963878618877e-01 -7.760016387816294214e-01
-6.280098450032961521e-02 -9.472001058853304345e-01 -2.400863413703751004e-01
5.897318014145019882e-01 -9.553165326459460704e-01 3.475731074775776364e-01
-5.553651399283809909e-01 -9.241619488304536612e-01 -7.889786700657087648e-01
5.810400876538313053e-01 -9.533926959740145479e-01 3.284400474289729810e-01
2.066740015066327874e-01 -9.396370111518131951e-01 -6.536270766290759593e-02
2.157450914007926213e-01 -9.628355426974791742e-01 8.654761963124664448e-02
4.695930944679331809e-01 -9.431413619670941939e-01 1.728749963733196837e-01
-3.773641720967085833e-01 -9.408090604992617179e-01 -5.388079061859464280e-01
3.867682277257550316e-01 -9.707544668837813084e-01 2.766293985800694077e-01
-1.698514962556367802e-01 -8.795438993154338636e-01 -7.494588064083875789e-01
2.476477842072517532e-01 -9.681791535160624296e-01 1.460793911938032819e-01
-3.156783186394196417e-01 -8.755004554900190916e-01 -8.946702590983375281e-01
-1.992159850847766145e-01 -8.781026935768065922e-01 -7.826033138639270081e-01
6.362328654670921235e-01 -9.794201616811952782e-01 5.359289035699935644e-01
1.835069082423221587e-01 -9.376586993211916132e-01 -9.675015873414767598e-02
5.069413804312514760e-01 -4.007226058319572626e-02 7.695487595577926720e-01
6.548277750888953364e-01 -7.326964446606880621e-01 6.112848580237549845e-01
7.540744253679696474e-01 -7.872118140082110527e-01 5.256824827482237117e-01
4.740234232477438248e-01 7.269015632187734166e-01 8.355562379956018582e-01
5.497335507838547741e-01 -2.377486857923548635e-01 7.238914039727576410e-01
6.222028146261248116e-01 1.016188521068172312e-01 6.804301019903058467e-01
7.541234639816900565e-01 -3.479656084928556825e-01 5.477038038819278531e-01
6.635323544474280855e-01 2.855134988367188376e-01 6.551593272184886851e-01
6.933423651441895652e-01 -5.514686018702179282e-02 6.131594576974731536e-01
4.699097441221344318e-01 8.365630361036343610e-01 8.444989083982938904e-01
6.066404528866758961e-01 7.424118643073887025e-01 7.256090846650459225e-01
5.980060720912234729e-01 3.707142175957929553e-02 6.973906760040218256e-01
4.449389916525080535e-01 7.803398154960441424e-01 8.625238327943691719e-01
5.192609021436410677e-01 5.539514926694124597e-01 7.890991605860355751e-01
8.138137867764376754e-01 -7.995534752801194411e-01 4.751842884696227398e-01
7.075130434903639243e-01 -7.778841382276714400e-01 5.650265754708044819e-01
4.925427933224235666e-01 6.695888850542945914e-01 8.172151478749993814e-01
6.948329174402436692e-01 -4.711974865341725938e-01 5.910177402304003236e-01
5.436971913121574351e-01 2.984532477296188424e-01 7.558634681456827265e-01
5.426913645191492330e-01 -9.563694267933420257e-02 7.369090764996705234e-01
4.568062678361076712e-01 7.095789992625618492e-01 8.490613213769415690e-01
7.026257867222153175e-01 -2.301762597313785075e-01 5.966171325977905893e-01
5.709273673478352240e-01 -5.213515671120630968e-01 6.919513282705558321e-01
4.820052354452727394e-01 2.256940844363556631e-01 8.037175392113408146e-01
6.062503137654959851e-01 4.417727076552983578e-01 7.108344530811973039e-01
5.950232191136305415e-01 4.399324845124080730e-01 7.201158834262775255e-01
5.743426250154358703e-01 -8.236175725571067696e-01 6.739177366015552950e-01
6.384128740713502781e-01 -9.695569679605077207e-01 6.130932575886991476e-01
4.744846604793642730e-01 4.188619866858250274e-01 8.196990600438287533e-01
5.118032012988135149e-01 2.405189555380212590e-02 7.687102697645249449e-01
5.181796154602701376e-01 7.139071763150073302e-02 7.657641112378907877e-01
5.655109623793185269e-01 -2.506972345130095703e-01 7.100679646119643085e-01
5.927014568197085387e-01 7.325923102142719578e-01 7.367539858807893305e-01
4.491605378560241668e-01 1.999619425599430955e-01 8.298481646027068281e-01
6.540357414273542114e-01 -5.265918736729271465e-01 6.222982819072593319e-01
7.495890452340113752e-01 -8.522519067837022178e-01 5.261606648756770310e-01
5.685881527303705552e-01 7.339248018237962690e-01 7.569538821862692446e-01
6.610926357125795905e-01 -6.794830204992163836e-01 6.087269060395242848e-01
4.718151791010438689e-01 4.141714189306637262e-01 8.216922996195252793e-01
5.880372982062438414e-01 7.442164292639500411e-01 7.412320921579211852e-01
6.605993062193074028e-01 -3.513362935219043609e-02 6.415029001604333203e-01
4.981799970328017468e-01 5.373992576667605547e-01 8.058689038615978184e-01
8.053887112854046793e-01 -8.664967138581178840e-01 4.788562578359950028e-01
5.669139621282284214e-01 8.118770872892479007e-01 7.622670705222682752e-01
5.593707043895294051e-01 -4.488113900333959294e-02 7.255323025543085613e-01
6.000846247265325673e-01 6.429936227073107524e-01 7.260892195184671660e-01
5.738933873740162950e-01 -2.669225487593930579e-02 7.143204334947552692e-01
5.394082289928847640e-01 8.998303931573500281e-01 7.896501664218747996e-01
6.114409691236977196e-01 3.384205255464704520e-01 7.013094810697668713e-01
6.309543474821831532e-01 4.611287760006830272e-01 6.911804736054361076e-01
5.293557688737959843e-01 -9.382246493812966548e-02 7.481345284415646946e-01
5.396481956249654655e-01 5.164630827220147991e-01 7.701942061111143323e-01
6.217747258260646337e-01 -6.952300111837687036e-01 6.407637531093147709e-01
4.311241508950235390e-01 1.190767834357533972e-01 8.408446565482545765e-01
4.954718659687782911e-01 -2.382087694239151954e-01 7.691731105310877226e-01
5.932589261048814011e-01 6.092396442602576734e-01 7.300928335502467892e-01
4.775065399604143668e-01 2.657719494912482716e-01 8.094866572605077248e-01
6.541494181683007447e-01 2.798869537214677683e-01 6.627108330659610136e-01
7.534423340514961875e-01 -7.596823527484117822e-01 5.275929736575417639e-01
5.671874815047711627e-01 4.878099230400473885e-01 7.457615975892273319e-01
3.925649291955760622e-01 8.287200250339814556e-01 9.086826318414918946e-01
4.912291338584914291e-01 3.082029317832113979e-01 8.001604295930564437e-01
4.817008504813465319e-01 -1.840454348747644908e-01 7.833914637538856862e-01
7.225447518401525437e-01 -7.675303382198406243e-01 5.529961677039630930e-01
4.950715724057029310e-01 3.012472053753667001e-01 7.966028856406445202e-01
6.920573038832176227e-01 -4.725182628318941869e-01 5.932688493570509314e-01
6.576274858974732185e-01 -1.105055471509395204e-01 6.401984204523084587e-01
5.703360048962293760e-01 -4.646465735214342363e-01 6.952932291423560285e-01
4.361457809617127479e-01 7.399908200083271659e-01 8.678389339428489446e-01
5.368253627283305907e-01 8.195635898360599247e-01 7.877750783810536506e-01
4.949901120976272217e-01 7.262228928483802082e-02 7.851876278189611202e-01
5.731536777587288300e-01 -1.422830808294186511e-01 7.091321955824625434e-01
5.681933219251513734e-01 6.014424508170977957e-01 7.506292738452595703e-01
5.037346830023985422e-01 5.066506091868802075e-01 7.996866893790662845e-01
4.543290454707196724e-01 6.161559044067240754e-01 8.464372194478285705e-01
5.223917194154044097e-01 8.810880594593429871e-01 8.029164126119272549e-01
4.779920787703243468e-01 4.446188506374149640e-01 8.180643088016178455e-01
5.389717725419610472e-01 4.649790147886276870e-01 7.681730542696479924e-01
6.323968561106402264e-01 -9.331312931247200959e-01 6.199457960803123058e-01
7.185808934781848789e-01 -6.252920681604743347e-01 5.634500009883262051e-01
6.895927742432186314e-01 -6.474038841823384072e-01 5.865424859474090979e-01
7.018385870946917127e-01 -2.536351195646727175e-01 5.960961094497868595e-01
4.531222523490382459e-01 5.731030936984176094e-01 8.452823719841441319e-01
7.546944061250679958e-01 -9.326032180834229468e-01 5.178621855550556985e-01
6.650593235077898457e-01 -2.968159477982776351e-01 6.246354248465756376e-01
7.553401421558540996e-01 -7.547271815592559996e-01 5.262573191540106388e-01
6.016484771949842658e-01 1.255965934124419758e-01 6.987959188827402857e-01
5.199067207029510751e-01 2.417034777543553559e-01 7.728764901922147157e-01
5.489642600688007246e-01 -1.325175798059108345e-01 7.298192110508399111e-01
4.471662277164700772e-01 3.576219510442013028e-01 8.394321553967840632e-01
6.869106515380108968e-01 -3.293528707507880626e-01 6.047568022295365386e-01
5.481093010716271419e-01 8.721045307649217815e-01 7.809927607535065430e-01
4.941200707827039795e-01 1.168702750429088111e-01 7.881365214778726092e-01
6.163614611315986203e-01 -8.402453431888977642e-01 6.379996946131458735e-01
4.763626897766267687e-01 -2.252123518076330072e-02 7.959614311850196078e-01
5.754570248461040594e-01 -5.723284902838352561e-01 6.856089259535420588e-01
6.676933049572472134e-01 1.056046195275639615e-01 6.426488326211435842e-01
6.690107030185734605e-01 2.667816225669976671e-01 6.496444224148807400e-01
6.889429007925356174e-01 1.300687657552828114e-01 6.261356400605083694e-01
6.856571168751330880e-01 -3.178901229869592338e-01 6.063791642443658869e-01
5.694500811551935771e-01 3.172134797652589877e-01 7.353038377535039416e-01
6.148274763668133414e-01 -1.621910040424077715e-01 6.733374823808219167e-01
7.659323803637064776e-01 -3.839195527474302261e-01 5.360382831712806606e-01
5.691418362103648487e-01 -5.663567016980239899e-01 6.911816272146660278e-01
6.461297939847938654e-01 -9.121753064930706589e-01 6.095322952684988360e-01
4.002041932580822636e-01 7.460780065815841855e-01 8.981534591219354491e-01
5.264013678321546319e-01 -5.128400619499563495e-01 7.295550209280382559e-01
6.401593582573567032e-01 -4.172759691049632291e-01 6.393747889838526932e-01
5.747552784019923644e-01 6.389565811455876210e-01 7.470347298155634030e-01
6.596356140716690408e-01 -7.230711606723554397e-01 6.077540940738362929e-01
5.653566355094654661e-01 -4.843743350879855525e-01 6.984597865141558559e-01
3.693885593777581633e-01 7.753782196370404556e-01 9.253540952486007942e-01
5.170594237142864813e-01 -5.146913623990276854e-01 7.372619224366343538e-01
6.020665756033073412e-01 -5.496910555517657837e-01 6.645287844062361948e-01
5.722591596614481357e-01 -1.158098019029575321e-01 7.112087455397726465e-01
6.807392125032657448e-01 2.019359565812767210e-02 6.274664000179179801e-01
7.431336954858531740e-01 -3.878892480177472679e-01 5.548742459593839493e-01
6.117169765127726810e-01 -6.314919606252979989e-01 6.523626963081988750e-01
4.903547388798245588e-01 7.309529190594248327e-01 8.221241901683262743e-01
6.786146573415249295e-01 4.358813931325341423e-02 6.304153098856495330e-01
6.201182466530746895e-01 1.494561287896920866e-02 6.778171891325678322e-01
5.785253232548055458e-01 6.164847869013463377e-01 7.427582954484754918e-01
6.410534503883796864e-01 -3.186127647046222422e-01 6.435838948747607535e-01
4.714608549254935554e-01 5.554020001622498454e-02 8.039749652192281770e-01
7.155817023304674729e-01 -6.817035710383568814e-01 5.631207094314472084e-01
4.605519126460367874e-01 6.390240854807454074e-01 8.423901616253703928e-01
5.882823144389893733e-01 4.067468922383278285e-01 7.240772489312502502e-01
5.369941590138082033e-01 -1.658881634173470787e-01 7.381373081314100970e-01
7.285051240545356022e-01 -6.929288909133197727e-01 5.517667110381903051e-01
6.774658713377219588e-01 -8.166615371025334191e-01 5.881662260107171081e-01
4.454291179159482472e-01 2.526170000098206803e-01 8.356083814519191799e-01
4.347557830343311558e-01 5.150714912840956838e-01 8.577023386253083137e-01
7.121097907612752298e-01 -5.713338929614938388e-01 5.715631190021340791e-01
6.455651213495916529e-01 -1.210450768580067712e-02 6.552121183465380305e-01
6.197548577738938302e-01 -9.078470668611661187e-01 6.317709696510864781e-01
6.010743629833752433e-01 1.673019031833148096e-01 7.013700211319807698e-01
6.681014750220179987e-01 -2.382656334318764557e-01 6.250362747018521903e-01
5.371668382155838639e-01 2.777701564412592417e-01 7.602770075221458868e-01
4.865198766586068535e-01 7.964082546377410088e-01 8.286137010199212671e-01
-4.224294263722854215e-01 -6.766573191319998903e-01 -9.046936067074192733e-01
-6.008204317696362873e-01 -5.135430783645433817e-01 -7.475564227378890259e-01
-6.473309811602703245e-01 4.135230812063731554e-01 -6.621590071384653164e-01
-4.600004772019127830e-01 -7.146314391328159599e-02 -8.429269085901337499e-01
-5.086613201867487000e-01 -8.805956135981789501e-01 -8.429391645414229250e-01
-5.767977161802243513e-01 -7.446521871274495163e-01 -7.792218025798103298e-01
-4.607313604277304964e-01 -3.629448328635188625e-01 -8.569570847708787298e-01
-6.143676308418060117e-01 2.070180454292070982e-01 -7.000534062076578801e-01
-6.528381406593550818e-01 2.736392549082661829e-01 -6.645869268507789140e-01
-5.681387730740681263e-01 -8.906974219799056458e-01 -7.937869267739432466e-01
-5.948715437869392941e-01 7.506923026385314834e-01 -6.890238813454727662e-01
-4.461660758057330312e-01 -6.224457989053376883e-01 -8.821522068457511301e-01
-6.354875171579914550e-01 8.803244237618684798e-01 -6.486012015451840806e-01
-7.770733390445659916e-01 8.836848301991747645e-01 -5.302178872383490615e-01
-5.297683018189894844e-01 -5.722613037757650067e-01 -8.098293907966533922e-01
-8.068327472997296468e-01 8.617120158848550204e-01 -5.064744467010758866e-01
-7.742024638751570098e-01 4.017096620484846281e-01 -5.568233092658529948e-01
-6.493303471665616833e-01 2.021997531929255187e-01 -6.711039276266995701e-01
-6.712555981638098634e-01 5.472854930033871357e-01 -6.354650199821771928e-01
-4.236358462155951909e-01 -3.028604374517626097e-01 -8.849114229947085963e-01
-4.574289922562808641e-01 -4.638507321421434515e-01 -8.647825946231549876e-01
-6.437109728030646627e-01 9.029771767857891485e-01 -6.405973830110331946e-01
-4.894848575947199354e-01 1.196169152547130049e-01 -8.087119716715410744e-01
-6.604526223080403602e-01 -5.328810337071048647e-02 -6.746501161094787813e-01
-8.212788220068721889e-01 7.256408873068737053e-01 -5.012474778201474468e-01
-6.232360619608576791e-01 -2.564864455300292501e-01 -7.159295690584493999e-01
-5.836949809379432530e-01 8.730483628473150182e-01 -6.922099046636621678e-01
-4.966230952115065489e-01 -8.245928721476718237e-02 -8.129018234078881910e-01
-5.067002883054136930e-01 -2.227010177389112666e-01 -8.115320526205923590e-01
-6.529731974511971959e-01 1.281974733477956874e-01 -6.717793493934054450e-01
-4.593387261660591969e-01 -1.881599875163426083e-01 -8.493408233733473756e-01
-6.535665279017017770e-01 2.260030209716464289e-01 -6.663714248422323294e-01
-6.730372055254359998e-01 6.665531939282653973e-01 -6.279869734601947195e-01
-5.953748178157350912e-01 3.930044180541824583e-01 -7.065694713698181806e-01
-4.915718125922027837e-01 -3.789987204293940315e-01 -8.320137528649718117e-01
-5.812407521636354657e-01 -5.166507121987435891e-01 -7.640602120812446385e-01
-7.012470873515129766e-01 5.751962109285012614e-01 -6.090222795575737091e-01
-6.697679901071905695e-01 3.472601730797795772e-01 -6.467538552199706414e-01
-7.456589031394219580e-01 2.850339039270438080e-01 -5.865155792963256953e-01
-6.723320066042335341e-01 7.569061006181428963e-01 -6.240375605642949353e-01
-5.530365081551793516e-01 3.507900720314660603e-02 -7.598967996567989047e-01
-4.038758074176600488e-01 -8.242033016223210273e-01 -9.275954909988795016e-01
-7.567565537928939712e-01 2.982577174345503179e-01 -5.765855960827249715e-01
-6.150328929679561574e-01 3.822905585941595574e-01 -6.906944469590717839e-01
-5.952867276014317532e-01 -1.103523676506063395e-01 -7.319254037443280181e-01
-4.647837055001035056e-01 -2.164800675079777137e-01 -8.462170845579206624e-01
-4.496561786066806121e-01 -1.193467899752846118e-01 -8.539687728962706004e-01
-6.633432972270156824e-01 7.428003794128541504e-01 -6.322510173536111111e-01
-7.603549630027466311e-01 7.955933355867729206e-01 -5.486012147045730147e-01
-6.937170712499162173e-01 9.954969595548186778e-02 -6.391998944996539755e-01
-6.500971441431886433e-01 2.464149823925636251e-01 -6.682428812486223002e-01
-7.184715138953058355e-01 8.982976935766734394e-01 -5.784124561284729182e-01
-4.926935968581216962e-01 2.330412192340017563e-01 -8.003358666676817501e-01
-5.103830454901745473e-01 2.029062547259554705e-01 -7.870799861915492857e-01
-6.292273759016393520e-01 -2.271123089703151743e-01 -7.094518383030924413e-01
-6.585286241459229473e-01 4.996930201597170607e-01 -6.484816312542751593e-01
-5.883750633048692169e-01 -8.593416851024265890e-01 -7.753160789437172351e-01
-3.766424969100272135e-01 -7.207557343837259767e-01 -9.451375337435800050e-01
-4.962638787526030826e-01 -9.149220476257395596e-02 -8.136554461198359789e-01
-5.630309082975564205e-01 2.838514590360153439e-02 -7.518883717684056167e-01
-7.540435228577926363e-01 6.160638670330604860e-01 -5.628881649745667293e-01
-4.093542447827506203e-01 -4.807166788976439120e-01 -9.057688736210756097e-01
-6.157799030631797566e-01 -6.191115205746778871e-01 -7.403687271307181073e-01
-6.384266401086080567e-01 -5.138661067641919766e-01 -7.161740220269335877e-01
-7.802354069068655473e-01 8.117733941100451212e-01 -5.311897116406977259e-01
-6.608014273533057148e-01 -4.084509465455279376e-01 -6.921978505583440411e-01
-5.469682465478393762e-01 -1.674962511221765593e-01 -7.751382461742881702e-01
-6.836339953255626822e-01 -4.623221055802134716e-02 -6.549408463743471298e-01
-7.421105035466161182e-01 3.520466932732261300e-01 -5.861123626791351349e-01
-7.209680746959272746e-01 7.765403157586868721e-01 -5.824435736706918831e-01
-6.493558102464466186e-01 -2.269393413831534978e-01 -6.926372772085518381e-01
-6.786584962375636909e-01 -3.639839380896257859e-02 -6.586011210146271999e-01
-6.610758223815621504e-01 4.512589113263244106e-02 -6.691866916530907483e-01
-5.863013321542824841e-01 5.146815648166256363e-01 -7.080336684729700014e-01
-4.638148443562906120e-01 -7.709514667546897293e-01 -8.748757630470070934e-01
-4.676229133167145724e-01 -7.941244218459209137e-01 -8.728602055121298386e-01
-5.971740104346998645e-01 1.163102451177220643e-02 -7.242227228486111112e-01
-5.324747277578051330e-01 -8.760025233391134369e-01 -8.228258895134122897e-01
-3.736493123940957672e-01 -8.565788126208251363e-01 -9.544587009700882252e-01
-5.711386081378275748e-01 -6.531665133746574758e-01 -7.793516706638085045e-01
-4.347275826632841511e-01 -8.419875403431297256e-01 -9.027296164065649053e-01
-5.374726255963927501e-01 -3.287815800838999047e-01 -7.911674121883679467e-01
-7.385310832907628908e-01 7.492663939413087837e-01 -5.691495588312666110e-01
-7.026485286843447975e-01 6.027317669599975281e-01 -6.064691275974261053e-01
-7.971222958393793245e-01 8.995151747136705955e-01 -5.126832526558342540e-01
-6.346337329583191522e-01 -4.168215336667474014e-01 -7.144665293732783695e-01
-4.726946299100193705e-01 -6.400135600736595043e-01 -8.608850546615619548e-01
-5.559182427284774519e-01 3.456450344260038332e-02 -7.575165895988491549e-01
-5.599359165476042177e-01 -7.120299278103211504e-01 -7.916617216971122417e-01
-5.570756317101180910e-01 -9.151435624419508585e-02 -7.628828819958517471e-01
-5.820789063400958474e-01 1.960874438747507720e-01 -7.275613120302949488e-01
-5.668431818670867095e-01 6.509024465588786335e-01 -7.174378577592663842e-01
-4.384255404102347931e-01 -8.015024357858464565e-01 -8.976086052484815170e-01
-6.078220689016547995e-01 2.565178436972102571e-01 -7.030322510617434961e-01
-6.618328542291959105e-01 8.988846070014053780e-01 -6.256724046324760868e-01
-6.422690308426711736e-01 4.048702970898863662e-01 -6.668199995241145261e-01
-5.666154120889291823e-01 7.682327090129537073e-01 -7.117348172590811650e-01
-5.008903861728100093e-01 -5.962498612917588314e-01 -8.351453725233412007e-01
-6.230563928777232974e-01 4.321851069677989376e-01 -6.814892889569562628e-01
-6.422508076331570059e-01 -2.724157673602700114e-01 -7.008536409461012529e-01
-6.146657009874947342e-01 -8.295898871652058748e-01 -7.518708248031906738e-01
-5.749163121591213121e-01 4.174597148428826343e-01 -7.224226019342943061e-01
-3.692225914060487946e-01 -7.077940865556997529e-01 -9.506816181274971855e-01
-6.448789382181860930e-01 3.854762174891569471e-01 -6.656150217079961351e-01
-4.280398444363422428e-01 -7.316788442404169590e-01 -9.027728862375896668e-01
-7.222660216022257496e-01 3.549454366406876171e-01 -6.025355582908479279e-01
-6.648833625965551164e-01 8.551574097284923015e-01 -6.253217480841477549e-01
-4.504679775532890451e-01 -4.823722753460273349e-01 -8.715248602654879218e-01
-7.758112428573056274e-01 6.995945889771629789e-01 -5.405180552887599577e-01
-6.193814151489881459e-01 8.228923271604513534e-01 -6.649333751005501725e-01
-6.833591521466026997e-01 5.547578133838356740e-01 -6.249840593842783676e-01
-4.854809915639125006e-01 -3.188989520979676473e-01 -8.340805093634645617e-01
-6.828363550588969488e-01 2.391396312501556931e-01 -6.412732904937730183e-01
-6.350359584338475250e-01 -1.217817809752730629e-01 -6.993115716522763092e-01
-6.087262029264626229e-01 8.709364453244774484e-01 -6.714166136232322390e-01
-7.198324273550682495e-01 5.618010269611390939e-01 -5.941775924054955027e-01
-7.248312092082779268e-01 1.158746738489324496e-01 -6.124017421744439860e-01
-4.002197288015421628e-01 -5.306675759817823801e-01 -9.159044847194290906e-01
-7.863880934618230345e-01 8.601071062648508736e-01 -5.236249525142033789e-01
-7.549646796317924791e-01 3.025715177132357048e-01 -5.778650174459869504e-01
-6.956682829944759172e-01 2.571990176222071489e-01 -6.296524247062103008e-01
-6.425431543144015656e-01 -2.783852760259234449e-01 -7.009093852086863974e-01
-6.289262988254200604e-01 3.881508699795545303e-02 -6.963463330049058930e-01
-6.321973284493704881e-01 -6.679096356960821934e-01 -7.291123040429151603e-01
-6.294656615741633932e-01 -1.275099727668845828e-01 -7.042501036823168858e-01
-5.213254595322245333e-01 -4.318107426965717144e-02 -7.903041808962604220e-01
-4.862460309185000495e-01 -7.555898600299389145e-02 -8.212193808566549125e-01
-4.350129279873430899e-01 -5.853662265971011358e-01 -8.896019100990659734e-01
-6.414201954518068405e-01 8.696031799727493850e-01 -6.441863206789675278e-01
-7.550115072075485045e-01 3.926045390363547827e-01 -5.733037806463366914e-01
-4.532668859651283189e-01 -6.362196677279716717e-01 -8.769153412452806995e-01
-6.668961219421314368e-01 2.996266758224238047e-01 -6.515441840970499499e-01
-5.403205268219023472e-01 -1.081068547765105942e-01 -7.777056554512621345e-01
-7.035406182807366626e-01 4.574710591886408939e-01 -6.130203843540964481e-01
-4.935880379226806891e-01 -7.707221788791571715e-01 -8.500056552979635693e-01
-4.029155643006535614e-01 -8.048358678649469855e-01 -9.274244497403293375e-01
-6.941819382871130539e-01 6.740144033536575874e-01 -6.099578017231038762e-01
-7.251737989038591348e-01 2.491925038847961626e-01 -6.054194738085911798e-01
-5.001438638962516503e-01 -6.684339678330172285e-01 -8.393942993644362138e-01
4.529569370690097463e-01 -5.431425452633594775e-01 6.561194434234620676e-01
-5.488589448968246298e-01 6.296850129824179687e-01 -1.860693966357415408e-01
4.921499013518730314e-01 -9.556765338704349411e-01 5.711892299005955076e-01
-1.801131348263460275e-01 5.929984479198090463e-01 2.509153995534876280e-01
8.256481383241869032e-02 5.544988022975750885e-01 5.582281345035925435e-01
1.215710475884902858e-01 -6.005585681973060197e-01 2.343492835251095308e-01
-2.142878018524373984e-01 -7.748539090956116926e-01 -2.304413795019699118e-01
5.010495713437621706e-02 9.841817574225758536e-02 3.720931012210645372e-01
-5.412736343340522893e-01 -4.895061503778386780e-01 -5.366578734466403988e-01
-1.785789543514861577e-01 -7.436727085592655939e-01 -1.769574135139529714e-01
-2.454872625374786115e-03 4.928175936635103560e-01 4.349249965733725798e-01
2.764849492688593591e-01 5.119948049752981456e-01 7.805722497656573111e-01
2.922025710292748268e-01 6.326464218742369749e-02 6.554344579206945465e-01
-2.351296472033373997e-01 -2.529048954978326269e-01 -8.800011697218404483e-02
1.916430572942650068e-01 2.710454335362625367e-01 5.998507542176773066e-01
-3.462163666576071885e-01 3.862137420632631990e-01 -1.772070134349768011e-02
-1.620960838795980907e-01 -5.567010346336357385e-01 -9.678562911096778854e-02
-1.382423183609592932e-01 -8.810143212472548724e-01 -1.720213392836962285e-01
-2.236992460464923005e-01 -8.434477267363440500e-01 -2.639484350605010854e-01
3.025603905233772428e-01 -3.355329518582368942e-01 5.398268841974388499e-01
3.732273212857515898e-01 -1.853102810780962468e-03 7.331097038737148797e-01
3.524226460877442624e-01 6.971906823791655938e-01 9.325321996416158221e-01
-7.130606244214422462e-01 -5.682726786120584350e-02 -6.066237136057525126e-01
-2.330008212398671508e-01 8.251219946851339193e-01 2.611765623837888906e-01
3.519470935701375647e-02 -3.245999227364017026e-01 2.179463055609512090e-01
3.547064071135250241e-02 -6.879126609909594903e-01 1.014770262009666718e-01
-7.151817268483495749e-01 7.588706528089645964e-01 -3.469581830848814108e-01
-7.315533009832694278e-01 6.039204713259557211e-01 -4.166996004414797450e-01
-2.096035222719180580e-01 -4.586104434196956042e-02 9.630905573815856310e-03
1.751709180787137110e-01 2.317867340741674720e-01 5.671817736044810765e-01
-3.799840859532018778e-01 -2.463603448834751353e-01 -2.621901336556631823e-01
-6.335181836045213899e-01 5.545855691453024372e-01 -3.132478187552104609e-01
-2.504506001401486937e-01 -5.781173418075218340e-01 -2.112022266954309835e-01
-5.095371432128277256e-01 -3.578924395782537293e-01 -4.557193691830638271e-01
-7.123054710475323903e-01 8.300535054851028161e-01 -3.205723581133133604e-01
-2.725732062534302891e-01 -8.801661973038057418e-01 -3.352351433625040400e-01
3.241043056937527034e-01 7.136753315879240667e-01 9.033673769281502786e-01
-3.268587238219254343e-01 -8.087097207384075226e-02 -1.443294217727399131e-01
-4.417227870833783654e-01 8.116552295674864803e-01 2.823373519289331269e-03
-4.577575218572000337e-01 2.151775930955059368e-01 -2.084592386612600934e-01
-5.060386832691626813e-01 1.817530495019081815e-01 -2.779654872836793134e-01
-5.724457234342189560e-01 1.323205037229994718e-01 -3.746782861083765015e-01
-6.465067368477236398e-01 -6.229415094950738752e-01 -7.076305794023075579e-01
4.806313082840874690e-02 8.534743085668206053e-01 6.123587703307733499e-01
4.328550921263403795e-01 -5.578585626093739425e-01 6.269234305848310207e-01
1.004434359023371592e-03 -6.741516543317765953e-01 6.395433434700120712e-02
-1.281817035264064542e-01 -4.945721009408052260e-01 -3.553590608781557331e-02
-2.571325150772872936e-01 -2.781067763758536260e-01 -1.228809632874967306e-01
5.499743231936855548e-01 -8.890239560186814494e-01 6.629928554692927634e-01
7.817118342885628901e-02 -4.500217236975379009e-01 2.299273976846336054e-01
-4.057906006734273707e-01 8.661975302010705979e-01 6.408974975473011315e-02
4.304606989950122697e-01 -4.763360534032575755e-01 6.502188499259917709e-01
1.161829274906946846e-02 8.153421868862301691e-01 5.557443499227593398e-01
-6.632311170679320300e-01 7.417939002570159701e-01 -2.892222320248620249e-01
1.853241716738306677e-01 -7.625324584303682096e-01 2.598649513741186357e-01
-2.946193453450250965e-01 -7.051818005475983808e-01 -3.058087344050403056e-01
4.273990521960732147e-01 -5.742432171132904051e-01 6.150155261296256226e-01
-2.345066633819908875e-01 1.709414430757953129e-01 4.902474243064665338e-02
-4.532676869540814280e-01 -2.788145507475833784e-01 -3.618134643610589896e-01
-2.794654031833219698e-01 4.804009201905634630e-01 9.379928795647184125e-02
-1.387727512931064555e-01 2.552574956913320481e-01 1.926446601305308592e-01
-3.402853221685304685e-01 -2.962981278389250073e-01 -2.299300330373383050e-01
-5.227017976817251999e-01 -1.100780521668501682e-01 -3.920689580323026280e-01
4.509057927876289340e-01 -7.330133268764186250e-01 5.925796277981817406e-01
-2.136618357472903629e-01 7.698914913931012016e-01 2.669563255666232426e-01
-2.672688007487789008e-01 8.297244741511849986e-01 2.209506532729272887e-01
-2.803974898305815477e-01 1.128549179953875492e-01 -2.550119632973409795e-02
-9.885551420591197347e-02 -1.459411339492767135e-01 1.122402374077408893e-01
-2.851047045008936118e-02 1.016917529243065166e-01 2.774671955217469232e-01
-2.964435194433727161e-01 -8.752764298732328418e-01 -3.627142816231843647e-01
1.144721109779937573e-01 -5.346744088527146666e-01 2.468913390123843032e-01
-6.214703017320477585e-02 4.542151196836672900e-01 3.498663688003210703e-01
-5.661143971880782111e-01 -6.723660657791430406e-01 -6.256796418635063306e-01
-5.332034529658353783e-01 4.600424485959950793e-01 -2.215560985199827582e-01
-1.326002881671733136e-01 -9.580453194002965800e-01 -1.899202229720574620e-01
4.664528784021011731e-02 -9.264492841837983494e-01 3.838749299414834920e-02
2.162239913455979434e-01 -9.139235413303654632e-01 2.487991069357764207e-01
3.463091368959429484e-01 -7.317027085133956943e-01 4.657023567111399087e-01
2.076726406748140852e-01 7.062079317738817474e-01 7.592642558548318155e-01
-7.020585050067588151e-01 8.637714879754021524e-02 -5.471934190486090754e-01
-4.613348845236779350e-01 1.508109491725824203e-01 -2.335069287503654667e-01
-4.218698532466086948e-01 3.397536867570357666e-01 -1.247311675690758737e-01
-4.827252845217437915e-01 4.563464113394522514e-01 -1.613102700134569079e-01
-8.340352244005075355e-02 -3.838375812524827957e-01 5.456223348912751792e-02
-3.655293890063656126e-01 -9.186831507958524989e-01 -4.607500276067104661e-01
-2.457285715746709842e-01 -1.129140940797615789e-01 -5.589240081723938908e-02
6.953087893344107873e-02 2.416263313819350667e-01 4.417767281671323154e-01
-7.645393223713099762e-02 5.990509537966640652e-01 3.790189951409880242e-01
-2.129820030632986472e-01 -3.213415578731756428e-01 -8.304787737044308504e-02
1.720140874666021835e-01 2.617979078553804850e-01 5.729883716486916523e-01
-1.726634118391522782e-02 -4.263323697069807544e-02 2.447512792683604332e-01
2.239883054128265771e-01 3.947126361199426725e-01 6.789753383852774604e-01
-1.967513194717367131e-01 1.384770249220399763e-01 8.453730675862976274e-02
-1.906027996809686043e-01 -2.730134775557347196e-02 3.872254853705277278e-02
1.088145365217512393e-02 -3.868717460999032132e-01 1.683356256945668927e-01
4.654957787930771862e-02 -2.921015218939435609e-01 2.422139103274625616e-01
2.140261352090035707e-01 6.101472916907855204e-01 7.361132221833094347e-01
-1.030753085717627526e-01 1.214233090734568310e-01 1.930622743533455254e-01
-1.398371780096470396e-01 -2.445342409127491401e-01 3.066608888316258580e-02
-2.516774261222657350e-01 2.942102370222577923e-01 6.775812034468560452e-02
-2.669293179266579719e-01 -7.843085925228692190e-01 -2.975480539146995729e-01
-1.023803321130433014e-01 4.413466045981862540e-01 2.967634780088655444e-01
4.003623236255198781e-01 -3.044355757855563005e-01 6.688538600676077195e-01
2.665862756992571914e-01 -6.728231882328332691e-01 3.876059756348690377e-01
1.047782409009400534e-01 1.018119725227436684e-01 4.397239484577714075e-01
-4.419561722963316064e-01 6.502438106929289141e-01 -4.935446165267180774e-02
-3.748246864079390894e-01 3.998216966027075547e-01 -4.816329918928444892e-02
-1.519406353707133117e-01 -4.209315036571208424e-01 -4.077608637053030394e-02
-5.240083045379069215e-01 -6.615446670386837535e-01 -5.709556323296567371e-01
-4.909713168738848998e-01 -3.473874054772562725e-01 -4.297465888831120684e-01
-1.639922106819689251e-01 -8.839818258970069675e-02 5.146613989901095004e-02
-1.014210950224695568e-01 7.938590682113707553e-01 4.112637206507210874e-01
8.423096171082258832e-02 8.304217917847939168e-01 6.489651906304575446e-01
-4.399901193307285130e-01 -8.949565781687527366e-01 -5.437438467066373349e-01
-3.997453560898307501e-01 3.329692064589381828e-01 -9.998591308156302981e-02
2.384531363414932603e-01 5.504522286029691625e-01 7.466499628930707289e-01
2.515463816772073868e-01 -2.618841432815500747e-01 5.014187412882266104e-01
-6.421071358078681568e-01 6.829181489684660322e-01 -2.824419998913559882e-01
-1.006588630203143347e-01 6.933642507748274397e-01 3.798822909854775998e-01
8.747669905051584649e-02 5.689249531281632688e-01 5.688441200139454645e-01
-5.837748857370448352e-01 -7.337489913900472338e-01 -6.669078368131498014e-01
-2.128242099872433291e-01 2.901564933878138242e-02 2.978405813297076155e-02
2.593886166003162574e-01 -9.259922177927631948e-01 2.974522336370416520e-01
4.041367244825783689e-01 -7.095931787799331092e-01 5.431892384937336837e-01
-9.734587438303921036e-02 2.587940333399343928e-01 2.441999509246903233e-01
8.226133684689375392e-02 -3.389978115971830630e-01 2.705994949029491004e-01
-4.633810217511986629e-01 -3.969871070451862494e-01 -4.121143229086150495e-01
-5.985071416397644839e-01 -3.368870355882331302e-01 -5.572464485864797590e-01
-3.661596864760517378e-01 -6.295908465776751603e-03 -1.681844918666415556e-01
-2.286609335704730128e-01 5.888780490874327977e-01 1.905059287388208566e-01
4.447083907738702546e-01 -3.709282834765521009e-01 7.014475182547603715e-01
2.255263341805594512e-01 7.397222707267752106e-01 7.917678347781735848e-01
3.217780804682776052e-01 -8.655402988322523639e-01 3.928181992018788260e-01
1.994957637234334447e-01 -7.472159436063048332e-01 2.820366510612373201e-01
9.255715780164361361e-03 6.379508260682139609e-01 4.958376429562788568e-01
-2.225332048036632315e-01 1.325452558816464510e-01 5.125257727740412106e-02
5.041707647897852862e-01 -8.706007504889933246e-01 6.131710155152348962e-01
-1.338202691054005133e-01 -5.599696187290267302e-01 -6.342359499718612514e-02
4.440680129882722260e-02 -1.181302908205570101e-01 2.955378357589909522e-01
-3.394650889873273569e-01 -3.505740948545267299e-01 -2.463815054447222042e-01
3.648120302212830568e-01 -8.473828189676853029e-01 4.510300019706113273e-01
-2.751727511426012573e-01 6.786549809805634270e-01 1.627623405737903817e-01
-2.493645243720372662e-01 2.079542027721701103e-01 4.284169347318325660e-02
-2.960573635237566670e-01 4.553017079417930879e-01 6.553675713113953083e-02
-1.931085517872235258e-01 5.781057236398150917e-02 6.303643535527972408e-02
3.219126824338640058e-01 -2.619913445951828068e-01 5.870230946723896670e-01
-2.052098038468357366e-01 -6.690473491001824868e-01 -1.853762400817071943e-01
-4.242898563833389924e-01 1.046382339365782982e-01 -2.032660688696877882e-01
2.717043267945811191e-01 -1.147297766756522341e-01 5.732619795561547660e-01
-5.922460251575991652e-01 8.860492530907784214e-01 -1.564522004002343314e-01
-3.729804111718759696e-02 4.657979534649598352e-01 3.838325414945426561e-01
-4.055998270318980081e-01 8.680844501347231290e-01 6.492857453385118827e-02
-5.668222672292248104e-02 8.242504551826217440e-01 4.754836856846761384e-01
-3.788789556987648965e-01 4.585434008213777890e-01 -3.421848283791298351e-02
-9.214432149901342906e-02 -7.128546982577365076e-01 -6.185474776237547684e-02
-4.904475510395311932e-01 5.601849408774053352e-01 -1.373244981741771897e-01
-2.945238069199747066e-01 -2.804112902167683608e-01 -1.691286774078125110e-01
-5.908448230556726521e-01 -5.032226805093150679e-01 -6.013980115885249056e-01
-5.504773105867318828e-01 -9.280896639413865890e-02 -4.203209398400047370e-01
-5.966012026596156231e-02 -7.840719785434313582e-01 -4.521644206809760647e-02
-6.365671768830097887e-01 -4.390862319917391288e-01 -6.364242076159697392e-01
-5.689609369231981573e-01 -6.401250799025625104e-01 -6.187785215358471147e-01
2.630309910985635935e-01 5.882759641346710922e-01 7.887226073065379817e-01
-2.393406284898960679e-01 3.363373104886604459e-01 9.631639481789758261e-02
8.470599951027908692e-02 -3.676391392151228676e-01 2.643665635392512536e-01
-1.110716858895535036e-01 3.400545066036723268e-02 1.552254842041665417e-01
-2.817958612586565770e-01 -9.180465166469637950e-01 -3.586380400497147236e-01
2.999260091559472485e-01 1.692659063063074454e-01 6.989136370336672677e-01
2.885652745023410404e-01 -3.928335719290724781e-01 5.043720673198461846e-01
5.152282855311970389e-01 -8.844786112941255274e-01 6.221667601681338811e-01
-3.349879586910121110e-01 -3.472742913024107758e-01 -2.398717577131969370e-01
3.012723511350166583e-01 -3.414141365024020991e-01 5.363684830443640195e-01
-5.689533775856349118e-01 -3.757622677032563807e-01 -5.337766378243539167e-01
-3.434833373806107926e-02 -3.461912834578318998e-01 1.263678012672758977e-01
-4.846506356312147989e-01 -5.160369083646594301e-01 -4.762748879948970893e-01
-8.395191127878227910e-02 -4.043773500556431810e-01 4.729128191079707416e-02
-6.412180416019547247e-01 6.926831302676830227e-01 -2.782204910018288846e-01
-2.691869563590154057e-01 1.170672974441473307e-01 -1.050321364612302917e-02
3.653661833868218634e-01 -3.566654204164751429e-01 6.094701472879062720e-01
-6.326373440362307310e-01 3.687934335363654559e-02 -4.786184281072980995e-01
-5.833950565449459447e-01 -4.864945419641932833e-01 -5.869532258465838259e-01
5.306568000056171436e-02 5.211241382764266739e-01 5.115964586581047691e-01
-5.964068931953374342e-02 -2.378830240349545933e-01 1.304070368177121797e-01
-6.823286096416960600e-01 -2.938433746038935368e-01 -6.454222418002291128e-01
2.462558049968360807e-01 -9.660610102782558606e-01 2.685869135208054925e-01
2.184606964438484955e-01 -1.099557954516496988e-01 5.099970239505500214e-01
-2.790037251261755502e-01 -5.512043978363680985e-01 -2.373000940430896599e-01
1.109742047943634846e-01 -1.817793045592069057e-01 3.560900653610853395e-01
1.621828366745907135e-01 1.824878555504206301e-01 5.355251223320713905e-01
3.263405645478678063e-01 -3.057439902732777548e-01 5.783455357781752681e-01
-1.469707843073635167e-01 7.910159386815448501e-01 3.549137204451804362e-01
6.121751538461786546e-02 -2.224710999215293028e-01 2.824516130850807105e-01
1.157620411698482565e-01 -4.196464606399855080e-01 2.854427421709536117e-01
-3.609794703406148386e-01 -4.491585677480489647e-01 -3.042603569371889471e-01
1.123113491306284989e-01 1.701222249586243906e-01 4.708538219939550351e-01
-3.320557941413889158e-01 -7.789556861872994897e-01 -3.750888202083356715e-01
3.277850611165527561e-01 -7.990531001909876307e-01 4.215045976750844692e-01
5.300641739160498744e-01 -8.662983403911376223e-01 6.460676351135948847e-01
-3.330699474926848702e-01 -2.512822219160550374e-01 -2.066759908095137099e-01
-3.176573279301032060e-01 2.696894780510947220e-01 -2.042568951726086643e-02
1.836082953452058963e-01 4.492851713774186351e-01 6.473762052585348981e-01
