-4.930091082753265685e-01 2.262958143702716585e-01 2.432566143627076446e-02
-6.338801674003953224e-01 -2.482521236498561878e-01 -2.170583171076854723e-01
-2.000911488749688993e-01 -4.274437492907539604e-01 -1.833087182737450638e-01
-5.932803573656663110e-01 -1.822363185808422714e-01 -1.780920277240705119e-01
-2.193618993188361788e-01 -2.349086003940525080e-01 -1.049745919080737194e-01
4.065123448345098374e-03 -3.187802230007605320e-01 -8.394852283208092958e-02
-7.023471951236929245e-01 -2.998402287356135426e-02 -1.402114740309637897e-01
-6.054804184564800407e-01 2.368879970789978806e-01 6.132625783162370188e-05
-5.570988623294831354e-01 2.530720779976328161e-01 1.946987931341862682e-02
3.849124053164950654e-01 4.404630508105065734e-01 3.421208659549337949e-01
-3.681027616989398510e-01 1.634156320241683114e-01 2.916329465159255008e-02
-4.041727320104114285e-01 -4.388479228145416022e-01 -2.405825213004781082e-01
2.611033396661749384e-01 -4.911663118829612817e-01 -9.258696873260195692e-02
-3.578198743606917365e-01 4.452359302046887679e-01 1.536952827585168768e-01
-5.367715257646989979e-01 -9.908857158104329710e-02 -1.276355039173600048e-01
-1.352842630419430203e-01 8.983732892256808544e-02 5.705014597796438658e-02
-7.656238383775602063e-01 -1.271503315860738614e-01 -1.984671494272475523e-01
-5.371949485241521716e-01 3.067919825655712751e-01 4.780995084264830913e-02
4.418670964554865521e-01 -1.453318437825410203e-01 1.033563944056055534e-01
-2.845877948507098965e-01 8.470978035607394929e-01 3.462931206724885191e-01
-2.762953249204131226e-02 -4.946563245279845394e-02 2.440835525720724472e-02
4.598681203688371744e-01 -1.098293825241306032e-01 1.233289031084656290e-01
-4.221654667117490933e-01 -6.537862004842812103e-02 -8.366182339293964931e-02
1.542069270674510939e-01 1.110960473213418696e-02 9.724469121217481360e-02
-2.962183135194118577e-01 4.183798559287819074e-01 1.578783929600285629e-01
-6.729153470712201379e-01 2.049904389842245322e-01 -3.103037552335711005e-02
2.394774819375656005e-01 -5.768879046424800761e-01 -1.352102452029944613e-01
-2.935896751600743926e-01 2.168807035833034413e-01 7.139886397736135148e-02
-1.102108236966413829e-01 -3.028638246604275497e-01 -1.063728329651954518e-01
-2.610067175849699050e-01 3.965018353118084787e-02 3.098600898539974162e-03
-4.484029951580146833e-01 -8.898036013892350604e-02 -1.005993883265437344e-01
3.845070838914534384e-01 -4.377445467022384462e-01 -3.783104933786594209e-02
-8.111435196653138391e-01 -6.583201401457008939e-02 -1.836198792994388485e-01
3.460105288752260422e-01 -2.374423734991422397e-01 3.893164085210686770e-02
-2.421010892214872645e-01 -2.978975999553064025e-01 -1.380509603583785216e-01
2.268810716922220749e-01 4.658827092365824818e-01 3.125849382838565282e-01
-5.113195907267347184e-01 -1.158868661493656638e-01 -1.283735027819090657e-01
8.659060250668771941e-01 -7.746660194922602716e-02 2.414639838706159891e-01
5.340576245475908701e-01 -4.001858060003609108e-01 1.676961262857311341e-02
2.019882549163183050e-01 -1.407033119913457808e-01 4.383616766184807167e-02
3.198447723779390128e-01 -2.272702208711736144e-02 1.250909146451278098e-01
3.992810508515231005e-01 -7.123053215001503569e-01 -1.527967222812786352e-01
2.782048317079222621e-01 3.878955664132053421e-02 1.410189825103793926e-01
-6.519395146302962019e-01 3.762551606393683967e-02 -9.804040924817908342e-02
-3.352600652381218516e-01 3.407348318231849249e-01 1.142817576689743875e-01
-3.999042623336448998e-01 5.731619382094826909e-01 1.982331930667652065e-01
6.263807030501609141e-01 -1.046474736477908812e-01 1.682760185042802836e-01
5.350693135843677395e-02 5.160351830546388019e-01 2.898116067538577534e-01
2.134524514682567542e-01 -7.310005061373533453e-01 -2.085427020954160882e-01
3.962717821252720318e-01 7.167220743981375652e-02 1.855224551145016054e-01
4.227677711070805811e-01 -4.250223025797128518e-01 -2.251555081318932020e-02
-1.265525175674152292e-01 -7.954682475045551926e-02 -1.397352292117029146e-02
-3.328308817207276116e-01 -1.011284007531519230e-01 -7.621273376281553769e-02
-3.834072872467083615e-01 6.004993621049896646e-01 2.142883613339599536e-01
4.962352969344922815e-02 3.961836608076491628e-01 2.369766770027972314e-01
5.271333298350043828e-01 -1.565415501235045692e-01 1.203762958277789785e-01
2.123230819317602491e-01 -4.874129261771297239e-01 -2.091601099228193872e-01
6.607989001609837487e-02 8.051750046450577292e-02 -1.022486114196264825e-03
3.927278723361898871e-01 -3.889062701266494115e-01 -1.202846172504983269e-01
-7.431866965664017943e-01 7.571146264992617558e-02 -2.106553857362457038e-01
5.165478983740696695e-01 -5.404324683489735159e-01 -1.540673359827412492e-01
6.357137801404744160e-02 1.515404585294397311e-01 2.905345462821665170e-02
-5.975954933862287488e-01 -2.347687846985726801e-01 -3.076062297266284884e-01
2.451574577266511235e-01 -2.764668045984615408e-02 -1.877979816721827211e-03
8.015731841627028453e-01 -9.536629668438163787e-02 1.115365129819256840e-01
-5.964326458374049622e-01 4.530896640943035125e-01 -9.791060362943531867e-03
-4.981766466387769765e-01 -1.440083016135212113e-01 -2.428517823640506945e-01
-1.615183440184879693e-01 -1.753239977548284589e-01 -1.700532435334788095e-01
-8.658303184636590988e-01 -4.329764902128903359e-02 -2.935846132922269036e-01
-2.480644817864334495e-01 4.606103476123342699e-01 8.280848829159340174e-02
9.692892623011135564e-03 -3.852281435163178447e-01 -2.169314500272270241e-01
-1.535692608471576903e-02 -6.783430655233125828e-01 -3.501359643566505087e-01
6.841975130781720316e-02 -2.121343384825647993e-01 -1.270020207725580386e-01
-4.702555043082454200e-01 3.159303889664102916e-01 -3.675517176161254007e-02
-2.755561098492240180e-01 -2.010410051290647260e-01 -2.104240135183215454e-01
-7.191914466954856255e-01 2.251729762834906723e-01 -1.398552288282927658e-01
3.422277880254547267e-01 -5.955119571714172499e-01 -2.225988831678028523e-01
-1.240774532346682751e-02 -5.935316542031517928e-01 -3.126964087221190125e-01
3.979411073669943955e-01 3.996250698453240185e-02 6.654949508726736018e-02
3.468896575758004808e-01 -4.969386419802460653e-01 -1.787676843387495385e-01
-7.122641959378916976e-01 2.879354578178123202e-03 -2.342264411648709022e-01
4.816924646934918341e-02 2.125582649559610848e-01 5.149505179379609138e-02
7.385428876564166245e-01 -3.242154846864458428e-01 -3.612301778485391655e-03
-2.821058901779867067e-01 7.220407470307994569e-01 1.871533695295949651e-01
-1.443357651153247823e-01 -2.338092771074624099e-01 -1.909428211404034237e-01
3.271547119030490114e-01 -7.466479286326362930e-01 -2.918350001749429601e-01
-2.731275111108509290e-01 6.738071264998201082e-01 1.685937579564784905e-01
-1.306255059922865371e-02 5.657867971656362072e-02 -3.167447213335552320e-02
-2.258415571604430738e-01 -4.918451773825291418e-01 -3.234541051479670193e-01
7.602798712622019228e-02 4.971888031287639564e-01 1.817502558398715606e-01
4.722357818216459391e-01 -4.371227741000424105e-01 -1.207479808387385833e-01
2.416082891238915120e-01 4.693181841621035799e-01 2.121621768669964825e-01
-5.741271125643445661e-01 -1.676387478192932767e-01 -2.725517363540867488e-01
5.969665232309029346e-01 1.863014099033581672e-01 1.808893645233286551e-01
2.988018864857065471e-01 -3.906304816279038694e-01 -1.451197628732163181e-01
-1.536954202866972485e-01 -5.400231401722043190e-01 -3.257888866697333241e-01
3.448751767356458831e-01 -2.933877043661143880e-01 -9.124318991818333724e-02
1.482419313767349978e-01 5.574420186022528423e-01 2.263322110923506048e-01
-6.026949519998017063e-02 -4.324616817311213168e-01 -2.553045902603222062e-01
-5.150122661926195278e-01 -4.190804281645451462e-02 -2.030085898197930561e-01
-4.969793352001154463e-01 1.926169827976217663e-01 -9.694538657955599492e-02
8.440772021323546259e-03 1.084295597526977739e-01 -3.732599575555684782e-03
7.587171021299858875e-01 -2.557081108815417725e-01 3.119306496883497010e-02
-5.129861990554256401e-01 -2.543841258864711352e-01 -2.943904736236947484e-01
2.721808739051377879e-01 -3.464242463713831377e-01 -1.328269419394126072e-01
3.057377936892174963e-01 -6.119556348698692583e-01 -2.390698669062503168e-01
-2.988109242516099884e-01 7.915938355524134717e-01 2.129525435233302344e-01
6.091238180966868782e-02 5.644177127720968468e-01 2.069518049911013013e-01
-6.045038618403403285e-01 5.039963693535985945e-01 1.015739275734012410e-02
-4.522570183353345485e-01 6.654411346951994988e-01 1.190335557080981488e-01
-9.120034411858427004e-02 4.291665405633416502e-02 -5.762380929629066367e-02
3.209118607256362665e-01 -7.280344937789791082e-01 -2.853853144696979482e-01
3.219317589521875078e-01 -3.493068225561709594e-01 -1.213140268203267980e-01
2.060637564313722025e-01 -1.614320220958320451e-01 -6.977010758448083660e-02
5.056826837854254686e-01 8.420708396427815934e-02 1.133191320316371681e-01
2.239361964614760073e-02 1.091846131880768178e-01 1.724946874451190916e-04
4.623482828002509204e-01 -4.989705468932781884e-01 -1.500346406612626526e-01
-4.492870006097912650e-01 2.355979319842309572e-01 -6.612324680776332508e-02
-4.078622121599811967e-01 -2.285080866667105748e-01 -2.562370522349317614e-01
2.569831385100625198e-02 -2.331111851048893180e-01 -1.470319099295268883e-01
-3.568044266811042364e-01 1.162252638239836683e-01 -9.403589200986568752e-02
-7.561570553531743455e-01 2.186105755256190775e-01 -1.521742812459702943e-01
2.948872448476379526e-01 -4.448024396028006366e-01 -1.695545599762771083e-01
3.579512143991997464e-02 -1.025337238053442568e-01 -8.796416428736454629e-02
5.737114918173119582e-02 -3.953573502808126472e-01 -2.090844648953297802e-01
-7.335902990864533180e-02 3.252076050170783078e-02 -5.754451135807176626e-02
-2.131380367775993490e-01 -6.554713096577967357e-02 -1.358108537540216043e-01
-1.234821699884301183e-01 -5.069412203811917150e-01 -3.037312327876138807e-01
6.569624048476728484e-02 -7.288740325492419903e-01 -3.512040792304950698e-01
-5.457796390913363105e-01 -2.806953770066029086e-01 -3.141813808641544248e-01
2.078286446899928752e-01 6.738369324525679549e-02 2.965137201571399136e-02
6.824923981481232360e-01 -1.635394828598864536e-01 5.150893214398876568e-02
-3.074821800683805173e-01 -3.081165914811141437e-01 -2.649251710995768061e-01
-2.569736318731362726e-02 3.156387587433085451e-01 7.713537387268593060e-02
3.588521913166951571e-01 4.344623371171358328e-01 2.271558727776665787e-01
-5.210884316057841081e-01 5.798571273074505372e-01 6.436288871666877298e-02
-3.247740316072997291e-01 3.131432870551851821e-01 -6.487531498346407483e-04
1.637800699454673714e-01 6.199488591841607887e-02 1.602334776224970461e-02
-1.915477471412426469e-01 -2.653755842648278795e-01 -2.167046300552671056e-01
-4.697370231265249330e-01 5.472581324350409560e-01 6.343315787025022301e-02
1.272643694892248711e-01 5.928889810292332641e-01 2.362838020489340107e-01
-5.508311112637767071e-01 2.486451890834067147e-01 -8.652317759673854025e-02
-5.000530044138181696e-01 4.047381835567257641e-02 -1.635396301101469108e-01
1.591099977434351775e-01 5.138774969171854279e-01 2.102767597314514902e-01
6.950024852331151415e-01 -1.493507269119007108e-01 6.085442968083964316e-02
8.543223066041406577e-01 1.349838893948600294e-01 2.246977164910626823e-01
8.612413402294957776e-02 1.939577309203289746e-01 5.318419313162710965e-02
1.012264153986527360e-01 4.203047011838750291e-01 1.549585422583219518e-01
5.051759558437972641e-01 -6.261543938027810396e-01 -1.940609149554064217e-01
7.814918092988172305e-01 6.571527048844393037e-02 1.760582327878835451e-01
-9.705688796207312397e-03 8.502599518170354809e-02 -1.850931665572844859e-02
1.793389088893102279e-01 1.625099568282957138e-02 2.283134749423927949e-04
7.855004174679362794e-02 -4.211904564105922177e-01 -2.148261736278046230e-01
-4.660876729894365689e-02 -9.178717662214448680e-02 -1.044502832204276671e-01
1.733876143846752038e-01 -3.877933571785611155e-01 -1.760578717969461804e-01
3.102171068887931149e-01 4.633891985490551924e-01 2.271939698694275811e-01
-5.503668236070731190e-01 -3.065380018585769362e-01 -3.265354821518410278e-01
-1.274988420704607772e-01 7.081762990592274098e-01 2.208089975556966622e-01
1.142135168702663045e-01 8.793924942683621626e-02 1.453254023479695276e-02
1.749391453698837529e-01 3.787402040840538997e-01 1.558860463275868746e-01
2.611812917389214617e-01 -7.716938105936658188e-01 -3.195883353237197744e-01
-2.216525907485518698e-01 -1.611022793564302058e-01 -1.793247211927081475e-01
5.529242372097156188e-01 -2.281690479454871467e-01 -9.675656319406455638e-03
5.957947064758535305e-01 9.130440169209431966e-02 1.395001134094100426e-01
3.413915947691939512e-02 -1.984463430553017049e-01 -1.298736109931336591e-01
-6.704030446450480740e-01 2.912048520190057554e-01 -9.878184447837667914e-02
-5.802271272803799507e-01 -4.614808975800004033e-04 -2.018076391537277359e-01
1.222654703206152160e-01 -1.862090722238782803e-01 -1.019787436003282699e-01
8.650252227054959775e-01 -1.513020561999033897e-01 1.036164874907916644e-01
-4.422012382224353999e-01 1.241119181339623012e-01 -1.125265907632836543e-01
-5.814330239165745873e-01 2.309699558395655883e-01 -1.020167139497207831e-01
-1.774016709368027578e-01 -3.890018684263689686e-01 -2.665481890063837178e-01
7.301728047519155940e-01 -1.921317099155711583e-01 5.137072518908760571e-02
-1.839066873474897168e-01 -5.208250966116768632e-01 -3.252335680951243257e-01
1.852091815641794259e-01 -1.293655831151803715e-01 -6.124913951189867728e-02
5.076338157862678724e-01 -5.849297326140352471e-01 -1.755997889997082118e-01
1.550278917059698391e-01 4.240590413735910169e-01 1.703809618054770159e-01
2.970783920263838640e-01 -1.974576785256931255e-01 -6.200945566886834071e-02
1.043478093444070581e-01 3.025013437560466478e-01 1.048060312754114098e-01
7.458253763441510809e-02 -2.600074743349498063e-01 -1.461278337066500566e-01
1.278410573204045997e-01 5.358050706397502472e-01 2.117414086071125190e-01
7.063116642458109329e-01 2.084122313195878595e-01 2.184968373822726850e-01
-5.006310154493290865e-01 1.554731991785815171e-01 -1.139476066877765648e-01
1.282924212049813273e-01 -2.317428467570394335e-01 -1.201275590060807558e-01
-8.037877112010863301e-02 2.738258549063300462e-01 4.502594342662680910e-02
-2.532168976672778404e-01 6.361632101363960956e-01 1.574182841209015027e-01
2.669150410459129596e-01 -8.402941683469735690e-01 -3.477892546705017018e-01
5.232677867470449939e-01 2.317348232411237108e-01 1.816388577639272695e-01
-7.938713972870417024e-01 -2.043010054851440282e-03 -2.572854500087352614e-01
2.550461080470388664e-01 3.667704667782665795e-01 1.712540061980831751e-01
5.122254904048443303e-01 -2.407547460817378582e-01 -2.555738894414331594e-02
4.136924264345870350e-01 -2.991646320677929238e-01 -7.609217091638820207e-02
3.108422449956166345e-01 -2.643373191851220994e-01 -8.740662329760014171e-02
3.006570358091584794e-01 9.722343254290119474e-02 6.636572313952888991e-02
-5.448819426938144028e-01 -1.313957920762916509e-01 -2.493751364567564632e-01
9.216172931250396494e-02 5.340087198203239405e-01 2.018136934410819094e-01
-6.261037091967579515e-01 -2.341261839672883760e-01 -3.146398450147238623e-01
4.901594324979104966e-01 7.635222849376366305e-02 1.059404215709048996e-01
4.391130429938439605e-01 3.293482123300437436e-01 2.022758952008886224e-01
-9.723477718712234541e-01 4.645171656100974961e-02 -2.820843808049249279e-01
-9.307789291067692927e-01 4.560913060530499136e-02 -2.717875802329033363e-01
-9.520354122915916650e-02 7.073673355298711884e-01 2.287419375413135558e-01
-8.080432634565702932e-01 1.728612876708933155e-01 -1.852694113720555202e-01
1.598314278055938398e-01 2.168489078954378979e-01 8.198908298664152328e-02
7.185758355955684795e-02 6.500673005501292900e-01 2.468046489794622211e-01
3.367071368156511202e-01 -3.317809556434067608e-01 -1.099441572325974698e-01
-5.869170319864817076e-01 -2.205187340716471822e-01 -2.987039811937882705e-01
-5.269705741579718827e-01 5.170473974499310010e-01 3.568741857244923238e-02
5.683898569246602639e-01 -2.349384282303723093e-01 -8.637094635358326389e-03
8.032294164280396886e-01 -5.188709591337895000e-02 1.307671918083951335e-01
2.223219935641434705e-02 -3.396508419054796724e-01 -1.940020841313919164e-01
-2.872999423251079154e-01 -2.472923146690463869e-01 -2.334408888142910643e-01
-2.243915089860919476e-01 -2.523293709392988582e-01 -2.194853014151868509e-01
2.324602904191272468e-01 1.316552739889180201e-01 6.376785246837947396e-02
2.495056790340869843e-02 -7.444468944257250920e-01 -3.683898741481548833e-01
-1.120584505194934660e-01 -5.750316158595706328e-01 -3.302522623769860721e-01
-9.105138511523868106e-01 1.012541795995214461e-01 -2.425222044694579082e-01
4.409794655458678103e-01 9.676944414352520174e-02 1.021581252219675162e-01
-2.867517646079997262e-01 8.620885057938242335e-01 2.465361846688190750e-01
3.583152729810629711e-01 3.029647299125727278e-01 1.701419829738609335e-01
6.434129830670520800e-02 1.365050273496494215e-01 2.274769680117989801e-02
-8.909616491711929154e-01 4.088769547889178207e-02 -2.636177109847207545e-01
-9.814042113740691076e-02 2.138959042854258752e-01 1.454929362029381591e-02
4.967258596916525049e-01 1.740818405909737021e-01 1.498951621166943471e-01
-9.918311756531265067e-01 2.176732003390583273e-02 -2.977579798463477201e-01
6.475378318602422745e-01 -1.499606733619505139e-01 4.841726059941112159e-02
7.921593687110350945e-02 -1.775466513468035856e-01 -1.092730147985159495e-01
3.238582384705526729e-01 2.970367227787833464e-01 1.587407013873341766e-01
2.974050761018073863e-01 1.814624166647063955e-02 3.132871487239779346e-02
4.577308589576938869e-01 -6.557099207483906289e-01 -2.190127957819718862e-01
3.108015185415493042e-01 3.295225285316626951e-01 1.694429875434114996e-01
-4.926778297491661851e-01 2.397025252120945915e-01 -7.547643150827702818e-02
1.573897195576467317e-02 3.954139528452256802e-01 1.222675073288445463e-01
-1.993249959314676023e-01 7.534543760639337284e-01 2.219715686078885808e-01
8.062145888616449249e-03 -3.415380380982377950e-01 -1.984525672153236997e-01
7.849373523232592298e-01 1.371380248674572977e-01 2.078341439566428195e-01
-9.591187935157113875e-02 8.488218755012880701e-01 2.897430902049354939e-01
1.732600105193230489e-01 -1.458700470684102801e-01 -7.145238265423733970e-02
-2.109001930666613844e-01 5.608846050881027834e-01 1.357113476437992738e-01
-1.445960589863003742e-01 8.233035158531379905e-01 2.662196008338724718e-01
-3.920296593522835660e-01 -4.129657803735827803e-01 -3.319592672432130631e-01
-4.198282698267876145e-01 -4.011396838698127465e-01 -3.339737316300973036e-01
-4.423981631375199508e-01 2.237329057866610169e-02 -1.565817377646474828e-01
1.284906338811183518e-02 -6.441854556375414820e-01 -3.281278521743846710e-01
5.630434330952815980e-01 -4.075732169193285043e-02 7.398015073492851534e-02
-5.911779071648104456e-01 -1.697384021416792621e-01 -2.778329424171598339e-01
-3.827971086318975730e-02 -1.437293330707952732e-01 -1.247804674727212432e-01
-5.745932075428894503e-01 -4.140489880171307341e-02 -2.180718056342841882e-01
7.186254768955612215e-01 1.227491623409440735e-01 1.846034466769899685e-01
2.974612107306840447e-01 5.633094057233181129e-01 2.671405670790482079e-01
-5.009916924927626525e-01 3.190947368824731956e-01 -4.326947721315010931e-02
-3.269287652627749785e-01 5.834524671977022736e-01 1.157144719969907254e-01
-6.169599698906129692e-01 2.822768002670349441e-01 -8.893681407005875339e-02
3.867818291119834995e-01 -6.807222272796235041e-01 -2.480277128775356388e-01
-6.931485978551478466e-02 6.800496044590776945e-01 2.235660179752353427e-01
-7.997319047682751592e-01 -7.654709351159302844e-02 -2.910134879089636972e-01
-3.671488184029230717e-01 2.578175355343279573e-01 -3.544654397592624656e-02
2.962838838985814571e-01 -7.358572931893584412e-01 -2.950852663482357863e-01
3.231147033818558834e-01 -5.247006092729685767e-01 -1.968730761598000145e-01
5.671627582860019334e-01 2.549705774734395969e-01 2.029467626227399180e-01
-4.820961117285868514e-01 -3.596183967781833024e-01 -3.319846326634073308e-01
-5.011246373482124428e-01 -4.714735284897394324e-02 -2.017129427335790648e-01
-3.146791921250180479e-01 5.223048859586499892e-01 9.240820106861888372e-02
3.217783494605127026e-01 -2.153507027582786115e-01 -6.341381514860464086e-02
1.724619800878414086e-02 5.057167878972873565e-02 -2.649931537841158577e-02
4.555981521066862494e-02 -1.003214060569423138e-01 -8.450290864415001268e-02
1.548255804340732122e-01 4.148849557283287304e-01 1.663610404989089020e-01
-1.503810496322572077e-01 1.183076705373927034e-01 -4.019339472990696854e-02
-5.174521144322787869e-01 1.555916404518317697e-01 -1.182105173926445013e-01
-2.864254616154189304e-01 -3.769101045643435399e-01 -2.892797237898437901e-01
5.360274629970350757e-01 2.114164803074093310e-02 9.382425071875342970e-02
-6.064754280914919082e-02 -4.100993233009469496e-01 -2.457292386981705379e-01
1.509867936302911606e-01 -2.583710641227570659e-01 -1.258244962899372488e-01
4.661860931241991746e-01 3.519787613836812268e-01 2.190076822383320576e-01
4.457294261502178778e-01 -3.287250173199360304e-01 -8.066122656032780058e-02
2.742312026065122921e-01 -2.595223498479659694e-03 1.641403581733377748e-02
-4.051553306998409432e-01 -3.722893829812389810e-01 -3.177320181574901370e-01
5.907551749972770327e-01 -5.258077388986191064e-02 7.597347950362923208e-02
5.282242219506216863e-01 5.784129620444544012e-02 1.076965047805131803e-01
-1.951190114080131321e-01 5.005555458149260062e-01 1.136648675113998835e-01
-6.741494932129884488e-01 -7.456310979222280366e-03 -2.289215379961894448e-01
2.201120740344472415e-01 -3.731607416010377376e-01 -1.577453671721900097e-01
-2.731928114817290809e-01 8.178270828648250834e-01 2.308694420430639216e-01
5.309673860212126284e-01 -1.458127151968581781e-01 2.031431501963917516e-02
9.171133202147466190e-02 -3.835723493448813803e-01 -1.951798480972079253e-01
-3.080667105565385033e-01 6.310437699383333321e-01 1.411365538913103568e-01
1.871148432607182555e-01 -6.808646641780699005e-01 -2.992982973425923343e-01
5.268709301169233195e-01 2.103871786455706050e-01 1.733295432400116520e-01
3.324071690417400582e-01 -1.179804135590452677e-02 2.735407648668569322e-02
-2.954284751354596672e-01 1.824518578912163319e-02 -1.206736528396382957e-01
-8.864111043311413418e-01 1.238502791054243990e-01 -2.265671171858958111e-01
-2.734585131360512400e-01 -5.178291145463692624e-01 -3.469052561720258887e-01
3.228218026153461540e-01 7.151177289499317802e-02 6.092939228245592559e-02
7.118813798026173423e-01 -6.137490720304270703e-02 1.032352560037631400e-01
-4.517992005302522984e-01 4.211361997445647876e-01 1.348264157672053251e-02
1.318076116837995637e-01 6.319553751710753342e-02 8.342623261948513627e-03
-4.220771760742472387e-03 -2.689069005605285723e-01 -1.701879070691693085e-01
6.760495760866839232e-01 1.705816861166579990e-01 1.943727521534831804e-01
5.263765131686803933e-01 3.739810614873922967e-02 9.838040015487223289e-02
-6.194928885050818290e-02 -3.551631872205678331e-01 -2.223017714013796609e-01
4.558752038336284507e-01 4.258993720252106652e-01 2.483358434454827623e-01
-3.726945967504390889e-01 -1.154239707097969581e-01 -1.983056816916269338e-01
4.305753761320119666e-01 4.482367636144338752e-01 2.515086592094905593e-01
-1.665683909438800403e-01 8.342075336149137321e-01 2.653005899397297696e-01
7.096253937488196106e-01 -1.962708193804661438e-01 4.431061700687941030e-02
-7.047973329288961253e-01 -1.439519004450850181e-01 -2.958197930736583547e-01
3.912336457821124491e-01 -7.298630436544832900e-01 -2.681406467774770097e-01
2.231134014778780594e-01 2.001611504365863881e-01 9.100123727028626430e-02
-2.147795163792642070e-01 5.363673585916997055e-01 1.241120539987554672e-01
4.120765028169010580e-01 -1.889064996888291936e-01 -2.881705800771958148e-02
-1.670218854634684114e-01 5.677001864237330997e-01 1.499128205665218039e-01
5.133991261414052598e-01 1.224726933870532580e-01 1.318490687777571779e-01
7.128622235611316027e-01 -1.781213733087858020e-01 5.299088737616529377e-02
-5.153801183860001744e-01 3.556582395074516234e-01 -3.114502474561900089e-02
-5.049969905579978491e-01 5.165219158208195216e-01 4.109574124352708552e-02
4.239328034637843134e-01 7.339606049253973030e-02 8.767652968786719681e-02
5.835618147063774686e-01 2.871906483966335522e-01 2.210886911927592013e-01
-8.044742093731831467e-01 1.892438529520192869e-01 -1.772681573732610705e-01
4.479050225528312112e-01 -5.342625671747378568e-01 -1.690036615825843136e-01
-2.854778408068182061e-01 -1.370598243345994838e-01 -1.852951098326640345e-01
3.680834050637010191e-01 2.486777803034151968e-01 1.491666963059939399e-01
7.847004736032627825e-01 -1.997302185727172497e-01 6.206898601115577729e-02
5.583781511768290962e-01 -2.870011801327396195e-01 -3.372333023551806613e-02
-1.098201299409076875e-01 7.202361682323102920e-01 2.305593026097489395e-01
2.605648891187194865e-02 -2.492403863891195503e-01 -1.539163532845007343e-01
-6.066355806861937344e-02 -1.243042030868900666e-01 -1.221194145684538490e-01
3.608900334169624080e-01 -4.284825410749912300e-01 -1.455679107686129181e-01
3.767705037284134195e-01 4.262327774722414753e-01 2.281919151783920185e-01
3.647652292675813146e-01 2.409087771278975443e-01 1.449553784667649836e-01
9.927489100130486299e-02 -6.118401368286315728e-02 -5.379854457948750335e-02
4.607381278613643660e-01 3.033855617851303754e-01 1.965925908901156871e-01
1.172966868458599765e-01 -1.252791526786275200e-01 -7.689929893897344548e-02
1.640219754625039245e-02 -1.703286478316529684e-01 -1.222609986028967560e-01
4.994022098081529193e-01 1.884849490715959086e-01 1.568112953044245306e-01
-2.789442533003203550e-01 5.714880847295543687e-01 1.228462411207204841e-01
8.121426861250677920e-01 1.233035639542386236e-01 2.088277789240552684e-01
5.310723133393294507e-03 6.754260771737942426e-02 -2.222005500487048146e-02
-4.146098468034103424e-01 -1.091132961994002448e-01 -2.063262334065271153e-01
-3.525801482106602491e-01 7.450483873038948879e-01 1.790301123100662417e-01
2.738859585680188391e-01 1.438159890680206776e-01 7.965220362398836573e-02
-1.371847543685461857e-01 7.053208548460102589e-01 2.170897779805696370e-01
5.494773060683757482e-01 -2.297539625004444142e-01 -1.124521476441118703e-02
1.350033239213266345e-01 4.762311704716163385e-01 1.878110449571785134e-01
-4.572353881312710144e-01 -1.850689811598562329e-01 -2.501113263651540963e-01
1.908269665374963120e-01 5.912344419905211090e-01 2.518701920424406548e-01
4.947887231312508849e-02 -2.495427931173976321e-01 -1.480399683540901956e-01
-2.580029900439778090e-01 7.599337725742991712e-01 2.097248203290235369e-01
4.781974092167687873e-01 9.943471906195100463e-02 1.128562847166149213e-01
4.309949374136731737e-01 -3.265626275135576906e-01 -8.350491863291080452e-02
-1.718421663536575938e-01 -5.371027276454416466e-01 -3.291798621267537639e-01
7.615908164066391706e-01 4.731210137940169980e-02 1.629943304815949234e-01
3.848885127909112969e-01 -6.417507637542256560e-02 1.815961801313541873e-02
-9.511049675972348127e-02 2.634146095674188004e-01 3.674453099366149084e-02
-2.039464400029615820e-01 2.731191700096907149e-01 1.302864532697774885e-02
-3.008622887417332081e-01 -3.877640284502930634e-01 -2.976769731864763457e-01
5.348691716004706498e-01 2.460889452888325724e-01 1.908228238899197793e-01
-3.312766154272271391e-01 4.687983561540232658e-01 6.500844174852096757e-02
-4.372598409700705901e-01 -1.549109913454127518e-01 -2.319440328182713895e-01
-3.501085436864574962e-01 7.412755769503426295e-01 1.780321694447961345e-01
8.841451781523258502e-01 -7.958547492936175749e-02 1.395395333128092441e-01
4.162884040977858635e-03 -6.738860545176165659e-03 -5.464313881280925128e-02
2.346282419254371032e-01 -3.300724045248837890e-01 -1.353855347293391742e-01
-2.549699223820822702e-01 -4.782107086193260886e-02 -1.388725693081910295e-01
1.917072130523776452e-01 4.383361531085860907e-01 1.859634056525462653e-01
-1.688668426182004800e-01 -5.226367228675435905e-01 -3.221598462902578452e-01
6.161950199439857334e-01 -3.622389034294325183e-02 8.957286936639469177e-02
-2.066766462237142488e-03 7.109130935863248180e-01 2.541625396316504748e-01
3.421696390547283584e-01 -5.394971221620422641e-01 -1.983859023795616905e-01
4.691480335938015278e-01 4.228215333227418049e-01 2.504087052166873995e-01
1.360135112354894926e-01 1.028680689333893311e-01 2.658073521869273870e-02
5.706176919391008351e-01 -1.691303593856396392e-01 2.039800894826522895e-02
-4.083776033561891672e-01 3.857015784574291950e-01 9.292653482790895481e-03
-2.979372630928493471e-01 8.655979247374009922e-02 -9.176921631710278915e-02
-4.138156349042536042e-01 4.050100974394113540e-01 1.624939505847218524e-02
-7.281838462968263925e-02 3.927488453648317890e-01 9.840230206140275493e-02
-5.563669889934669266e-01 1.506497341151163613e-02 -1.889725822634036323e-01
2.282638788989108103e-01 4.607722421146043801e-01 2.050433647913519342e-01
-8.665978036153033637e-01 1.816810911529896100e-01 -1.964722093990657337e-01
-2.935850515180671305e-01 -1.768211597778396038e-01 -2.045722086680164808e-01
4.426344731712785197e-01 3.276318804462045597e-01 2.024366843529801785e-01
4.987489530617514877e-01 -3.671920163889179634e-01 -8.370119852788621140e-02
7.907699622309920240e-02 9.339392721660029484e-02 7.880301146229151329e-03
3.994934637511720621e-01 -4.733747598022782777e-01 -1.550842838774723620e-01
1.091796761531307058e-01 -2.120488248991395097e-01 -1.165112573954441011e-01
4.724580551667471595e-01 -2.055322726818295254e-01 -2.052197045436839409e-02
-8.170781796745432701e-02 2.237459610313502212e-01 2.302420451597473466e-02
3.992759659617612367e-01 -7.356067484138283374e-01 -2.685623213024445621e-01
1.766886562774478975e-01 2.881942042399635029e-01 1.171712123309912729e-01
3.455596635985478532e-02 -7.475350867411555134e-02 -7.626629661833482510e-02
8.604774761150055795e-01 -8.819484546033838634e-02 1.297456521934766127e-01
5.502388834901629222e-01 -4.933488399530571722e-01 -1.250616322729070917e-01
-6.886540610240434734e-01 1.420518545277703604e-01 -1.679753253765713938e-01
-3.757808802316747743e-01 5.845880430549024037e-02 -1.238883378239988703e-01
6.637920950288982436e-01 1.330950725165893633e-01 1.750151027089518196e-01
5.256156319203475480e-01 3.750101289675137894e-01 2.442113648874586485e-01
8.875644011961880686e-01 -5.995231040433730146e-02 1.489083298120167376e-01
6.426890535734063048e-02 3.114680251227638919e-01 9.840524383293591804e-02
-1.332192339524624902e-01 -1.760428456586828894e-01 -1.631062369130481249e-01
1.635790973317044483e-01 -1.359135415910576322e-02 -1.672123961744693271e-02
7.708740326853501523e-01 2.033555021960065448e-02 1.537071445704915607e-01
4.907908231670533583e-01 -4.423622888771212014e-01 -1.182553620287214585e-01
7.181324327587523815e-02 2.465123223556540677e-01 7.224509910109415400e-02
5.593860953940608116e-01 1.586184476864332116e-01 1.592774280453019276e-01
-9.248436408562559219e-01 2.728923394221873661e-02 -2.781891841810190669e-01
-9.273197272632939525e-02 6.592802335496773525e-01 2.085768848597963909e-01
2.547006020463236653e-01 2.890779675665970938e-01 1.375613374025619340e-01
-1.738055724647318556e-01 7.675147793278539465e-01 2.345980798008267532e-01
6.620148169817519079e-01 4.068555889736909237e-02 1.345897274650918185e-01
4.728546862623106972e-01 1.373756020811719158e-01 1.278964594231506713e-01
-2.305291290065617782e-01 -2.213916994405135674e-01 -2.076780692880131340e-01
-3.396327685292558907e-01 7.777778405775733761e-01 1.965071040023756710e-01
1.438009230670285743e-01 -1.534042405127414299e-01 -8.226654909088304546e-02
9.308751006901565261e-02 -5.963706754425399659e-01 -2.868677888220988459e-01
2.205002734105760698e-01 -1.694397714651911524e-01 -6.953110917226712484e-02
5.302098808554886467e-02 6.612281197528155907e-01 2.468009398659915254e-01
-3.900936190575034490e-01 -3.801935520314450589e-01 -3.172878736433647484e-01
-3.455561447484119530e-01 -3.770279446310219607e-01 -3.044960530143289712e-01
-8.143126401299195793e-02 -5.297959760008069674e-01 -3.028316408129899107e-01
-8.080111720552599075e-02 -3.281312973015097501e-01 -2.154447304005752684e-01
1.929293449866142096e-01 -8.213346703491389844e-01 -3.585640255335887372e-01
-4.087406544967365774e-01 1.968506827182303354e-01 -7.248345510450728002e-02
3.210683461419111540e-01 -1.499664932753255187e-01 -3.531551498492598723e-02
6.613680104541057592e-01 -4.121126026482159199e-01 -6.142331441372048118e-02
-4.843572399333339051e-01 3.995158587250994264e-01 -4.218949598532760296e-03
2.533613468219191867e-01 -2.841813919378553543e-01 -1.107319452031983176e-01
-1.402497103471789797e-01 -5.437897279319267030e-01 -3.239695881289545998e-01
5.455808475986619055e-02 -5.598697969432213650e-01 -2.809619115969437253e-01
3.313597248040467402e-01 -5.517393097972318472e-01 -2.064534111472670908e-01
2.990345404334724400e-01 -8.311872136195432859e-01 -3.356125064965622684e-01
6.809873050156417529e-01 2.321609240668701668e-01 2.222737864928066298e-01
-2.613857757112096891e-01 5.003986039076744330e-01 9.660142121544731952e-02
-1.190441819053232181e-01 -2.519412376342187176e-01 -1.922987914696906997e-01
-2.270849094817631308e-01 -6.095566055872868316e-02 -1.374019029615794474e-01
-5.587468382398956823e-01 3.510917198846713605e-01 -4.424251122882411069e-02
2.761846391597223005e-01 -6.249893961832319045e-01 -2.522868671438571186e-01
-1.534397384796090391e-01 3.773838667283010984e-01 7.107942929008193023e-02
3.835528713991270822e-01 -5.903109496242493481e-01 -2.097505863568593643e-01
5.480884091173031658e-01 8.430820143093255281e-02 1.242387461233344093e-01
-1.333529584978870586e-01 -3.534196366666769173e-01 -2.398606765698350907e-01
2.746516901962481327e-02 3.729774135347506125e-01 1.155705523441427213e-01
4.283846763137996727e-02 -3.364580789059933297e-01 -1.873362005314793133e-01
-3.017648409800555154e-01 5.310891635672464473e-01 9.951980148283520733e-02
-5.743162940453635512e-01 -5.774179503751006304e-02 -2.250669238466503908e-01
-7.552041081084385210e-01 -2.855368441018221737e-02 -2.588349420888826358e-01
2.358656349111585560e-01 5.113895965257324594e-01 2.288863433784673884e-01
5.920753957005907564e-01 -9.397424949381337489e-02 5.840830848436906475e-02
2.821886804866932108e-01 1.166594119700647830e-01 7.003568246520851248e-02
-2.623275428006191512e-01 3.578501883831988750e-01 3.470393284338618711e-02
9.591436076075733619e-02 -7.352041298029412530e-01 -3.461919137864091223e-01
4.227128356457473535e-01 -5.383300878123271627e-01 -1.772240603373188006e-01
8.035887444978415672e-01 2.524631635112976891e-02 1.642215857177292682e-01
-1.256233717185997190e-01 7.371407376541118106e-01 2.338178871126901648e-01
-3.091651010365924490e-01 5.980692170642086802e-01 1.265924832547269396e-01
-2.735223913333473256e-01 2.072303317607846751e-01 -3.331429437000144739e-02
-1.516651678794948832e-01 6.957503358448122732e-01 2.092364563814191336e-01
2.217364015272488831e-01 -1.863135278503098291e-01 -7.651242194450064149e-02
-1.341986109529138826e-01 5.062651437814792432e-01 1.317587918449867612e-01
7.535769663076761216e-01 -1.069283440232725729e-01 9.422593987393894366e-02
4.907220026655890188e-01 7.541833145162950280e-02 1.056807699100801717e-01
2.669627365392344687e-01 -8.079989967684612084e-01 -3.338085081416780620e-01
-2.230880274142956476e-01 -3.000436844621793830e-01 -2.397886947579245254e-01
-6.824408337614552567e-01 3.834383929454135420e-01 -6.197575897398735489e-02
-2.600440656681417551e-01 4.440707846351487076e-01 7.258226385624207133e-02
-6.346689365360674850e-01 4.105328436028676808e-03 -2.137951693634302652e-01
-4.803960300020613805e-01 4.663315622559944806e-01 2.569654458446872167e-02
8.395058113040135828e-01 8.155255857917421969e-02 1.977872407558589063e-01
-3.196042282502393195e-01 2.845127017735585295e-01 -1.170632740960507977e-02
-1.528715000283180914e-01 6.891213432935375804e-01 2.060598518330284401e-01
-2.858390589504097301e-01 3.488976750418428252e-01 2.480169069870872059e-02
8.140055836698348868e-01 8.431088114671438094e-02 1.924401955215199189e-01
-7.697883636535732821e-01 1.777879447853827066e-01 -1.733271942619065697e-01
1.839187969822823621e-01 5.816936499090227253e-01 2.459717961244470563e-01
3.651159894048570942e-02 1.604348604067975803e-01 2.596044446191375643e-02
-8.524365789456591624e-01 -9.546899596411877534e-03 -2.755514052949184500e-01
1.346022821804797598e-01 -5.848622812042888475e-01 -2.712427309797916797e-01
-4.372003284980260918e-01 -2.017669901238612271e-02 -1.736526324827443180e-01
1.646332830138179685e-03 6.843548765371357812e-01 2.436277156225051532e-01
-4.168443250302475422e-02 -6.485191592537943306e-01 -3.439886041665869421e-01
3.601013349691445375e-01 -9.482133674834451742e-02 -1.452913626308206807e-03
-3.815879747432852631e-01 2.348892055233324228e-01 -4.906689004189977721e-02
-6.943921497327413261e-01 -1.010228873815878087e-01 -2.745832246400126131e-01
-2.623143547333413594e-01 7.634801741707663014e-01 2.101529885959960153e-01
-1.565389163163559694e-01 2.755090553516361535e-02 -8.102741059298750048e-02
2.715172222637564636e-01 -5.221869738200847211e-01 -2.090191679356562249e-01
-3.234505945456881970e-01 -3.963713080241552666e-01 -3.071931150790170872e-01
1.878176160267072958e-01 1.296155793933136680e-01 5.143603797198294247e-02
4.964322356444618167e-01 3.323326068183717896e-01 2.182674884048728670e-01
3.934159544038706158e-01 3.719062070095267014e-01 2.089633306022746773e-01
-1.647402952491444292e-03 -5.815931786459738184e-02 -7.837401908900271108e-02
3.971726570520165978e-01 4.696227051867862268e-01 2.521917835612608738e-01
-1.621705279799161292e-01 7.523511876502469997e-01 2.310234885219668854e-01
-3.483183346448840423e-01 -2.263020261249884812e-01 -2.400115397874141299e-01
1.394647802227976519e-01 -6.327942757467706902e-02 -4.439728802511478528e-02
-4.574546806547826194e-01 5.670060126151942326e-01 7.512471324221703384e-02
-2.272764677692298563e-01 -3.038388591219193247e-01 -2.425044253241416536e-01
-7.795918492138313727e-02 4.002530437903289440e-01 1.003295949549656008e-01
-5.568360595702193105e-01 3.857207949689396842e-01 -2.877446130870998584e-02
-4.955087000640871764e-02 5.176405358357308861e-01 1.583887183948125554e-01
-6.465203216547661391e-01 -1.191956281298147402e-01 -2.701656345633716705e-01
-2.434732603649511773e-01 -1.017573569074782941e-01 -1.592528653265382621e-01
2.318815152073065988e-01 -3.129700129487740790e-01 -1.286927573385526213e-01
-3.538491854169280026e-01 3.260385115061081862e-01 -2.528189015283882797e-03
-6.773948551441758559e-01 2.610922633216808397e-01 -1.135995368742675066e-01
4.555284967669680496e-01 -1.886218174383008372e-01 -1.754970877340500390e-02
-2.213714562540273212e-01 -4.334211757643544743e-02 -1.283182404394815901e-01
-6.226942912175218448e-01 1.642821843645775881e-01 -1.414432917571579740e-01
3.679595426477150211e-01 -7.600855132245951662e-01 -2.871818165291780689e-01
3.116104960095351095e-01 3.704340604241920798e-02 4.314552858576062300e-02
-7.124380929794391082e-02 2.071260649745681193e-01 1.851938534852188081e-02
5.291805293319140624e-01 -6.933514501919209316e-02 5.293460377657308730e-02
-2.174876427514498556e-01 -4.011609735600096815e-01 -2.820882493167965466e-01
3.356514826695808917e-01 1.502886573591182273e-01 9.829292650098556128e-02
1.354423195212763331e-01 1.323904752674834040e-01 3.920346041122859532e-02
9.845612127727176865e-02 -6.574737474824728922e-01 -3.119195819173435913e-01
3.802006707613995173e-01 -6.634143660585242186e-01 -2.422294885151536625e-01
-2.892430143648373475e-01 -4.848955486636814527e-01 -3.367089012716050767e-01
6.059133055146173064e-01 -1.038682165313600109e-01 5.767794204446323458e-02
-7.279249677561036025e-01 1.218471806467905372e-01 -1.867862651789933548e-01
-5.177271016311494473e-02 6.370698253133254552e-01 2.094751981917080674e-01
8.295583250052598889e-02 3.366449574292348368e-01 1.140876036980465191e-01
-2.818303946101319846e-01 -6.816201719594161546e-02 -1.545595224826545322e-01
-2.641095332595030931e-01 5.422849170077632674e-01 1.140197896575665115e-01
7.037606065517828524e-01 -5.013193336825657459e-02 1.060153885185651790e-01
5.913843851616251701e-01 3.893485379642201705e-02 1.157177783089791273e-01
-3.988806178865281771e-01 -2.868294890508485406e-01 -2.791590710648245710e-01
-3.420150541483177320e-02 -1.793053965804155062e-02 -6.932322429280686482e-02
-2.716969716986496475e-01 2.288253979997160181e-01 -2.350568943778962375e-02
-5.588837431371475040e-01 2.905883348810141542e-01 -7.044693418344437352e-02
-7.874364882545619171e-01 2.444544921419286934e-02 -2.441781188236079314e-01
-3.722259397979158502e-01 -8.748853476697116688e-03 -1.520456809917527796e-01
-3.308976689658963966e-01 5.103599308581175942e-01 8.308210874281062031e-02
1.867384013358243389e-01 -6.696428133102388935e-01 -2.945410974849749230e-01
3.533676835382654757e-01 4.493013622195831114e-01 2.321675204526087166e-01
5.778357915967680114e-01 -4.119675363402624385e-02 7.758390952264881957e-02
6.651870895861028421e-01 -2.410117612445326352e-01 1.356180141244605654e-02
-2.568007287599282651e-01 8.482687283990907323e-01 2.482403661420061747e-01
-1.835569413659522697e-01 5.918314312467016780e-01 1.561094431123717097e-01
-5.083347135055801269e-01 4.344166247412764581e-01 4.727003863777658361e-03
4.513693670867500729e-01 -4.688693969297379471e-01 -1.398308826124660120e-01
2.417607413132369099e-01 -3.152342093162005532e-01 -1.271383378563648858e-01
2.630779420433132509e-02 -2.896989798498849078e-01 -1.713513099013037888e-01
3.400028999958714659e-01 -7.587174754306940105e-01 -2.937601981122446859e-01
6.524754028998722699e-01 -2.547069547554868252e-01 4.378078016328010649e-03
3.806596383144840723e-01 -1.290290861648516196e-01 -1.097604029965824381e-02
-8.123843992151558169e-01 4.935619216292380651e-02 -2.398020039212160892e-01
-4.056753424000548169e-01 4.124433361097151751e-01 2.155222345583994101e-02
9.280049429110511297e-03 -1.784870462599020824e-01 -1.276163522788955340e-01
-7.162350247186193286e-01 2.490095997411097273e-01 -1.287870208936887639e-01
-9.021227112048076091e-02 -2.953604438901926144e-01 -2.036841682668810993e-01
6.658890522611377039e-01 -3.825441276299848536e-02 1.014397390951034400e-01
6.687479581602020495e-01 2.536445598142818558e-01 2.284269770232487951e-01
-2.370455661383636670e-01 -2.650942220068760458e-01 -2.282518467952467101e-01
3.788240380132558149e-01 -7.217673984048442737e-01 -2.678217825895756188e-01
1.168670464667112829e-01 3.705797424181506150e-01 1.374625681555353973e-01
3.619916006725416024e-01 4.086746658841546309e-01 2.168071948047599895e-01
-2.574851856871021583e-01 6.052867383257695133e-01 1.429686991799579976e-01
4.686236610505877809e-01 -4.344218441226474492e-01 -1.205061649232981036e-01
-5.871481063700566549e-01 3.646424297543291448e-01 -4.566559959326006723e-02
-2.635948305350720999e-01 2.498807022480593054e-01 -1.232074294098743118e-02
3.970116126300229920e-01 2.094263883041320440e-01 1.396087065841511710e-01
-2.214026304694820257e-01 3.724313498707716996e-01 5.150676113611434015e-02
3.597597470514887208e-01 -5.880241635874337014e-01 -2.148637595139520073e-01
2.033642143592422763e-02 -4.875874517949108644e-01 -2.584747857569874574e-01
5.239646089251325245e-01 7.093341285230778115e-02 1.122667195665707773e-01
7.038608175079660301e-01 2.822448007855020077e-02 1.399323064484944423e-01
5.078815608375595314e-01 -2.588561540725092813e-01 -3.450082158396545334e-02
5.779331795531070792e-01 7.626015065472400989e-02 1.284120975791346320e-01
-7.591346631555834223e-01 8.889995350622609260e-02 -2.090412211311664381e-01
5.000652868990139721e-01 -4.926799580877709306e-01 -1.376404422488768653e-01
4.923847408068094400e-01 1.115249735137042730e-01 1.217242911084584489e-01
3.372516795788195187e-01 -2.170144999913363806e-02 2.431307185455353070e-02
-3.980430707851633776e-01 1.831237858474683566e-01 -7.567707033679126061e-02
-4.090064211607028488e-01 3.143357533950710270e-01 -2.173622330736602742e-02
-3.803126722525541625e-01 1.601138462037096644e-01 -8.108212697297330351e-02
7.966174603960149980e-01 -1.474339250790308309e-01 8.774488561498697270e-02
-6.514581019776280457e-02 3.892878749030057733e-02 -5.266641028699126093e-02
3.071878436507368137e-01 -5.771910291258428582e-01 -2.236613603790523208e-01
-3.751013242864754127e-01 1.674676059418651886e-01 -7.656486736284577599e-02
-5.656011325178440102e-02 -1.062147524352623773e-01 -1.132428313808803849e-01
4.687865318213130239e-01 1.202310085668343437e-01 1.194376028728486583e-01
1.688883167434196975e-01 6.327461946069458110e-01 2.641984727370710884e-01
-2.219049090919313419e-02 -1.794973873156704425e-01 -1.361246615927793058e-01
-2.814756087022032283e-01 4.210164795972334284e-01 5.711407937251292838e-02
1.541720515623927201e-01 5.292168421251921551e-01 2.156449867618968341e-01
-5.589813545381562276e-01 1.430081925669780818e-01 -1.343042749420703952e-01
8.928860869890982432e-02 -3.362457703690976407e-01 -1.753312142676775043e-01
-3.003871382506062004e-01 7.282927154800206138e-01 1.851688839397669373e-01
-1.341648570631973070e-01 8.024250251904974096e-01 2.598644131060544593e-01
-2.874308849758107076e-01 8.528072495305176470e-02 -8.962785572604652085e-02
-2.083068563328169254e-01 6.161181301793129395e-01 1.602664229235161997e-01
-5.739280235916792705e-01 -1.111444258029660875e-01 -2.480653904705255319e-01
-3.182896712390339000e-01 -2.524726822794983172e-01 -2.436295300267728725e-01
-1.592104958989602357e-03 3.455031803034545046e-01 9.623484636033759199e-02
5.352595102101666003e-01 -1.514156079525224019e-01 1.899172540751093222e-02
-1.648400972648577933e-01 5.493938540276160909e-01 1.425544161281169508e-01
-5.114856422354464582e-01 4.643732916699607194e-01 1.687592809835086055e-02
4.764865175232358557e-02 6.280391985942644639e-02 -1.341117239165039166e-02
5.206936050053159182e-01 -3.267580631589957485e-01 -6.058425952301089296e-02
-6.434734346621502343e-01 4.000030919537196916e-01 -4.481704555015748187e-02
-8.833832796573952428e-02 7.971407445207953080e-01 2.693320405195572254e-01
-5.778965391178163269e-02 1.768002140563023350e-01 8.853267697194553559e-03
-8.120554070439390815e-01 -2.549585539808821300e-02 -2.720931125722771959e-01
-4.093608411380487144e-01 -4.101586166814615297e-01 -3.351900564665267757e-01
4.582760737103783177e-01 -4.378421592738643287e-01 -1.246394071595172265e-01
-2.325907068031600744e-01 9.424029785733948339e-01 2.951651045343292590e-01
-4.459214759022820385e-01 5.178528784892294512e-01 5.682262884172008255e-02
5.113137560406063598e-01 3.197527421212006948e-01 2.166430571643398750e-01
3.527597768851641891e-01 6.595383680189965958e-02 6.620368821952757332e-02
1.235622399540903110e-01 2.650489275541215162e-01 9.353483495995233710e-02
2.111879580427810169e-02 5.567168939967429564e-01 1.934150599364462542e-01
8.046439241764629102e-01 -2.279428088342374745e-02 1.437133835939223836e-01
1.096943909518796195e-01 -1.061072814818397360e-02 -2.925195472494696025e-02
-2.367045790823855689e-01 1.024091275624134101e-01 -6.920949612624312242e-02
2.388885415047701799e-01 2.469470074676212712e-01 1.152832356813070641e-01
3.043863363529174595e-02 -5.500468978476242832e-01 -2.828992106364451309e-01
-1.475185669716194692e-01 -1.357524931940116697e-01 -1.493469737175404377e-01
1.719924443523845325e-01 -2.570660658070615390e-01 -1.198726903475844791e-01
-2.038326654385130832e-01 3.801110960228169522e-01 5.933465681460651370e-02
2.654139887212674798e-01 1.105188406285717573e-01 6.307748577834847159e-02
1.012474252686118431e-01 -7.721174468138030100e-01 -3.607901161973945392e-01
-2.573275544115264865e-02 5.984303931381600439e-01 1.994411414688401496e-01
2.961754986007890666e-01 4.541734888476131049e-01 2.196066538771872245e-01
-4.562925287868420665e-01 6.961320759300774208e-01 1.312732025782123724e-01
1.251923412195571628e-01 8.648560099324491268e-02 1.671955916974425527e-02
-6.847617039539375394e-01 -2.293090722767354706e-02 -2.383364433917936898e-01
6.096317669983647089e-03 5.096686654475592881e-01 1.692126155663273568e-01
-8.277965912381973768e-01 -1.452905485070248720e-02 -2.713868537765365407e-01
