-5.063710197527365731e-01 -3.542660420960118683e-01 -9.354176085327939316e-02
-2.911649017864796352e-01 -3.700737878349932286e-01 2.226409106403463845e-01
-6.021795254471468128e-01 -3.197634757733100463e-01 -5.169285120116458299e-02
-2.123080322934401132e-01 -4.455921314040847125e-01 -1.251010578179310717e-01
-3.156664650921609527e-01 -3.462848441796993471e-01 3.328464083554016906e-01
1.255782903884169466e-01 -5.987077357784011955e-01 -4.817025668457511345e-01
-1.294980576315283294e-01 -5.539137093811228318e-01 -6.832089348407275331e-01
-7.296123394311010424e-01 -3.133563078977296135e-01 -2.585542077044828968e-01
-7.300133284501121589e-02 -5.521752125933530042e-01 -5.610522086309567280e-01
-2.649784751975162167e-01 -3.739386353078206771e-01 2.482064448450554406e-01
-7.465936805995458947e-01 -2.482503863026492841e-01 1.410841080172286488e-01
-6.228880985218251398e-01 -2.432206416552712969e-01 4.166916155770241659e-01
4.967816000134880339e-01 -5.929073093521907145e-01 2.835293255409094271e-01
-5.170600494649006951e-01 -2.883950561424940551e-01 3.235011644521321728e-01
-3.884197587452715705e-01 -2.706614228640681352e-01 6.932353524832696179e-01
-1.816480865313444548e-01 -3.353195170315808604e-01 6.681071153992141909e-01
-5.065567484394698505e-01 -2.703519105170327230e-01 4.640289243843734313e-01
1.618334479423715888e-01 -4.838340602605505913e-01 3.530506265990684400e-01
-4.041324527286411228e-01 -3.294300551675165001e-01 2.717311906361884466e-01
4.746548522657982883e-01 -5.826515939078603656e-01 3.084030558736960415e-01
1.867188847604087376e-01 -4.719033280367608274e-01 4.810921277879083302e-01
-2.697025138762781382e-01 -3.337329849730337195e-01 5.062808894157264650e-01
5.341259973252672211e-01 -6.281125491822348028e-01 1.225594058787809193e-01
-9.431571278788088986e-01 -2.182099248182505224e-01 -4.397227537890855548e-02
-3.456813980276016857e-02 -4.720811447798832772e-01 4.671955756546973537e-02
-1.962338549891874673e-01 -3.713291266167532689e-01 4.001308313875973077e-01
-6.356881786781516386e-01 -3.216734318730513631e-01 -1.299882630354741997e-01
-3.986315620132863113e-02 -3.714785142331699097e-01 7.052480115873329680e-01
4.905828165161668086e-01 -5.970329526088830052e-01 2.439637489747157051e-01
2.498885828877975539e-03 -5.659936155185499862e-01 -5.051301700125473415e-01
-8.970972384377350339e-01 -2.428044160578489430e-01 -1.173312920240020679e-01
-2.403986545087093696e-01 -4.078970571657408728e-01 7.053859092683144316e-02
-9.384184441807538191e-01 -2.303784739810812998e-01 -1.156029717512951638e-01
-6.983354793704051044e-02 -3.651830362087769011e-01 6.884359574325417119e-01
-9.575796411193242264e-02 -3.604435055691701528e-01 6.691989892682883578e-01
3.048114566800737002e-01 -5.763149600130454964e-01 1.805000147536845248e-02
-3.357594379063372214e-01 -3.717198544698006590e-01 1.243984011716652155e-01
3.972260853740788855e-02 -5.159882172762053631e-01 -9.978175001218712870e-02
2.930086128970878501e-01 -4.975814254499021927e-01 5.184339614971993360e-01
-5.169887397928791817e-01 -2.572805360669024877e-01 5.305172015016468290e-01
6.171072414321959743e-01 -6.256202943287311191e-01 3.015737251410788300e-01
-3.867930570200440732e-01 -3.218310226956118125e-01 3.561996878698577285e-01
-1.745642062454069027e-02 -5.134464991874475581e-01 -1.948155534631703933e-01
-9.224493877462384972e-02 -3.731061192840254837e-01 5.918839790252075073e-01
-1.859100763571890358e-01 -3.921372154567346335e-01 2.819902988497272056e-01
-1.122269524413784664e-01 -3.679688255918691087e-01 5.869245014333323018e-01
-5.182368807152811785e-01 -2.791338968302042867e-01 3.827736628972847055e-01
-4.788721096295673330e-01 -3.886446318582785775e-01 -2.682888633372244591e-01
-9.472539002503868599e-02 -5.456458610230313644e-01 -5.601662874716862861e-01
-2.923451632455891236e-01 -4.277612091541428962e-01 -1.632258066736852475e-01
-3.685111487917565598e-01 -4.140662696394049047e-01 -2.212720392765121225e-01
-3.902388927162442345e-01 -2.867212683618340918e-01 5.828943787183898939e-01
-8.169910262823880664e-01 -2.626714485887396977e-01 -9.260914552269786104e-02
-4.486155695646811270e-01 -3.640182285385210048e-01 -4.532103527831687906e-02
-1.518680521952342211e-01 -3.595340131895206071e-01 5.654052803446049102e-01
-4.370275722849554789e-01 -3.172672218600577909e-01 2.882049955639001682e-01
-4.918978397924259616e-01 -3.729223121962557119e-01 -1.892522816544867648e-01
-3.002462621013863298e-01 -4.599088429199825190e-01 -3.924384369673779571e-01
-4.223068179861561022e-01 -3.436452578112683121e-01 1.416380970898852287e-01
-2.069501379997574220e-01 -4.569890088417937202e-01 -1.903888448197554872e-01
1.647681282955858750e-01 -6.019895486631690051e-01 -4.268051025769437068e-01
-3.227041494408994238e-01 -3.903205342784701326e-01 2.628183630107623625e-02
1.161038193025638737e-01 -4.968592673011904548e-01 1.769276252940738259e-01
-4.381102539204904112e-01 -3.359207588529426469e-01 1.620605758155279352e-01
-8.494673717194206608e-01 -2.459955444967343030e-01 -4.530872351532792830e-02
3.618543002643011541e-01 -5.551673874743562331e-01 2.703242549216526291e-01
4.849713816030180036e-01 -5.724879878815679612e-01 3.961751473296158399e-01
2.999840416415429645e-01 -5.914651003837886334e-01 -9.213145476262608879e-02
-8.316724430845454097e-02 -4.075916946206861735e-01 3.803642704876007419e-01
9.076503771100025153e-02 -5.125314259449217369e-01 2.312239581978244030e-02
5.558251756095705653e-01 -6.346422355739601562e-01 1.216225557425541642e-01
-6.330400313011618207e-01 -2.875247921420970854e-01 1.022456489509874916e-01
-1.843195720034318252e-01 -5.325324890216948104e-01 -6.483662528033412586e-01
1.215332689433210461e-01 -6.167862213707790975e-01 -6.098226042875674047e-01
-7.017953770528829738e-01 -2.440944492057845749e-01 2.564133173543783895e-01
-1.414074379593086295e-01 -5.236789576402864910e-01 -5.054956986128384955e-01
-2.011413442701975862e-01 -3.539973395084768937e-01 5.057607797932353044e-01
-1.392179473981715598e-01 -3.399525565636951630e-01 7.203636437616334209e-01
1.879932613428289198e-02 -5.633042751888348576e-01 -4.553394377938645432e-01
-1.020884307737811858e-01 -5.331853991994521813e-01 -4.917321286206650099e-01
-7.830339085450053194e-01 -2.296450526586562291e-01 1.934533838395413319e-01
1.806154612912997115e-01 -6.213826023076975957e-01 -5.247243677950044205e-01
-7.806092575535044098e-01 -2.651376053342043293e-01 -3.778554963048774695e-02
-2.316861278382967293e-01 -4.837661664044808907e-01 -4.168497617385261145e-01
-4.207939319965497971e-01 -3.579147293686424924e-01 4.972383371370455579e-02
-1.493144037450177264e-01 -5.091212607919585187e-01 -4.241820785845820119e-01
1.446531706859817412e-01 -5.699961445035671703e-01 -2.534620066088860146e-01
-1.366472494313433483e-01 -4.866631972528280281e-01 -2.500641497863977381e-01
3.328878015010471314e-01 -5.354187582338472140e-01 3.449256881650809570e-01
5.575093482808041873e-02 -4.121376568561947451e-01 6.220842329521808489e-01
2.965273860732750566e-01 -5.534351133459726180e-01 1.539583067724732968e-01
1.096384988643848632e-02 -4.795538901075541705e-01 8.616741334585786838e-02
-8.498633900463182789e-01 -2.516455922400033240e-01 -8.365040752359569065e-02
-1.219002215362136564e-02 -4.853697150037594721e-01 2.172846297254149225e-03
-3.043300815170764673e-01 -3.030514377490752809e-01 6.424918099948500050e-01
-1.738257845585046701e-01 -4.180361308184856184e-01 1.334478867284553949e-01
-3.296594945072101220e-03 -4.683199565914327178e-01 1.329442221033491356e-01
4.028575065304515479e-01 -6.470318789595806974e-01 -2.602032759906997561e-01
1.577405424959930566e-02 -3.901021362809036219e-01 6.903370482642456896e-01
5.298109177999817954e-01 -6.534647777765598686e-01 -5.445147738320988556e-02
-2.022159024395543403e-01 -3.988969417165943443e-01 2.051255510006998739e-01
1.924703563304823728e-01 -4.949234766859569312e-01 3.392931704009940486e-01
-2.537976861375606519e-01 -3.225081287986249490e-01 6.120487195005356318e-01
5.775526325933708627e-01 -6.205466453859450615e-01 2.578758747175566302e-01
-1.790305163147715983e-01 -3.892858087633588315e-01 3.144163249202884258e-01
-6.322150988049686227e-01 -2.401328442776375083e-01 4.189634975381623661e-01
1.259007488853775003e-02 -4.782091103928548526e-01 9.829217000640060042e-02
-4.142509819888748890e-01 -2.899530055425212360e-01 5.144010370501013174e-01
-3.750576731883608628e-01 -3.504937466412375580e-01 1.885980476318909749e-01
-3.973623509008318289e-01 -2.850249017560074205e-01 5.802284586272671296e-01
-8.172655537756634558e-02 -4.853586694461424211e-01 -1.338780567981246172e-01
2.535234876423970718e-01 -5.635981416986901582e-01 2.201438194508810973e-03
-4.056077028447864774e-01 -3.175292685405633475e-01 3.479700483853229165e-01
4.936295571617080880e-01 -5.769435127893708382e-01 3.835001332709407906e-01
-5.546740561528663571e-01 -3.843362278885955052e-01 -3.880323225240295826e-01
5.274709343465567857e-01 -6.014926044163119156e-01 2.865240789085940487e-01
-3.606986111785531190e-01 -3.917323805192233777e-01 -5.748310176972452890e-02
-8.033539875810919995e-01 -2.394184348955574471e-01 8.869294505548810936e-02
-4.752941467254970243e-01 -3.807615057664421876e-01 -2.088707710405315887e-01
-5.307317689109772862e-01 -2.932825412322001557e-01 2.642412203002265647e-01
-6.697527690259207356e-01 -3.155355821903359503e-01 -1.558631489489829269e-01
3.419226641578011483e-01 -5.496294051065939712e-01 2.681275236330781242e-01
1.668195423581636527e-01 -5.860497980519174810e-01 -3.168079140057869503e-01
3.650763675653910800e-01 -6.019738969600813006e-01 -3.457870414707679696e-02
-1.192335100506078938e-01 -4.724338231645442421e-01 -1.213658292553210505e-01
-3.692400577839943243e-01 -3.611335437370641888e-01 1.292439380121512549e-01
-2.792040975281102066e-01 -4.115836385414718968e-01 -2.993834104676687882e-02
-2.525208413318505971e-04 -5.952483572354831942e-01 -7.050273234593256166e-01
-4.138999127626458163e-01 -3.933021058026461292e-01 -1.720665852129789619e-01
-6.297017043085631482e-02 -4.089197819779504250e-01 4.110716717218712568e-01
1.142375521008856393e-01 -6.219248226739123586e-01 -6.582705594233118074e-01
1.789699484252803632e-02 -4.629447288900700452e-01 2.101718770806481063e-01
3.434436057832980227e-01 -5.609953394286572026e-01 1.955342755123880283e-01
-6.520689107109672866e-02 -5.071550286636375970e-01 -2.464604394664395570e-01
1.077005798234943329e-01 -5.003477945830215878e-01 1.372827197124306953e-01
-7.499547286558972958e-01 -2.867890436566753465e-01 -1.217340369796687666e-01
-2.088563433901426472e-02 -5.095731289201219649e-01 -1.757750231309889721e-01
-3.933041259569480252e-01 -3.014878795570087311e-01 4.787125962474609864e-01
-1.340461773937444423e-01 -3.789585131468632406e-01 4.711422850608664725e-01
2.627053192979228458e-01 -5.285013114490695330e-01 2.535300521870533230e-01
-3.004540827866403196e-01 -3.392034839448174743e-01 4.097091394726840030e-01
3.007909473114550591e-01 -5.914480891202598123e-01 -9.043875485841805506e-02
4.568065692794098798e-01 -5.849346978481333448e-01 2.582832886423174212e-01
-3.665373132707777093e-01 -4.509726780860345285e-01 -4.627940318408738651e-01
-8.289594823289103687e-02 -5.235330281984965639e-01 -3.899836548149934190e-01
-1.038620801650737453e-02 -4.251080840047706255e-01 4.063758160134592901e-01
-5.113270527704870672e-01 -3.848713203909093772e-01 -3.067342229680793397e-01
-2.926308327767277451e-01 -3.189288476711689135e-01 5.598273402215843131e-01
-1.714785460728195376e-01 -3.930301974161594658e-01 3.043040627646029783e-01
2.172850170708167383e-01 -5.373441209391700557e-01 1.058208099224219739e-01
5.274275684611535731e-01 -6.057114309020308340e-01 2.583887514625420323e-01
4.682052384587935823e-01 -6.466573322956732373e-01 -1.297885947102599691e-01
-5.179242235012104789e-01 -3.978594942426312842e-01 -4.060055061502362284e-01
9.152571215507437907e-02 -5.909450002095881782e-01 -4.967502806664247927e-01
1.914943331330225609e-02 -4.765165712477833493e-01 1.223862098520494684e-01
1.234093765766649947e-01 -4.490112535756575762e-01 5.093642333494545760e-01
5.262963944344842965e-02 -4.627355537787641304e-01 2.795550938250884743e-01
2.342168313559519766e-01 -4.933501683933008142e-01 4.314765699256286058e-01
3.026336107720368693e-02 -5.459832798730546166e-01 -3.177324348264638498e-01
-3.422452264544647571e-01 -3.066123617194430051e-01 5.445932006845856099e-01
1.621092731167678158e-01 -5.918844631946481583e-01 -3.648226497504696297e-01
-7.006266237725474744e-01 -2.864992119632016054e-01 -2.324255041678967987e-02
3.457430693851610282e-01 -5.859144195635800356e-01 3.435193470331682902e-02
4.431948264477418298e-01 -6.011438281611365397e-01 1.238645916393035507e-01
-3.663837382242695062e-01 -4.310182103037220047e-01 -3.298187046801143163e-01
7.796979273126350973e-01 -4.541355002300158650e-01 1.515317952312819072e-01
4.830241922372945917e-01 -2.908830082795437200e-01 -3.946952915194614775e-01
4.862550712478483361e-01 1.238400518932545186e-01 -6.369552336340351673e-01
5.096749080193514470e-01 -2.916202376634138838e-01 -3.539269985469521984e-01
8.030057379936466067e-01 -1.986680512770494511e-02 -7.199489245056402142e-02
5.976147602351874477e-01 -5.679669644631705205e-01 -5.616743836159588527e-02
7.111601455557776674e-01 -5.475272746062862517e-01 1.034732921817151513e-01
8.376957234393809237e-01 -1.803655215440047310e-01 7.614661881133047427e-02
3.170507865999854791e-01 -6.171165654552095842e-02 -7.824248310940956630e-01
4.143496116007231445e-01 -1.267176194808439516e-01 -5.964487863051275429e-01
6.075055203764762046e-01 -5.782143578476106605e-01 -3.509353023400757499e-02
5.823414558298314336e-01 -4.207089319499929814e-01 -1.670362152055698823e-01
7.733398798264248253e-01 7.845475977896551600e-02 -1.754799906801851328e-01
7.282329664897572163e-01 8.090716048644200353e-02 -2.451990896705436573e-01
5.155850965656431084e-01 -4.258751334848480674e-01 -2.649759278639632898e-01
9.778344328201117597e-02 -6.126503878441147410e-01 -7.859040478492939075e-01
8.145795209139787829e-01 1.580315227146557311e-01 -1.604972637630440457e-01
1.695493550776107639e-01 -6.107811680445178748e-01 -6.784188807583625413e-01
8.420802968765626062e-01 -8.148173804570295331e-02 2.385297557053669276e-02
4.677448216501531308e-01 2.332368809864968362e-01 -7.301593755838341471e-01
2.057934974081345736e-01 -3.006305514971378545e-01 -8.084031613294729857e-01
1.155033969352574907e-01 -6.198025284027726123e-01 -7.548272620692204615e-01
2.999281893077731520e-01 -6.901922927488383409e-03 -8.409986216041835938e-01
5.094828273467372215e-01 -2.380076069993509458e-01 -3.861674420579646050e-01
6.562475173385323712e-01 -3.537048294253771763e-01 -9.512880800741602139e-02
9.085673684590805932e-01 -8.603480796045984147e-02 1.271772698366863685e-01
5.208248290761843258e-01 -5.186374753670212057e-01 -2.017663891049217006e-01
3.828325484490924246e-01 -3.926534735705146106e-01 -4.856605334311290822e-01
6.174075918512872407e-01 -9.076396975362813549e-03 -3.592799877454243007e-01
6.092248710514308607e-01 -2.264844993994373779e-01 -2.421007650491294738e-01
3.606572592662591892e-01 2.490160525482989495e-01 -9.016120441753004977e-01
1.675340529860523953e-01 -4.175710915564097570e-01 -7.966096556749762136e-01
3.808154757951687230e-01 9.258040149682904285e-02 -7.778819316217125968e-01
6.844856848576571506e-01 -4.769793476393215798e-02 -2.347586568330222168e-01
4.508325170263093318e-01 1.658987633004501971e-01 -7.156224526939772845e-01
5.198742723883219563e-01 -6.206705852462118811e-01 -1.423994498178368928e-01
8.754663513350156023e-01 1.083153100891262183e-01 -3.873307073702329795e-02
3.590437019099415594e-01 -5.050658974585237049e-01 -4.546680031578224646e-01
3.897904367369033896e-01 1.972390894688922924e-01 -8.266706955935704260e-01
6.337285108313541748e-01 -4.658132440110454575e-01 -6.239587455163582430e-02
1.639772169407220093e-01 -4.383213126647402258e-01 -7.896261693655224345e-01
4.236319630087510002e-01 -1.427941541537372794e-01 -5.728217429755021461e-01
5.472393286069259233e-01 2.113056834589634864e-02 -4.834629307102742413e-01
6.888673765525249459e-01 2.130076628878333767e-01 -3.834923546001360872e-01
7.530163404628451573e-01 -6.618668358996547818e-01 2.349510306108302804e-01
8.486381966601100890e-01 -1.153192926321060519e-01 5.394172606646641804e-02
7.537726296124928060e-01 -3.614849096329468270e-01 5.708661216877542605e-02
6.634996234727899012e-01 -2.368041412319678019e-01 -1.538201336457596657e-01
7.982745282929906150e-01 -9.981782832176603476e-03 -8.504520783821756247e-02
6.989372327711643740e-01 -6.383047573178469714e-01 1.390747916208022184e-01
6.711606544328435620e-01 -6.330349562707374700e-01 9.390166789547250981e-02
4.448028763221312243e-01 -2.152060713415697435e-01 -4.976320735500991965e-01
6.858707419250101855e-01 4.973150183012556985e-02 -2.907245906909226574e-01
1.355346769658631600e-01 -4.449889391910572534e-01 -8.286930921909240189e-01
7.695685969194844267e-01 -5.848248604369437054e-01 2.140863750199795690e-01
7.567926003996108264e-01 -1.329823895799985001e-01 -7.451667439879805510e-02
4.383677336440818251e-01 -3.718927146254598637e-01 -4.139945413013398912e-01
6.135310039488801603e-01 -5.912535655055982664e-01 -1.820496936129383306e-02
7.190624300174338623e-01 -4.644798693398692335e-01 6.594028504157541104e-02
9.147629962174199658e-01 -8.528657854597969379e-02 1.361068485080815516e-01
7.505367039008246088e-01 -3.226933923807900340e-01 2.907255603305352806e-02
4.472013506801190141e-01 -2.229392697342750806e-01 -4.893941010862762897e-01
4.272903692645979024e-01 -1.581183163517513590e-01 -5.581534498741241856e-01
8.865709961488051905e-01 -4.841951433257252928e-04 4.290864023857106357e-02
5.603701688684579185e-01 -1.274887629090379060e-01 -3.750249689855352231e-01
4.631735498497422943e-01 -4.432844391659217509e-01 -3.339123596335921706e-01
5.195856575671243816e-01 2.547151333277448623e-02 -5.278965259025797385e-01
4.926388279857858987e-01 -6.309642275242821619e-01 -1.774788674759747997e-01
1.405668646020798995e-01 -5.043666815035613427e-01 -7.856927549254133503e-01
2.317261032471432391e-01 -4.119940621889522370e-01 -7.027951877358797894e-01
6.218165622862552588e-01 -2.459803111406526910e-01 -2.114282181299873553e-01
9.630322091975199728e-01 6.148132307832527427e-02 1.216852885134468848e-01
1.887443397325860861e-01 -3.873797733281707512e-01 -7.825055244180105785e-01
5.876945363976385783e-01 -3.559945960919516650e-01 -1.975014173959642183e-01
3.586073356128710032e-01 -3.976228208001998943e-01 -5.193576931745501613e-01
1.729308425889938827e-01 -6.067567035484708882e-01 -6.757002053815330811e-01
6.171869388076194340e-01 2.089338575876357740e-01 -4.895343836119992464e-01
7.917389896128008697e-01 -2.016758392577153447e-01 1.930263273477846736e-02
2.420512533689732071e-01 -9.110955588140703942e-02 -8.783978725058316783e-01
7.944658917884309668e-01 -3.560120025055504289e-01 1.154038057222536162e-01
5.366303748346664682e-01 -6.140942234974867686e-01 -1.209625328887007772e-01
5.372835367526930250e-01 -4.647678156828046747e-01 -2.089633536776401568e-01
2.949786321747599471e-01 -3.538719065200158775e-01 -6.417160550836199517e-01
4.853185503752976970e-01 2.322626829764560252e-01 -7.029855312113454380e-01
7.471671059910497403e-01 -2.905944158012133682e-01 4.844557895249818058e-03
8.954774884205835006e-02 -5.888740660146447592e-01 -8.125358393700261583e-01
3.553554157189072193e-01 7.914588519922946541e-02 -8.084030005575917333e-01
5.174485983542146394e-01 -5.807941024167611460e-02 -4.813392792685789456e-01
6.587603942047510763e-01 -3.359390156375213765e-01 -1.019135355785593944e-01
4.170127648436095513e-01 2.488930240448058717e-01 -8.162592768723440084e-01
4.299792085985990053e-01 2.371795522895801811e-01 -7.896574276945096393e-01
8.583294708455956323e-01 1.422260975514690606e-01 -8.487400861462898738e-02
6.261862679269513121e-01 1.575083863474534968e-02 -3.607912186923687980e-01
9.648672075194585362e-01 1.585385802090015783e-01 6.662201983047663645e-02
3.063628051288790899e-01 -5.065646898246546348e-01 -5.334936985902148932e-01
5.164390354545962403e-01 -3.470645353574126069e-01 -3.106499066325336122e-01
5.394189169809603390e-01 9.114330801928276216e-02 -5.370203164188678269e-01
3.845264519987258156e-01 -3.086390538035891362e-01 -5.331645960733268907e-01
6.109298930781663639e-01 8.786658592064801321e-02 -4.268542684735660009e-01
4.699840276557562535e-01 1.102326792123707183e-01 -6.534680963627127470e-01
4.224172093345912593e-01 7.908858492035569787e-02 -7.068882113604658679e-01
3.741517451088157697e-01 1.715607504956154772e-01 -8.350331155831290930e-01
9.301010836937385617e-01 1.199736463147693943e-01 3.699479482642270556e-02
3.323383173765196430e-01 -8.177632445915146431e-02 -7.473338270589958698e-01
3.065279384927232509e-01 -5.853571246583229998e-02 -8.002410984180806652e-01
1.312362484337542545e-01 -5.783321157812605362e-01 -7.557334450353881961e-01
3.400014819115776410e-01 -3.076798406771766303e-01 -6.011132282657905002e-01
4.245678103735877063e-01 2.344042944481542490e-01 -7.961922959111548126e-01
3.016877019420580175e-01 -1.784773751445020151e-01 -7.360878024840473710e-01
7.376475420731626320e-01 -2.042311977227403708e-01 -6.102791824608384819e-02
3.912468292773525480e-01 -4.431012669737105503e-01 -4.428639665591654895e-01
7.762038435468939790e-01 1.365826310936205379e-01 -2.057867045510274051e-01
5.155544654901370594e-01 -3.804207324796963774e-01 -2.921102639492593744e-01
2.614414491178687072e-01 -3.833007317509355416e-01 -6.749281469000029121e-01
4.618900988143084807e-01 -3.176177795910320456e-01 -4.107440099955831370e-01
2.375372605000855841e-01 -3.389908067221674703e-01 -7.375068879559538715e-01
7.156410697507681329e-01 -6.020818096278701681e-01 1.427651048345697227e-01
6.309440207412099211e-01 1.965307829272136819e-01 -4.613251482305861795e-01
7.637753675157558098e-01 2.254155323190570603e-01 -2.775328420657685036e-01
6.756024242059627261e-01 -1.087090432296214642e-03 -2.759783211166040862e-01
6.983990715656112069e-01 -5.703164879595605807e-01 9.774366217789129396e-02
7.780747361337926327e-01 -3.776516600890525432e-01 1.034959246217386220e-01
2.782832796289124722e-01 -4.073741531446971598e-01 -6.350961464155090441e-01
7.284861479234223669e-01 1.685683443469847276e-01 -2.970565554121803453e-01
3.963486260597892108e-01 9.760810133624116258e-02 -7.573727300552449693e-01
2.846606288948519969e-01 -5.331804917153440959e-01 -5.504729614942058813e-01
3.239998774561353989e-01 -7.174579210275890129e-02 -7.659294652756909461e-01
6.318964765427924624e-01 -5.331674157305028583e-01 -2.502930420654288224e-02
7.579566825448916800e-01 -6.110182776929241610e-01 2.121243931226915180e-01
7.288311647958448658e-01 1.892613289859101378e-01 -3.088661881558957267e-01
6.782717724240452384e-01 1.864576508442986891e-01 -3.837039061534923690e-01
9.349891121420662587e-01 -1.223007277096257658e-02 1.231767179344417790e-01
6.953894791818334697e-01 1.101832077604827237e-01 -3.123458900555050599e-01
3.149838164301060894e-01 -4.554044132112628485e-01 -5.509363619673837142e-01
5.256816208866197382e-01 -6.163868054973685728e-01 -1.361643983290232729e-01
6.446518038729205369e-01 -2.156653338810044507e-01 -1.949388319796327429e-01
8.553328476557507942e-01 -2.106875198680210892e-01 1.209058517347318951e-01
6.697969157376105764e-01 9.034970893225535704e-02 -3.392540745888105169e-01
9.383805057438384667e-01 1.307849058354531788e-02 1.132263901081889818e-01
5.976745932136139361e-01 -4.023348114511212104e-01 -1.547833143779788478e-01
7.467638504659727117e-01 4.458245241953651822e-02 -1.955101429443939776e-01
2.548706591820609768e-01 -3.841319759631209307e-02 -8.904027627706890824e-01
7.047863891828941574e-01 1.239915351997614712e-01 -3.063550031836066445e-01
6.584404386916513641e-01 -4.319646995557309410e-02 -2.768539776798575325e-01
4.557580127901769140e-01 -5.162766668040271734e-01 -3.016350442828640288e-01
7.727077136771000054e-01 -2.408686625138266868e-01 1.386020428474363762e-02
1.379486581093983533e-01 -4.494853323070928108e-01 -8.223605879988931111e-01
8.555679830323996704e-01 1.384975700432475310e-01 -8.683083511632705420e-02
4.632744430334064800e-01 -9.989317879441890133e-03 -5.919765123883189428e-01
2.303483013595628570e-01 -1.800055024708162310e-01 -8.431308252175161444e-01
6.682814003776055278e-01 7.668662842454640471e-02 -3.334050716762195221e-01
3.696757203317947438e-01 -6.113553036029113485e-01 -3.752373519930918278e-01
3.257799064623662089e-01 -1.770320710403348874e-01 -7.004918067610469423e-01
7.158303214295760331e-01 -4.857336272528863658e-02 -1.868049737178357761e-01
1.742501595423934790e-01 -2.967415813331047980e-01 -8.584534102735659200e-01
5.091443986976945668e-01 1.555200412930320408e-01 -6.211974645252541505e-01
4.581473858218992889e-01 -1.444964171422932764e-02 -5.970769101020584335e-01
4.753554688045663057e-01 -3.238746869143461771e-01 -3.866389368668198268e-01
6.647799086717219863e-01 -6.182646884220504013e-01 7.544390603557976638e-02
6.582781481340468366e-01 -3.645887939366950214e-01 -8.556981161997834207e-02
8.046942077438574703e-01 9.556448179987041269e-02 -1.382296682527256737e-01
9.585376738420821052e-01 1.960694814790619467e-01 3.467783830734154360e-02
4.214442633187162057e-01 -1.706382385444208949e-01 -5.595389242511373817e-01
4.986491757507525713e-01 -6.326986589958125129e-02 -5.066941450800948044e-01
3.034447998228929633e-01 -2.248189071602967049e-01 -7.058122317279961200e-01
7.394606120354223489e-01 1.306131465318611518e-01 -2.578306214315815859e-01
8.439223110525558846e-01 -2.232542628799608353e-01 1.111279561761943646e-01
2.896107170950213416e-01 8.025354809026809255e-03 -8.655071666112463813e-01
5.020903272013892416e-01 -6.214493784531606169e-01 -1.688467290433141033e-01
3.708323405543490492e-01 -1.900995789718704920e-01 -6.245292071060388750e-01
5.684930914625780929e-01 -9.707852469572342269e-02 -3.808556336855893898e-01
4.979866790368188134e-01 -2.368109674961790811e-02 -5.312890958105971340e-01
2.541979103835746989e-01 -2.048587933519883109e-01 -7.922296149093116524e-01
5.421619418175586125e-01 -5.785389199548169881e-01 -1.337806801838078985e-01
4.393338620512584058e-01 -3.879265145473783094e-01 -4.029774131099397305e-01
5.785672974538951241e-01 4.844615311765135962e-02 -4.523345526392564264e-01
8.554595432093419216e-01 1.410049836920572452e-02 -1.286204587178163723e-02
3.311831722561512925e-01 -6.512538087930795638e-02 -7.590047621245150644e-01
6.498067960078272032e-01 5.396713403013513738e-02 -3.478221970723351930e-01
6.283520839731121521e-01 -2.815697141234572709e-01 -1.803293388600144820e-01
7.940935672151869795e-01 -7.337067207344025177e-02 -5.359619001572726860e-02
8.909400981768094141e-01 -1.141297074715640764e-01 1.172457706466308036e-01
3.430130376610883713e-01 -9.546072580511275052e-02 -7.230253563941552164e-01
7.256822556535970081e-01 -5.147278912646984228e-01 1.059023577908000807e-01
7.771571260976130047e-01 -5.557641152452991173e-01 2.082512579537084962e-01
6.092973691730758645e-01 -2.471416524716688878e-01 -2.296806849600251665e-01
7.146401130864431517e-01 1.827517570650362133e-01 -3.264613682371916847e-01
4.314826160684400169e-01 -3.202427165331316883e-01 -4.551935548633005979e-01
9.672400289278164642e-01 1.813292269412528912e-01 5.663086804605199642e-02
3.703763105992278204e-01 -1.235044115299375189e-01 -6.649058504621062626e-01
3.447176051560711385e-01 1.497740292029851872e-01 -8.665905318124965673e-01
7.905814349270755548e-01 -2.288075923109990084e-01 3.371980391878987016e-02
3.274047296190848999e-01 -4.868077622721935227e-01 -5.134260948626687693e-01
5.161273782358274387e-01 -6.206526532533859219e-01 -1.480800892474189723e-01
9.697929320545428666e-01 9.768291928477766672e-02 1.103419999692896447e-01
8.179873621714920384e-01 -2.534278863497086975e-01 8.986372846912751844e-02
7.181702222030443838e-01 -3.811698578185577224e-01 1.494259650248591989e-02
4.322572858174176802e-01 -3.239364053588676962e-01 -4.518200851670529650e-01
4.779664414928492255e-01 2.289391280727235550e-02 -5.893403325605647280e-01
4.370996202168048739e-01 1.979840288977861573e-01 -7.555244465969894740e-01
7.135138383992956079e-01 1.587927785167500827e-01 -3.138876383150445704e-01
6.773260936123298714e-01 1.231285510391884608e-01 -3.473947579957117893e-01
9.284237286452039217e-02 -5.940193103060577018e-01 -8.044840356758392597e-01
3.493259227092406771e-01 -3.215870469761624162e-01 -5.787152777681898730e-01
4.347494939450837204e-01 -7.039292318262872772e-02 -5.991448530736624978e-01
6.304296602933083804e-01 -3.563048190605200283e-01 -1.326480110730083040e-01
1.117873300442915052e-01 -5.396584531030979015e-01 -8.082114291171653697e-01
7.504876488612238772e-01 -2.318546339489047925e-01 -2.513590224079860491e-02
4.448785281595024621e-01 -6.416258411159269093e-01 -2.433980457305881528e-01
3.600166663636388820e-01 -9.821668787475339168e-02 -6.956523905428848575e-01
2.741084691636578308e-01 -5.080346284302188486e-01 -5.814262839565094154e-01
5.608476593772109275e-01 -4.877052389436350444e-01 -1.596358904708298221e-01
4.645481243113149250e-01 -2.328735756052903172e-01 -4.572240297884346272e-01
7.434130230486886148e-01 -3.464499886908973258e-01 3.245015911583171847e-02
5.535205499898838699e-01 -6.526104976816992087e-01 -7.245033716186749517e-02
3.188957731109152705e-01 -3.928444716203390863e-01 -5.822984471940605422e-01
5.660973790177546983e-01 -5.765612043910605874e-03 -4.388977159734262501e-01
2.228318249978830379e-01 -2.317387813155447340e-01 -8.236752609717168383e-01
3.872842802423297481e-01 -2.256848368905437496e-01 -5.784268697869321407e-01
5.064365625796747317e-01 1.839005219626439758e-01 -6.422080664208964507e-01
5.652933638564759944e-01 2.210725412680987212e-01 -5.752957554529913864e-01
5.271927856568028314e-01 -6.002833622955505710e-01 -1.434742884709081512e-01
2.979325771362347219e-01 -1.936953213638681615e-01 -7.327012651008413258e-01
7.435794257241358229e-01 -1.713122689187515924e-01 -7.166917535373790171e-02
4.282216270826008642e-01 2.145530779867919902e-02 -6.637588962810105908e-01
3.804746056574258573e-01 -5.342920390099786809e-01 -4.048209304735890246e-01
3.299246261327128393e-01 -2.107910655014992119e-04 -7.995942863876633888e-01
1.517936933223890950e-01 -4.220634100709325098e-01 -8.177514687863736143e-01
2.072224945682520636e-01 -5.267255871073970308e-01 -6.715022253285295450e-01
4.603981200977296795e-01 -5.777118585510730986e-01 -2.580019076115970256e-01
3.907470175858173689e-01 -2.641604135112083362e-01 -5.502578739199595059e-01
4.182077641085184538e-01 2.490057932413277109e-01 -8.145181586335300539e-01
5.584191007868988255e-01 -3.373531379973118138e-01 -2.529113454894228452e-01
1.721463494018965756e-01 -5.751878483980659151e-01 -6.957003983364212774e-01
4.039456353465281646e-01 1.388871332792573909e-01 -7.704763504181629807e-01
4.563718514865429676e-01 -1.483280917300091595e-01 -5.199805270011846892e-01
4.534607205598535917e-01 1.868776293391322396e-01 -7.241474416999897912e-01
8.877712947343265881e-01 -8.175544062952316837e-02 9.315756708627069560e-02
7.371480110549740727e-01 -3.425417139279311463e-01 2.064059974705915318e-02
6.458760645083920782e-01 2.159707332970348670e-01 -4.503143666565673775e-01
1.484414897231410013e-01 -6.323368884980231641e-01 -6.975143006762645204e-01
7.583009024513167606e-01 -5.165213017461409706e-01 1.563309853957670914e-01
6.835289508104812617e-01 -3.316464822749076169e-01 -6.699082708740808356e-02
5.233430334671435036e-01 -2.938390566022088812e-01 -3.319215560446270863e-01
4.187254444573186296e-01 -2.045344724627602417e-01 -5.434531136253822892e-01
3.081065158133837190e-01 -1.152453578968994502e-01 -7.640569242587734733e-01
2.603751553399351049e-01 -6.138697310578885569e-01 -5.391369840221083010e-01
5.832785010473573450e-01 2.159704158022439924e-01 -5.450393640761481695e-01
7.520224914608183431e-01 9.139127544447937790e-02 -2.154476876887649606e-01
2.276725201756243933e-01 -4.897620796294780976e-01 -6.625843540395016662e-01
6.711118523552183079e-01 -1.510409708459402867e-01 -1.934104911039895291e-01
7.788196616822105067e-01 -5.763759999124506983e-01 2.230504704536095117e-01
7.678903876606650858e-01 -4.956436507858107410e-01 1.584004096640097004e-01
7.227676524185870921e-01 -1.864102888880329600e-01 -9.416492284155660031e-02
5.706881583360822185e-01 -1.854624626123855813e-01 -3.248626624581669176e-01
1.573804226206261536e-01 -5.450283599514801347e-01 -7.360179724372578614e-01
6.781574484239984990e-01 -2.251487725950368779e-01 -1.385851866869584337e-01
5.769181694169814856e-01 -6.580674886525115230e-01 -3.379207919317751829e-02
1.858882335785360385e-01 -4.096883185520949766e-01 -7.735330012124651544e-01
9.225261753475262338e-01 1.707514468029049381e-01 -4.728262974647538461e-03
8.115288510487622675e-01 9.222794671162336255e-02 -1.258988406813484340e-01
8.198758417427413070e-01 1.602146099639829568e-01 -1.537836386712647663e-01
7.256302224282566993e-01 -2.115121043239179544e-01 -7.487405100094840504e-02
5.975871590111103693e-01 1.070500316267207208e-01 -4.584771733979996489e-01
2.117230555857272101e-01 -2.826015281519828060e-01 -8.101744838164994800e-01
5.075608075387110230e-01 -3.192477443799490722e-01 -3.406618732627668678e-01
2.696953579599001283e-01 -2.537473395140176224e-01 -7.396437251286293035e-01
8.445424025224517184e-01 -1.682213405580567089e-01 7.927011956700173723e-02
1.531272167513408056e-01 -5.335222093561536871e-01 -7.493110441377689446e-01
3.085195721125320589e-01 -3.224909431421700279e-01 -6.399264464833529509e-01
5.520485612806462772e-01 -5.706664349960712812e-01 -1.235113536143977175e-01
7.798359412027242588e-01 7.839158034754420412e-02 -1.656122346111240373e-01
4.377593393739102612e-01 4.842592406645356701e-02 -6.653988436576481202e-01
3.108492156598445799e-01 -3.918937866223303201e-01 -5.950413750578162908e-01
7.943350199141751000e-01 -2.312378869486515220e-01 4.084818565106557164e-02
6.968644070223514175e-01 -6.161166517866364378e-01 1.227153821237230019e-01
5.617932565387272481e-01 5.157333821218421793e-02 -4.795813226209252322e-01
3.759520756552343079e-01 2.017413954704954659e-01 -8.502945612632304417e-01
3.272234898869290087e-01 -4.608689464748643716e-01 -5.291582682814006677e-01
3.882175844791344588e-01 -5.522511695870547799e-01 -3.824014189676390729e-01
7.742618902930447078e-01 -1.904236359584020599e-01 -1.385003726215299456e-02
5.998768274999684014e-01 -9.563648565141766311e-02 -3.342238492493483926e-01
7.291122662757719697e-01 1.446486501198370744e-01 -2.818544438574353550e-01
5.472512849084016917e-01 -3.579485256771167134e-01 -2.575373753973249080e-01
4.419122872856056095e-01 1.775618500966406332e-01 -7.360713794761177819e-01
1.000000000000000000e+00 1.968395733096031386e-01 9.696139502795991794e-02
4.884104738920526101e-01 2.666739546028107713e-02 -5.757847566488992763e-01
9.471193469252846553e-01 1.295518716740792220e-01 5.703950093641831087e-02
7.716312384792893830e-01 -3.013900980115139516e-01 4.829823345641980764e-02
6.902352688125257263e-01 -3.108039615236932174e-01 -6.926339364245001629e-02
6.924432910144169284e-01 1.587744742706882484e-01 -3.457615419798363843e-01
3.497476022901160886e-01 -4.988476825587470076e-01 -4.724409080136596217e-01
8.446890053590800918e-01 -2.870096292993972731e-01 1.502823654681281762e-01
-7.292516401727908715e-01 5.204386632031858806e-01 -1.528077321444139547e-01
-1.752264278888678861e-01 6.133168232508856565e-01 6.302162377532305459e-01
-5.526852994599077418e-01 1.989200569095491214e-02 4.126742009070181738e-01
-3.382141071994617110e-01 -1.087725204309450272e-01 8.138967792591738082e-01
-6.486115123741403865e-01 4.669393000190770748e-01 1.102477722284763611e-03
-5.630815627837347792e-01 5.181606025166407559e-01 1.000051895629402859e-01
-8.796205445009325219e-01 1.694937819503552490e-01 -1.712108632874662362e-01
-2.642594600547175099e-01 8.594134316235400861e-02 8.097706674484959066e-01
-2.856628791172755033e-01 5.654575452871443142e-01 4.916204349728815481e-01
-7.742010787266608851e-01 6.817258622290868486e-02 4.869527686721662751e-02
-4.481142623334612995e-01 6.461872906546245465e-01 1.976824890532435652e-01
-4.310404697611355251e-01 2.107831757464679878e-01 4.829929053856031884e-01
-3.048839369112064102e-01 1.083699006378135155e-01 7.349300324838922149e-01
-4.473657774903141982e-01 4.026178300362528995e-01 3.439673118980854927e-01
-3.253154007004036008e-01 4.938535849389943388e-01 4.742881096780420247e-01
-5.353116881604309540e-01 2.819926685519644760e-01 2.827690341482183012e-01
-2.890064739785277448e-01 1.915471447301906327e-01 7.093880149140981972e-01
-7.191265281393540709e-01 -1.098367834567456208e-01 2.381187992867782321e-01
-7.639746731224361653e-01 1.677915686893698133e-01 4.803599708492249654e-03
-3.272289468136518331e-01 5.992672312315762140e-01 4.085725046422296614e-01
-5.804623545242953986e-01 4.906971812844701519e-01 9.007035014525159589e-02
-7.917610687449238016e-01 -1.210866603955179505e-01 1.349094733798260892e-01
-6.970125922766807758e-01 6.779757822141423140e-02 1.657235247267614398e-01
-5.257569299375735028e-01 4.601383510128649323e-01 1.910639843969265117e-01
-5.809807183793792573e-01 2.244482512891006198e-01 2.479536730368661068e-01
-2.999379034407504419e-01 3.730272214529052333e-01 5.846953395347398441e-01
-3.207314138366898493e-01 -1.146345878120828415e-01 8.438457300538093619e-01
-5.300940767806505693e-01 3.443675260564956764e-01 2.534930174297806427e-01
-5.608488161719453746e-01 3.231520421934626075e-01 2.195967944293888696e-01
-4.748188906300416234e-01 4.937036223186781481e-01 2.481426982442486995e-01
-7.760536410307709021e-01 5.663809780738323502e-02 5.276573866062289619e-02
-6.278014374802572961e-01 3.734082447273747718e-01 8.833179892827550117e-02
-6.889808902864882345e-01 -6.258281580785410303e-02 2.555759950331967789e-01
-5.157400787642281159e-01 -3.004943093915883601e-02 4.983431928646242515e-01
-4.035827384839161258e-01 4.363367941167520248e-01 3.901271961155400869e-01
-8.105601316028137049e-01 1.732850459703359214e-01 -6.896518579941009197e-02
-9.711721212350814536e-01 -1.652931770712909310e-01 -1.102383273454749513e-01
-8.443435607850285907e-01 -1.710732537580222923e-01 8.512838883498430320e-02
-1.912009609328505777e-01 1.665163165806956835e-01 8.723081172589061127e-01
-4.331613761176759114e-01 -1.162440484438943683e-01 6.746712626847503058e-01
-8.890343498254120458e-02 5.789531653750009665e-01 7.813223057899106871e-01
-2.982604050712097665e-01 3.713629235609275381e-01 5.882256160898543529e-01
-7.046721134807787390e-01 4.121210528045323590e-02 1.699761061087489977e-01
-3.026317244628499159e-01 -8.977572862528063191e-02 8.564205909934664573e-01
-7.231684094401300555e-01 3.047631867638035952e-01 -1.507322649172672217e-02
-1.595345852110611751e-01 3.288450566556639920e-01 8.234891788527675116e-01
-9.445474661694738261e-01 -8.691462807933392209e-02 -1.166575328093440167e-01
-5.627683278989452642e-01 6.266337726445678769e-01 3.583595526606174475e-02
-5.838628537645025318e-01 -2.596067758901655573e-02 3.928203891310819706e-01
-3.501777011451142063e-01 -1.936848385569205633e-01 8.463954187923821149e-01
-6.005325476562550779e-01 -1.549493409396853205e-01 4.444643149670273741e-01
-3.652589509911355337e-01 1.423737348364551014e-01 6.233039369628694537e-01
-3.928994565668691985e-01 3.122988154485649703e-01 4.802124619310553233e-01
-2.642798972445689065e-01 -5.580209082060547804e-02 8.942099743403992829e-01
-8.940236233775197272e-01 4.837768426016698931e-02 -1.208285605554366149e-01
-4.888609628770685389e-01 -4.055303575765871471e-02 5.452772599393801434e-01
-1.818170259238908459e-01 5.372344338444940970e-01 6.655834278890604416e-01
-2.238038793380167091e-01 1.671648445102293101e-01 8.225855689901195866e-01
-4.302881540256752180e-01 1.333185917759791006e-01 5.302953938124337352e-01
-6.427858358508656833e-01 4.602427808329506709e-02 2.607571915800891982e-01
-3.986457003562258183e-01 -6.205394469239237237e-03 6.613256265809861478e-01
-7.061936416656452442e-01 5.111236202872710965e-01 -1.123642444230069370e-01
-8.965439511527961702e-02 6.236169378197208291e-01 7.535691036291187750e-01
-5.938587416320323387e-01 -3.632887599650853200e-02 3.838730024864112078e-01
-6.396747199389168914e-01 1.244806421169185051e-01 2.187099665559778805e-01
-4.020921476958183582e-01 2.139684173188729013e-02 6.396611131476847012e-01
-3.336535604439828107e-01 6.366996791388506161e-01 3.765431163103734047e-01
-7.096602785518022483e-01 4.064217961174302896e-01 -5.521435330478095121e-02
-6.692137392900603388e-01 6.463909869031717603e-01 -1.370156492238692458e-01
-8.992302193098681284e-01 8.783964697137466859e-02 -1.522242588775774563e-01
-6.049097875003340841e-01 8.706343565568253062e-02 2.936159984701574022e-01
-2.888471049081406394e-01 3.923812054440641295e-01 5.899446227126874387e-01
-2.141822055840705841e-01 3.031550310882829558e-01 7.561038210410224725e-01
-1.049057263658586814e-01 5.829471036878418611e-01 7.547268479022638532e-01
-2.991534895209146949e-01 5.044062997621633349e-01 5.075886220144151251e-01
-5.553823262469210764e-01 3.672308727719773569e-01 2.016006801463754716e-01
-5.460742417711091923e-01 -2.053438365187532366e-01 5.569048166952721424e-01
-4.697415714816599586e-01 6.283550536683368826e-01 1.755820620208998761e-01
-2.077614474066810935e-01 4.525225077198247181e-01 6.768062877447057479e-01
-2.098540915222183445e-01 3.915188692696884853e-01 7.099939714976053473e-01
-2.696486524202177937e-01 3.434552954057842333e-01 6.481532906404217087e-01
-7.881416264209361033e-01 -2.600198644618055208e-02 8.372203452260008893e-02
-5.098896386614071297e-01 4.040001421702097972e-01 2.485298828913173608e-01
-8.316768109151987387e-01 -6.303864044498259933e-02 3.991434983043430640e-02
-3.429434081982859484e-01 6.146167095020355076e-01 3.756454103087992213e-01
-2.292227374906499193e-01 2.268267109708984874e-01 7.788307858796210681e-01
-8.454742777280355170e-01 -1.308820295715990567e-01 5.946588258127080001e-02
-9.101856423220070491e-01 4.335457660691340032e-02 -1.422921285183912643e-01
-2.600557462823629984e-01 2.128639909590844814e-01 7.404939281858810007e-01
-3.200358005739322720e-01 3.469972053985775351e-01 5.697946454409473782e-01
-6.769328587523830709e-01 5.432077872296982024e-01 -8.720579356087231060e-02
-4.376696429192314941e-01 2.703902476854110892e-01 4.374392783478479041e-01
-7.474005858654996226e-01 1.911512932518298971e-02 1.184860561161884818e-01
-6.747532737867562025e-01 1.628300513803808691e-01 1.427738152872485289e-01
-4.471985895169687808e-01 -1.911374000342998536e-01 6.980613384046689962e-01
-2.950220584367407861e-01 5.500207096785831862e-01 4.866571328589339163e-01
-4.436467278866528252e-01 4.127501701482403362e-01 3.435568876375743597e-01
-2.267194269925548455e-01 2.498660445517215112e-01 7.688888936803109919e-01
-7.269914199293154855e-01 4.208378813725150991e-01 -9.003162981715950863e-02
-8.136410214743644564e-01 3.438462996554976780e-01 -1.752711678814921903e-01
-6.690289335157493245e-01 -8.498006670777241700e-02 2.991154725281714999e-01
-6.558515465647756226e-01 1.435025734047599977e-01 1.828946496629225427e-01
-7.183417653806063452e-01 -5.590672042494617723e-03 1.771821631731720914e-01
-8.454692953194543614e-01 1.619583685149734650e-02 -2.817579965885956897e-02
-7.943753451067534499e-01 4.120285594957793784e-01 -1.867499286438617789e-01
-8.563727211271027207e-01 2.515214623271247452e-01 -1.849146825999982979e-01
-6.758127578529636859e-01 8.655693074537712528e-02 1.866245766153576124e-01
-5.325160717776952213e-01 4.195004324256964012e-01 2.050534364441351232e-01
-1.613612800447299656e-01 4.302337514860113954e-01 7.603036203870335852e-01
-3.235398999920356400e-01 -5.566960664419699084e-02 8.044563684434666850e-01
-5.518373321176239799e-01 3.866831057207979760e-02 4.027678747503785628e-01
-9.761865821072078786e-01 -1.950637763322935481e-01 -1.000849964248682611e-01
-9.332098554115405564e-01 -3.564085903036106652e-03 -1.491727147218647465e-01
-7.643008312874979282e-01 -2.007188546971311327e-01 2.239192388432735825e-01
-5.906701512487153582e-01 4.949343868585664996e-01 7.209838586225873758e-02
-5.213071724274259688e-01 3.262003579229307282e-01 2.776162170253197448e-01
-7.044367245456751858e-01 1.512627506625974227e-01 1.047489954236227871e-01
-2.034024713199274470e-01 1.762440595072525262e-01 8.480471668101724481e-01
-4.329119154077289977e-01 5.606913928906718247e-01 2.716375155306570699e-01
-8.846699630862211450e-01 1.363551711031934892e-02 -8.597005862404642762e-02
-6.069173356782894269e-01 2.877142440428416270e-01 1.710027456322765760e-01
-3.034925627410614557e-01 1.024898901428130255e-01 7.405396356240477873e-01
-5.617635141145366218e-01 -1.039720144216523673e-01 4.727518955286016955e-01
-5.670894907252307382e-01 5.365101081057195298e-01 8.300507029202393305e-02
-2.559374099073632447e-01 -5.606434465965001029e-02 9.069904534090269532e-01
-4.072088068291888630e-01 2.379004522823315870e-01 5.028957468647652362e-01
-2.873273871990510431e-01 2.307953008179184640e-01 6.885394279583115784e-01
-4.623065050840386436e-01 -1.138775022611694249e-01 6.291573508808632198e-01
-2.089224098064524637e-01 3.919351554811004168e-01 7.111557496962764846e-01
-8.685360226344419621e-01 -1.198298123295642031e-01 1.798147826216510078e-02
-8.063347387436861080e-01 -6.446250320216309788e-03 4.453747751911642239e-02
-3.566097433625253221e-01 3.217350874729897336e-01 5.295041076181886686e-01
-7.250214799761834916e-01 5.769610333235166699e-01 -1.800902833437776629e-01
-4.905391197516893453e-01 -1.934766277096229281e-01 6.338707136102090800e-01
-2.034905251061741860e-01 5.482057204401767914e-01 6.262480032418785703e-01
-3.107353066237174555e-01 4.941846314046016153e-01 4.961540197973136057e-01
-2.955685173386036202e-01 5.695499555504709432e-01 4.741919982242087106e-01
-1.731691973056761480e-01 3.502277292288718535e-01 7.901139903422970123e-01
-5.187990092445354806e-01 1.768048679900964260e-01 3.704420525471912029e-01
-4.705834353933343039e-01 5.547046582375554369e-01 2.181991546395553594e-01
-7.843590610814982211e-01 2.204837565993507942e-01 -5.744414052083195166e-02
-4.658514005070852337e-01 -1.665339917063944353e-01 6.551730492728491395e-01
-2.825816833550470752e-01 4.211388378259185994e-01 5.822879615155643895e-01
-1.705583764224188892e-01 2.290809807258726849e-01 8.662606862238539929e-01
-4.446432714135111763e-01 2.249614463974088929e-01 4.539592272887804647e-01
-3.665307272883205347e-01 -2.144518368214106130e-01 8.340251863766648954e-01
-8.641945740252034991e-01 4.936580816398616206e-02 -7.627888636080816520e-02
-2.513809558240368558e-01 1.910317700428634524e-01 7.666316149993573914e-01
-7.399493127391781888e-01 3.764759837086157496e-02 1.187174325742154368e-01
-4.789827837275597022e-01 2.538128950564340069e-01 3.848016150897754506e-01
-5.224340568165314336e-01 4.473917003390578406e-01 2.036884991953745450e-01
-4.120704941589996007e-01 2.938289112469211761e-01 4.622089750495064764e-01
-1.207679988583573727e-01 4.793573439412237014e-01 7.924564366188315834e-01
-2.740223182451052564e-01 3.551154722541997044e-01 6.345861439947877436e-01
-3.637886177542813959e-01 6.385210640605151200e-01 3.298560866139465531e-01
-3.541875617193705472e-01 2.158648693512066896e-01 5.962614889795488926e-01
-5.384178413804436847e-01 2.724876607917687821e-01 2.837330673207418830e-01
-2.787235296678317598e-01 3.533626220754896297e-01 6.285166683117983100e-01
-6.070187377150013663e-01 6.576019135773902846e-01 -4.958064772235513257e-02
-2.041374212085797502e-01 5.179920614551839497e-01 6.432745472636793860e-01
-7.546503084337085054e-01 -1.309963285709556946e-01 1.969725330438671929e-01
-7.595907758097288909e-01 4.703156036080277658e-02 8.340291418579935667e-02
-4.930007882024177723e-01 -1.750927974604306325e-01 6.191900019251537213e-01
-7.518937361115375362e-01 -2.119978779552961212e-01 2.494157547649660245e-01
-6.896496966643723692e-01 8.581351663853142853e-02 1.661289847171587841e-01
-2.757521398595953466e-01 2.259614907888442270e-02 8.301292546349892110e-01
-3.243624160496489939e-01 -4.254558492440534134e-02 7.953906063800569859e-01
-6.263176682198347001e-01 -2.227899727114308337e-01 4.458739978280705230e-01
