2.788929338553766124e-01 -1.251395012076957913e-01 -4.237920152221087422e-01
5.850485275006661601e-02 -1.309247259748652636e-01 -1.188264780982870895e-02
6.572773290223459242e-01 -1.349020917645412376e-01 -6.262815645604588033e-01
-5.815032249170257878e-02 -1.386586986590297166e-01 3.258681645871990828e-01
4.778580820776189841e-01 -1.499610502923307276e-01 -2.573187857606722834e-02
2.025171059822277186e-01 -1.194983165888794385e-01 -4.769851039432161932e-01
-5.037408761846469130e-01 -1.105904860912561571e-01 1.396510792825352842e-01
2.553550151407691926e-01 -1.219369425738575236e-01 -4.777030779794476101e-01
-9.030298447509453874e-01 -9.633640243878251186e-02 2.520485150928422624e-01
-4.644934405887229389e-01 -1.062865053949049315e-01 -1.759691337388760712e-02
-4.305022375218218733e-01 -1.255730438481633959e-01 4.359828239083363144e-01
-2.889374699435350857e-01 -1.212766585752224069e-01 1.565250481318405107e-01
6.202873453619823785e-01 -1.399476331245594063e-01 -4.527306955796783217e-01
6.515573043068426662e-01 -1.417941037864586806e-01 -4.428212633596836367e-01
-8.538597547368818041e-01 -9.791157373466069513e-02 2.335912148778162833e-01
-4.879969169575844590e-01 -1.259224396365822285e-01 5.137186952295703657e-01
-8.468505310475512582e-01 -9.634273360651131324e-02 1.850022379249174620e-01
8.317732641621498058e-01 -1.584456525910608871e-01 -2.316985932093199030e-01
-6.537073704235612549e-03 -1.347600402799043195e-01 1.642136268140750033e-01
-6.035491506662819111e-02 -1.146294061962752492e-01 -2.872781909500634057e-01
4.824322193392382996e-01 -1.265449039871825443e-01 -6.312750586571692635e-01
-8.311371281971658975e-01 -9.949063877706215697e-02 2.468733670426096760e-01
-4.796593739357580821e-01 -1.157287621245061821e-01 2.425172691801445735e-01
-5.815791189618703116e-01 -1.070538266626415297e-01 1.421388692407859200e-01
-6.217408849773320423e-01 -1.062622395819003973e-01 1.698997436984156506e-01
5.793390615123155118e-01 -1.421389889858151734e-01 -3.475868663775723011e-01
4.699774881946505029e-02 -1.406143970021321299e-01 2.501947309438494194e-01
-6.053038915617250382e-01 -1.218739904921603279e-01 5.503084612627210381e-01
-7.069474952239268584e-01 -1.231056539508585401e-01 7.034699665540236069e-01
3.587339681664553775e-02 -1.154042184911299174e-01 -3.825425579127069708e-01
6.135934415164281952e-02 -1.271097989807414563e-01 -1.130603025275726953e-01
-1.797301153857651934e-01 -1.165664780177710080e-01 -9.482693286560762991e-02
6.416194642973840345e-01 -1.471980928327123461e-01 -2.924477397645112164e-01
3.185931398865139985e-01 -1.369838665212677886e-01 -1.677580309278598469e-01
-7.429633365586867100e-02 -1.172798476992840400e-01 -2.026785532251121069e-01
6.974540784594801535e-01 -1.480024733424109840e-01 -3.386305305104037600e-01
-4.906080885759743215e-01 -1.087992578798201854e-01 7.803734970217347799e-02
3.911001455454428122e-01 -1.465211675426251470e-01 -1.009323115208384317e-02
3.150609402545787585e-01 -1.439424477141344194e-01 1.479085484731376167e-02
5.290084213739366936e-03 -1.214627077665528798e-01 -1.906979401585825185e-01
-9.378265622019473780e-01 -9.772540107928577580e-02 3.292715827417138641e-01
6.628671492367538276e-01 -1.510341504221716924e-01 -2.195625366836512493e-01
6.074282441591673937e-02 -1.213523324954509930e-01 -2.598657652493923664e-01
-1.200665131595195639e-01 -1.116155062867330017e-01 -2.930792625579740629e-01
-3.046994170521841183e-01 -1.335748523701032198e-01 4.905395805692768230e-01
2.434727194317242160e-01 -1.405280293219584586e-01 1.293420416475747799e-02
-6.954915236117130695e-01 -1.209958618118457674e-01 6.356986080771468428e-01
-6.408524506078493443e-01 -1.085102759544722406e-01 2.503723531941324798e-01
-3.707460517138129741e-01 -1.224965533572166254e-01 2.856559012751980209e-01
3.080089248511491684e-01 -1.448921944566929909e-01 4.756590267895610680e-02
-5.989384496709527772e-01 -1.075350522673881315e-01 1.752382799331519136e-01
-6.106963850686322193e-01 -1.245300469858093423e-01 6.248247278006388017e-01
-2.824940731101833746e-01 -1.247158256742838395e-01 2.369500735407558678e-01
-6.433507436341937558e-01 -1.066799498159900911e-01 2.064564834900858570e-01
-8.584583457617521729e-01 -1.068738663981555898e-01 4.687637172910053551e-01
5.165463858596278657e-01 -1.364122084975100124e-01 -4.192232846330916640e-01
-1.876928329578880783e-01 -1.162698572582067102e-01 -9.290227848110399478e-02
6.925638074298621216e-01 -1.387098371727374380e-01 -5.709168109367491750e-01
-1.121283157231172702e-02 -1.370937686934138589e-01 2.296123455198783025e-01
-5.061896467517267711e-02 -1.344603797862797545e-01 2.092705283135321559e-01
-7.977899505212210363e-01 -1.086414792116922740e-01 4.414823263450518565e-01
7.969936711501517390e-01 -1.525510900831656136e-01 -3.411473107568728236e-01
2.703598611669897900e-01 -1.460603814946659362e-01 1.225426916883641387e-01
3.799102845675580986e-01 -1.259630312588802814e-01 -5.235371527148180437e-01
2.573468397955027201e-02 -1.310617525811445805e-01 3.083250612160083268e-02
2.567904894213543510e-01 -1.437986506404229092e-01 8.081605095511669445e-02
-7.451879387265181176e-01 -1.071887030402810942e-01 3.413240146858174118e-01
4.337675720734736617e-01 -1.468214092898696976e-01 -5.344308297085977044e-02
-8.226015980942096018e-02 -1.379913794885254119e-01 3.376103078469808727e-01
7.217545009590554672e-01 -1.507083291721271201e-01 -2.983603617778701200e-01
3.763609323412852592e-01 -1.344023606156552753e-01 -3.030215331880899421e-01
6.256741377527822445e-01 -1.437162324035670957e-01 -3.625994776196216907e-01
4.707838058069465093e-01 -1.401128779158132553e-01 -2.696417679440175630e-01
9.192352208369866107e-01 -1.602389769107727679e-01 -2.903748055456152888e-01
-6.773951317315852760e-01 -1.179545582364686235e-01 5.361119067563001606e-01
-6.430038274617387861e-01 -1.035152099427346511e-01 1.249406366031216992e-01
-1.892074304011934216e-01 -1.107068327510157962e-01 -2.336505076779116230e-01
-8.787928779288368686e-01 -1.047148852991574980e-01 4.377634877451603845e-01
5.249959893600701921e-01 -1.385929584416610572e-01 -3.734470024589623405e-01
-2.326036998175787587e-02 -1.281078248886906024e-01 1.374787289599426095e-02
3.450431380233991985e-01 -1.302724370710540980e-01 -3.713903680489138437e-01
-2.157672305678531854e-01 -1.103673183001715880e-01 -2.105769731318183902e-01
4.026537344128200413e-01 -1.423332586371449660e-01 -1.312359792309436002e-01
3.471474873530520644e-01 -1.381576227814242386e-01 -1.718390885061183149e-01
-2.440028584989363883e-02 -1.237520829470093869e-01 -9.651031528243375623e-02
-6.061992739961793442e-01 -1.035843107147987191e-01 8.268135976427540279e-02
6.440716143944197336e-01 -1.358076825351298145e-01 -5.872762715821752133e-01
-1.699838270357293124e-01 -1.246508063643398528e-01 1.006854352389443402e-01
4.685536713758057803e-01 -1.485063073243073628e-01 -5.188060653101796149e-02
-4.500035833940023711e-01 -1.280059057710065951e-01 5.216581455063492578e-01
7.308355586797601333e-01 -1.577517125793586328e-01 -1.287278135455661165e-01
5.412475119762958364e-01 -1.506765909777872392e-01 -8.322930099326797393e-02
-2.414252810708117369e-02 -1.136456256465724207e-01 -3.558105821050556727e-01
-5.052717894697091872e-01 -1.093436968302347601e-01 1.095318495886591914e-01
9.868074541657213816e-02 -1.202849835157192848e-01 -3.326040061796056158e-01
-1.346282343593655229e-01 -1.200922138501368808e-01 -5.843144092897630676e-02
-6.655278288892235716e-01 -1.142962221228795150e-01 4.281648889998143637e-01
-5.500965710872214309e-01 -1.161998635093496046e-01 3.388554267400810671e-01
2.626699029308890432e-01 -1.278388982019776632e-01 -3.352082835795401894e-01
-8.851549923632121564e-01 -1.011573457495090894e-01 3.542077651645444969e-01
5.806299447584291062e-01 -1.281187162152614134e-01 -7.084200022644767669e-01
-7.036862875628302483e-01 -1.109413534981311261e-01 3.878415392970475106e-01
-1.584415050272874048e-01 -1.310926597594260501e-01 2.519584839282204003e-01
-1.255958973400279066e-01 -1.369154985450612150e-01 3.618828504490061437e-01
4.928737168909654853e-01 -1.391251966794707917e-01 -3.213790977402346538e-01
-4.421236784717107876e-02 -1.209669209420187325e-01 -1.441823124647392818e-01
-4.469655603459292692e-01 -1.303176447559077911e-01 5.772651926537932798e-01
3.140441044808637838e-01 -1.345924723484622776e-01 -2.235986955109546259e-01
-5.272636084511240773e-01 -1.288696750624238330e-01 6.362212555471374875e-01
-3.334002157276793610e-01 -1.320333524457245888e-01 4.853719023461761095e-01
-3.415463570523268322e-01 -1.304180093454645195e-01 4.537219119420681235e-01
6.496372907734755675e-02 -1.280162429881609165e-01 -9.414342806104478156e-02
7.422161229498678292e-01 -1.585000321854718175e-01 -1.231659056330955543e-01
-7.364686731872144287e-01 -1.015202069642054533e-01 1.856299405463800734e-01
3.546007658254347605e-01 -1.340309074153338276e-01 -2.865083781766140092e-01
8.674598020127650688e-01 -1.567159364358364226e-01 -3.187175283359565126e-01
8.701679459950601991e-01 -1.583041285541869625e-01 -2.812577260289984560e-01
-6.417221419041826413e-01 -1.265804921683821305e-01 7.144869939187096231e-01
1.119536345526843252e-01 -1.400998758797932786e-01 1.593012935505528638e-01
-5.690989114508033797e-01 -1.224242906780339812e-01 5.210978655115028335e-01
5.866725086510804488e-01 -1.411748952285969416e-01 -3.810662590871377597e-01
-3.367796671553532351e-01 -1.134965298323611788e-01 1.438317005014883368e-02
-8.728688072478095750e-01 -1.028637185284898697e-01 3.832376931321184177e-01
-6.219949950460307297e-01 -1.100478316381113264e-01 2.672147580238301567e-01
-3.664811455052686268e-02 -1.354094060436513147e-01 2.168770062342763316e-01
-9.069319809617388817e-01 -9.821236871797642265e-02 3.047909475890413500e-01
3.666027494150649324e-01 -1.384084896881662696e-01 -1.886850267815622095e-01
3.564091768828171747e-02 -1.172212153286802672e-01 -3.357013884266497605e-01
-8.223354482621084149e-02 -1.266393335967591904e-01 4.666663669392458885e-02
3.191558657853887926e-01 -1.437069728336544672e-01 3.857638758817177535e-03
-8.412549428670050844e-01 -1.010275426942793126e-01 2.983628088415045676e-01
7.982193930807872650e-01 -1.469455913698620997e-01 -4.862623031036704679e-01
-5.249182381698497268e-01 -1.138366280528307906e-01 2.481728775783604013e-01
-7.281406507887135948e-01 -1.007276036613853759e-01 1.553553954371649781e-01
7.270562902536313876e-01 -1.517156526862488697e-01 -2.788889522116141384e-01
-3.720786230544816386e-01 -1.235284514991044913e-01 3.136938979800833471e-01
7.227315741143269801e-01 -1.434481945521476065e-01 -4.855802171863211059e-01
-6.417697865335966201e-01 -1.191538573981678478e-01 5.242262344873219737e-01
-1.352997358157481678e-01 -1.191052298626150002e-01 -8.292093507045301959e-02
4.325257687891332914e-01 -1.298540157172707044e-01 -4.867703462480598708e-01
5.063967253086124609e-01 -1.421049604449877157e-01 -2.611964080013816636e-01
-3.151650457650554960e-01 -1.289920323611034869e-01 3.856187547463192367e-01
-6.912753467851312505e-01 -1.186976300759459979e-01 5.717593473779984947e-01
-5.867212640279628744e-01 -1.161131054738065160e-01 3.804470408351445232e-01
3.093090762865265825e-02 -1.195966625219098828e-01 -2.691925918240852811e-01
-3.505642388287555367e-01 -1.209091198353099555e-01 2.208317910112361226e-01
6.618500115616239299e-01 -1.304505775999019179e-01 -7.458281524484543512e-01
-2.674005565418370312e-01 -1.099151909821503570e-01 -1.603933000519263408e-01
1.609160069576743846e-01 -1.447728245408328451e-01 2.204773073703784614e-01
-1.636941137097140397e-01 -1.247319270439334743e-01 9.523974510459949638e-02
-5.621564015376445678e-01 -1.275434279165734430e-01 6.439773427970461039e-01
2.274087453528962355e-01 -1.262877950194115917e-01 -3.327737599903141108e-01
6.939389683928177677e-01 -1.473396384028274886e-01 -3.514113880984955363e-01
-4.027344192341728024e-01 -1.306698364087333086e-01 5.333759233966184343e-01
2.493024758673227648e-01 -1.208013054700497607e-01 -4.995645618756163198e-01
1.228746348554220214e-01 -1.371752105500214924e-01 7.128768349641974311e-02
5.682238282977470911e-01 -1.446806537556368788e-01 -2.691558088384253811e-01
-6.117352833436158210e-01 -1.088306295154334996e-01 2.237483611224961588e-01
-3.051686691558295195e-01 -1.208926485358931546e-01 1.661019942477384992e-01
7.058516203558171664e-01 -1.354307547899636088e-01 -6.708443156143729658e-01
3.034267227455600055e-02 -1.256217717304665971e-01 -1.140871407818071503e-01
2.492279211606358846e-01 -1.415704500449924963e-01 3.276260105686532725e-02
5.569277520849892360e-01 -1.424498361846498473e-01 -3.128098464288559533e-01
6.620835560451407975e-01 -1.560095315453338682e-01 -9.112410467720970242e-02
6.960435963553635030e-01 -1.566245663753596251e-01 -1.159901161003068643e-01
-2.736830633387054568e-01 -1.306635760391485768e-01 3.788285782974503690e-01
-6.338752158422885641e-01 -1.021002620906312774e-01 7.775989205569143470e-02
1.738270722490032338e-01 -1.358737750912360764e-01 -2.301889233643754015e-02
3.376734535952304883e-01 -1.434430837831842942e-01 -2.505787090867668890e-02
-8.125137997966155323e-01 -1.025782151184144453e-01 3.037172801523483900e-01
7.274773997291936189e-02 -1.322448987517229613e-01 4.909527668976113556e-03
3.265139984741262658e-01 -1.232863519974831679e-01 -5.282516238308900824e-01
-4.406193042140810201e-01 -1.134002446651211082e-01 1.361413225023541951e-01
4.005085667942295258e-01 -1.300570813386340008e-01 -4.432636418426295633e-01
1.449544006318012612e-01 -1.219537383148811688e-01 -3.451980327793746084e-01
7.578430398314970340e-01 -1.507178411255767625e-01 -3.412901006022076578e-01
1.025102596422649941e-02 -1.403799880083324569e-01 2.881485726277825954e-01
-3.817652982628681468e-01 -1.162007370804069573e-01 1.374994887053523629e-01
7.305005521453741268e-01 -1.513880791703454687e-01 -2.914039199269798375e-01
4.328395494396373167e-01 -1.512955757357726805e-01 6.232381577818196794e-02
1.244435851875577287e-01 -1.376404642723728644e-01 8.133348269308472711e-02
-2.341214250379669570e-01 -1.355926348005628557e-01 4.578140671604641332e-01
-1.257653422054362258e-01 -1.208405076195004507e-01 -4.985824978103596539e-02
6.124763362416839607e-01 -1.518341254128605933e-01 -1.387784602426898328e-01
5.157649577087245474e-01 -1.353629229055058891e-01 -4.451778356362936506e-01
-7.110382059446235248e-01 -1.128439744796470301e-01 4.453940839557792297e-01
3.378903813115105015e-01 -1.456535299152764973e-01 3.132834425799831818e-02
8.819165268636309785e-01 -1.548664192371040915e-01 -3.834088482160776246e-01
-5.140697554706157302e-01 -1.117355005995092632e-01 1.813503156823494944e-01
6.719881488579252382e-01 -1.517379612665183675e-01 -2.124380613517227456e-01
2.669727060652439254e-01 -1.236441782791932731e-01 -4.478513023460948816e-01
-7.649901270233619988e-01 -1.108911686562702587e-01 4.598945860417696929e-01
5.818740506434976201e-01 -1.287272295560247248e-01 -6.943143593797523883e-01
-5.961734709040471536e-01 -1.165039013441926535e-01 4.017696024587414372e-01
1.336892426180145699e-01 -1.411226606203639933e-01 1.595087872830956433e-01
2.916330550457177928e-01 -1.318243333525181971e-01 -2.677252539299890821e-01
-3.793932700887000381e-02 -1.307601323681036876e-01 9.927766194608492190e-02
4.452850433142899744e-01 -1.370520722582633799e-01 -3.175744155858988282e-01
3.087020448399054873e-01 -1.339865371072879452e-01 -2.327358007642232884e-01
6.626168152790885835e-02 -1.396128704365502682e-01 2.014833742436767383e-01
8.004331038600684400e-02 -1.165704412887580005e-01 -4.054979086636285590e-01
5.072999401377892292e-01 -1.392590293789150446e-01 -3.352078516049751822e-01
-3.025896918571698846e-01 -1.330438539045567248e-01 4.744081029571808328e-01
-5.303230208758054065e-01 -1.101110776791413975e-01 1.591663693851141925e-01
7.829291008774335037e-01 -1.465701891591803252e-01 -4.775903968129623922e-01
4.457677395409596621e-01 -1.284339035721104028e-01 -5.390043329845102260e-01
-3.615877842161095423e-01 -1.317261200179865865e-01 5.112200425291505423e-01
1.401690842897637401e-01 -1.387969396810904144e-01 9.215700686559549770e-02
9.596241805576657957e-02 -1.406803686882064641e-01 1.933078587553363481e-01
4.142617254624305079e-01 -1.441430235641866231e-01 -9.874514672884808497e-02
3.883124411740753734e-01 -1.268641577782197161e-01 -5.104962237326295948e-01
4.110144067098509546e-01 -1.338320159449098434e-01 -3.590940991104118463e-01
7.709941840752013720e-01 -1.438962652241510820e-01 -5.318353873038788038e-01
4.530480072279917114e-01 -1.464084499700445685e-01 -8.709133456312646848e-02
-7.010253248667172032e-01 -1.100982845840030727e-01 3.630533687913634067e-01
-3.596618001494561456e-01 -1.304635643980161519e-01 4.765612174434807335e-01
3.812771892473731244e-02 -1.333929956095414870e-01 7.574776921011955322e-02
7.170287589875028456e-01 -1.368346662603288633e-01 -6.482385996136299511e-01
4.348089872500922048e-01 -1.320224246068413820e-01 -4.339333414811564205e-01
3.996675993977941155e-01 -1.446545295549646892e-01 -6.817783321485818004e-02
3.316839798642840509e-01 -1.319849549963278967e-01 -3.115228861358668166e-01
-4.842802788577356687e-01 -1.189192169691329209e-01 3.298051623965119195e-01
-2.230253785853227311e-01 -1.230565037916894339e-01 1.232839828599660847e-01
-7.006465186691143154e-01 -1.125305587710202643e-01 4.249305750675036464e-01
6.329945660955541564e-01 -1.525847661153148793e-01 -1.440886570338365813e-01
-4.822039330885123654e-02 -1.299150258633931521e-01 8.992010319756153780e-02
5.474358155460493647e-01 -1.414835359039529339e-01 -3.262172157367000946e-01
-3.226282989911310461e-01 -1.297841372910200908e-01 4.148459863901029498e-01
-2.689006311842481386e-02 -1.168024221852383415e-01 -2.716263821382733368e-01
6.729424534447093764e-01 -1.455837170402520808e-01 -3.712907118087319103e-01
7.721241872431260367e-01 -1.553595384510216282e-01 -2.394250494870106272e-01
1.868459435790260914e-01 -1.440328041857288077e-01 1.704927239987867604e-01
-4.614273032267718899e-01 -1.268502539185776268e-01 5.057094149767376035e-01
6.174605395759891202e-01 -1.406598223993004992e-01 -4.310980946658578006e-01
1.534549064863783771e-02 -1.144479848567093727e-01 -3.824893875443664548e-01
-7.044138276999000192e-01 -1.146567691935098943e-01 4.839245621789863838e-01
7.081882916681251361e-01 -1.479884764784570039e-01 -3.518307897344248869e-01
-3.290013811816295264e-01 -1.113482662956958719e-01 -4.997437656545049289e-02
7.355986563329119932e-01 -1.563974337821151528e-01 -1.691312715839520253e-01
6.614059717020220885e-01 -1.416207710034725065e-01 -4.590453277266273169e-01
-3.425626311545812430e-02 -1.257206999370968081e-01 -3.427087235701274659e-02
7.700821409896249081e-01 -1.446653508103005747e-01 -5.110354117750001146e-01
-4.374259382191848511e-01 -1.275868454895180415e-01 4.958722402677503416e-01
-4.879143307289772191e-01 -1.157071570070809241e-01 2.518391907260031926e-01
7.770163240057659237e-01 -1.445072792019185537e-01 -5.233817271086641520e-01
6.044251734887264860e-01 -1.413166358737543704e-01 -3.986718546041094213e-01
-8.214243876462800076e-01 -1.044608830621369527e-01 3.626231705313092690e-01
2.092559632517413670e-01 -1.432975730325831143e-01 1.248418229330982149e-01
4.936724593213317330e-02 -1.163040080442099000e-01 -3.756271918663236509e-01
-6.252420978066332014e-01 -1.111708212548238456e-01 2.998774945334052311e-01
4.986411627863873708e-01 -1.473663461828666477e-01 -1.170879963660182849e-01
2.360902493797140400e-01 -1.345929308678215919e-01 -1.303290707432167295e-01
4.353101262255096859e-01 -1.259701961455509944e-01 -5.896295655013867876e-01
-2.531018173190491272e-01 -1.298092739277961205e-01 3.323141210022124148e-01
3.423127501719627069e-02 -1.344281965857161698e-01 1.069376215296928972e-01
-8.654007551311304787e-04 -1.150326338683395760e-01 -3.481135120816136741e-01
2.740053037279156084e-02 -1.247452798827825421e-01 -1.330287054317348672e-01
-6.645358099737317392e-01 -1.099161931602182923e-01 3.147338329505709464e-01
-1.222843832970966702e-02 -1.279045589295415564e-01 -4.658834886280568618e-03
2.004415128148986599e-04 -1.172197412476212175e-01 -2.933409593895988099e-01
-2.722790030047482213e-01 -1.245179736503450596e-01 2.196593343630308670e-01
-1.364520159890997009e-01 -1.154210846073316921e-01 -1.759537403065148109e-01
5.756799858608989684e-01 -1.526909025247033813e-01 -7.280209931876731322e-02
6.501891831258443943e-01 -1.380789832045187793e-01 -5.363896388152417094e-01
5.267288046154045000e-01 -1.494466049304279398e-01 -9.738034758886295050e-02
-3.974889747357911451e-01 -1.101309782208726579e-01 7.641199653232790554e-04
1.148387495876193425e-02 -1.310146364258727436e-01 4.667363920380840359e-02
5.437786948229502704e-01 -1.363780795021773684e-01 -4.526764845096019618e-01
4.011570127629359162e-01 -1.254911958930950699e-01 -5.610465028613860206e-01
-3.032176854790684106e-01 -1.228166834584312611e-01 2.130740387268903469e-01
-7.185712193445047413e-01 -9.974996182870643491e-02 1.188538584630169231e-01
1.381014948379711282e-01 -1.366856875506120006e-01 4.052676124834083543e-02
3.673743831083082223e-01 -1.482941755404915685e-01 6.372618409768728009e-02
6.776171113240778698e-01 -1.497645419156691804e-01 -2.697437026162277096e-01
-2.342541038651026752e-01 -1.254047054404663075e-01 1.968930541261747769e-01
-6.446413149328705794e-02 -1.244605717452346161e-01 -3.042507198720622447e-02
3.397878550621362126e-01 -1.280568374696866019e-01 -4.218811551578628416e-01
7.467013017645962591e-01 -1.536650570124898640e-01 -2.524345280848854234e-01
-7.383883489255040899e-01 -9.935416640801744692e-02 1.324187136051911684e-01
5.967324587900686428e-01 -1.487041915740704157e-01 -2.001525917792299769e-01
2.099899341567025846e-01 -1.425029682842003653e-01 1.036009152617875795e-01
3.788743723637496563e-01 -1.479044840547575346e-01 3.998211772110382006e-02
4.339864825796588277e-01 -1.283577445323109689e-01 -5.268618421484190240e-01
4.746290598276887707e-01 -1.336532755394408689e-01 -4.397781471300047373e-01
3.772448189085640946e-01 -1.305015363439822051e-01 -4.040429471255945204e-01
5.688291104470933890e-01 -1.515284172793668060e-01 -9.439653716021838281e-02
8.184959501510746804e-01 -1.556149791711406438e-01 -2.883545667448291216e-01
-7.147234428024936692e-01 -1.133622390290922599e-01 4.630840559173696191e-01
-5.454294127997453279e-01 -1.287072683550967989e-01 6.537915024099190120e-01
-2.658092928896386709e-01 -1.231995433874441964e-01 1.781328872364102422e-01
6.163964872880987045e-01 -1.448370116664533802e-01 -3.227789104674784748e-01
-3.068779317352481883e-01 -1.110098860966284295e-01 -8.511259452414821070e-02
6.217915798579252140e-01 -1.388982281595524393e-01 -4.814226930970488816e-01
-7.611071762144463460e-01 -1.138745088944200512e-01 5.317015362142003543e-01
-4.637723648107401897e-01 -1.251874710400125157e-01 4.659037582871362049e-01
6.809259042454995914e-01 -1.395848630904086007e-01 -5.345703910373995615e-01
-8.264449524520456336e-01 -9.965101536413117911e-02 2.453698874257593532e-01
-1.281972343209295262e-01 -1.318777766418014752e-01 2.358963147968719254e-01
2.155137142677376327e-01 -1.428748982203794371e-01 1.065239157589594754e-01
5.794857944995759347e-01 -1.376213589486689759e-01 -4.635329059718384936e-01
-6.886037294267220998e-01 -1.155707980658059048e-01 4.884338516995351820e-01
-6.274470210839243611e-01 -1.025398798173930703e-01 8.133551482438255986e-02
4.669879313316995795e-01 -1.272929843901970393e-01 -5.936281325509772389e-01
-1.271571327736100987e-01 -1.152651644273468834e-01 -1.910690787759239118e-01
-6.264974588810311440e-01 -1.260337627783099657e-01 6.822626833625025089e-01
4.070993149381116893e-01 -1.442561031547840433e-01 -8.727878041746167659e-02
1.744769822973572249e-01 -1.224450122496957838e-01 -3.679269605359799522e-01
4.429861506713118069e-01 -1.388633805828009549e-01 -2.684069271297763182e-01
2.668284748083223357e-01 -1.416744776136359407e-01 1.437252983608406851e-02
6.971855217145810080e-02 -1.264866657579784559e-01 -1.390292511566637301e-01
5.315799708159041348e-01 -1.394233893831449411e-01 -3.600426230889906543e-01
-1.223943646680881181e-01 -1.220839759489028842e-01 -2.202543200643354918e-02
1.021421564168144835e-01 -1.187224805428843399e-01 -3.767862601124646327e-01
-4.534620267755091749e-01 -1.210337570347902458e-01 3.471246294117278364e-01
-5.667146314120216632e-02 -1.267720049000151672e-01 1.948605333518991720e-02
3.585212377027741093e-01 -1.333991442483551948e-01 -3.073883254498788187e-01
2.166041912627431065e-02 -1.327071348570499909e-01 7.787182674498217827e-02
1.721168068378904903e-01 -1.183952973352196958e-01 -4.688829613025945475e-01
2.073972257617364978e-01 -1.363369292399098098e-01 -5.131062570407950163e-02
-4.593050942330064168e-01 -1.236900883955995845e-01 4.221869711140093240e-01
3.219700588078504566e-01 -1.280104232950288190e-01 -4.017547692583796626e-01
2.380303093752706156e-01 -1.220860103512329681e-01 -4.531570922426934600e-01
-6.264725172898003569e-01 -1.024171493843637759e-01 7.702455836381311149e-02
-4.650485431065024544e-01 -1.155343400663629005e-01 2.200556844467732032e-01
-9.656084028993042745e-01 -9.448835216213152810e-02 2.795537541158535921e-01
4.189384935241411423e-01 -1.343224879647718917e-01 -3.560048328111683480e-01
-7.306323277641489922e-01 -1.054850683141945605e-01 2.802528347638308381e-01
5.276322793854720805e-01 -1.293995059791080704e-01 -6.121957505869496385e-01
-3.003784925600317540e-02 -1.155045582311820945e-01 -3.011201714842657307e-01
-4.785300570136397091e-01 -1.082455652720917677e-01 4.939900395552730694e-02
6.257285135826985700e-02 -1.356387581495730466e-01 1.040542932919516772e-01
-5.572588672365111906e-01 -1.220610922339161603e-01 4.976259047957847237e-01
9.657313248391564964e-02 -1.409891287953733141e-01 2.004896514845935229e-01
5.184977198508006202e-01 -1.272763325010534963e-01 -6.556771287708843543e-01
-6.087383674114826837e-01 -1.269872183523716169e-01 6.854507139804377758e-01
3.806469841404504506e-01 -1.338219923809212120e-01 -3.230217655746076555e-01
6.422362855086455324e-01 -1.374222880685310177e-01 -5.437041347124951240e-01
4.031126745814594958e-01 -1.315174900555681758e-01 -4.089540046781279248e-01
1.732503858025718213e-01 -1.389313671034764497e-01 5.602602197304978188e-02
-3.051407353633177610e-01 -1.322466433993493840e-01 4.570303526136988426e-01
8.097990276870242754e-02 -1.408284274716771201e-01 2.150259747539524646e-01
-7.668242185515167231e-01 -9.706670818746024332e-02 1.078178850010678008e-01
6.899932985007622976e-02 -1.317879443058523059e-01 -2.316256468851051343e-03
4.000951364802362020e-01 -1.497628795292377801e-01 6.221920775995957997e-02
-1.483907224051054241e-01 -1.305611246166377415e-01 2.263131953144980058e-01
-7.359626864352928344e-01 -1.070609632813074724e-01 3.270141393404695784e-01
8.491548269369697532e-01 -1.615445326509522550e-01 -1.730794557802795008e-01
-8.469013944027724283e-02 -1.249904081613350815e-01 7.349525459306350747e-03
-4.814499519180274745e-01 -1.037336737515343194e-01 -6.273130529081598350e-02
6.693240161367520757e-01 -1.518643049271065082e-01 -2.060131715025710908e-01
4.586644754553285963e-02 -1.404826945984412045e-01 2.481730752861881495e-01
-5.711109740284132236e-02 -1.302594712152697898e-01 1.093831310015669078e-01
7.157893137496694480e-02 -1.235586349400675243e-01 -2.162896904622741145e-01
7.831011879399806253e-01 -1.532005264976007697e-01 -3.078847303705067873e-01
-3.915432207141957277e-01 -1.318556817525061153e-01 5.503765740312167587e-01
8.995895281496182894e-02 -1.416803522767193235e-01 2.261158919175501880e-01
-6.646341914703512987e-02 -1.333350530227207231e-01 1.993875399977859675e-01
-2.198470138503788585e-01 -1.220668084409664844e-01 9.411932851601303995e-02
1.861477544420242491e-01 -1.270948297732628907e-01 -2.627309700334543585e-01
2.994378986398965048e-01 -1.406135455877857154e-01 -5.182667195853706693e-02
-6.726834181840329885e-01 -1.093260049934050293e-01 3.093566063282851553e-01
-8.918186261243342683e-01 -1.034351596605777995e-01 4.205517363499341466e-01
5.025695120024256113e-01 -1.323565181183292694e-01 -5.064351086159941673e-01
5.345654703658834217e-01 -1.290796580047288422e-01 -6.286866216041563371e-01
-8.499049541367957872e-01 -1.068539783466227050e-01 4.580214520571104231e-01
-6.478416427496864749e-01 -9.983031524820616676e-02 3.629771093039473040e-02
-3.232667613515400329e-01 -1.197152863479492291e-01 1.575816017341279129e-01
8.732477192536848565e-02 -1.350489903212363230e-01 5.932942408423062808e-02
8.130600121046949180e-01 -1.552604792634532382e-01 -2.909359860774080042e-01
-6.828533240041516628e-01 -1.101431120668477648e-01 3.424625791299740207e-01
-7.312419225872452966e-01 -1.047979120487063237e-01 2.633727792407300483e-01
7.589647491939049972e-02 -1.274888462913870146e-01 -1.207377748699933057e-01
-4.505022860389966410e-02 -1.194985557987431890e-01 -1.808088433622679347e-01
2.036113054336124994e-01 -1.214359976378987377e-01 -4.286383692457321204e-01
-6.536916416842514232e-01 -1.033637834210995587e-01 1.338461853377158062e-01
-3.817877390771332591e-01 -1.161517729653549907e-01 1.362715621619981499e-01
-5.554425330254211257e-01 -1.183560732413411060e-01 4.005067639770921728e-01
-2.863447865014216998e-01 -1.260139569346461208e-01 2.748231685871817542e-01
5.919252756764002976e-01 -1.462906791330557399e-01 -2.562512398285547999e-01
7.088753559380274183e-01 -1.396177376349860277e-01 -5.671644660833873308e-01
6.134298937051902989e-01 -1.316437565750471494e-01 -6.573252666633123686e-01
-2.150762444251714534e-01 -1.127331039107196120e-01 -1.507770959061463800e-01
-8.391479052418495677e-01 -1.058547071489925051e-01 4.195448604618298161e-01
6.517878108260827252e-01 -1.530378293590976269e-01 -1.549610497511156593e-01
-2.175816998947441849e-01 -1.170332543701581157e-01 -3.758247993710128743e-02
1.569214420169525726e-01 -1.365974299861490715e-01 1.575033159465118876e-02
-6.398190126995606519e-01 -9.966056926480008904e-02 2.235009102486732596e-02
7.766576412427556031e-01 -1.474802564569614727e-01 -4.467659851391330705e-01
-1.344146129889125241e-01 -1.197800651399237304e-01 -6.668624194155117757e-02
-7.852591514356241920e-01 -9.818067712621236787e-02 1.584189822464315001e-01
3.163553638510833710e-01 -1.316904179130435615e-01 -3.007328518395919192e-01
-3.892135573677328320e-01 -1.194595153418746003e-01 2.299206883592156414e-01
8.186629699788632308e-01 -1.499350506795633642e-01 -4.341103766916997175e-01
-7.972471918604707719e-01 -1.067913898218549179e-01 3.934219204877647535e-01
-3.734361734732835059e-01 -1.270027642406492963e-01 4.043520200348030835e-01
-6.678329582196251835e-01 -1.164182818119269963e-01 4.853032707982164462e-01
4.137276569633649426e-01 -1.312717492521725537e-01 -4.279503835339459883e-01
2.550646860251923886e-01 -1.377102893963160768e-01 -7.314198636661892183e-02
2.418585614705458242e-01 -1.225501058331422283e-01 -4.458438258784688801e-01
3.914760322312882956e-01 -1.249928722525831398e-01 -5.622351680017407816e-01
6.869051640988776963e-01 -1.337709449553074748e-01 -6.907131782120784491e-01
-6.132146852486375366e-01 -1.208454298935219134e-01 5.334140302240382159e-01
2.348163564336029283e-02 -1.244233094996677474e-01 -1.365913824069296401e-01
2.599577733798680845e-01 -1.386710897685970445e-01 -5.437385754125206166e-02
1.048224221328212941e-01 -1.237308030251674656e-01 -2.516475493107918071e-01
-7.284669002125592208e-01 -1.108028324102509204e-01 4.139373256319632821e-01
-5.413620727609940175e-01 -1.093579168354619352e-01 1.530718394675797955e-01
-2.545256504104193018e-01 -1.082271590517617788e-01 -2.190539734557142570e-01
2.330754812788169428e-01 -1.304752152646005414e-01 -2.322445796705768506e-01
-8.015306895982300395e-01 -1.036539367646934495e-01 3.181447997095840918e-01
5.046321333092376737e-02 -1.310453893881185772e-01 8.299048652286008035e-04
6.738614908733764342e-01 -1.386147348921618061e-01 -5.509799542208760892e-01
4.104884758419964363e-01 -1.417067074352701406e-01 -1.566650876184297325e-01
-7.876215525375065418e-01 -9.978461771685671888e-02 2.023483630861758198e-01
-6.301173595971082397e-01 -1.057497911785257177e-01 1.667885035329851606e-01
-6.359789032627065630e-01 -1.100179508678524737e-01 2.831782724393585582e-01
2.031244418561996834e-01 -1.375239964225452582e-01 -1.577876877287349988e-02
1.237164252613199983e-01 -1.296438284580466727e-01 -1.227214207825572390e-01
5.141265072586729268e-01 -1.406358830055650377e-01 -3.080908478325255495e-01
4.278005152185133109e-01 -1.280221300595704714e-01 -5.280620199550727367e-01
-1.477226322560601657e-01 -1.277120511886700449e-01 1.525025090690380336e-01
6.774604971383447749e-01 -1.322545797625497843e-01 -7.182732690754082272e-01
3.176137122296845278e-02 -1.276729811806336379e-01 -6.321928997512303583e-02
5.661766541112055462e-01 -1.502434881276553669e-01 -1.241514280605448411e-01
-5.764088954539404730e-01 -1.032823772186102634e-01 3.930502654419802677e-02
5.180200435772756018e-01 -1.422463248372338729e-01 -2.714789763020849511e-01
-3.328646281699653153e-01 -1.337724699570590481e-01 5.292984519911999586e-01
-5.461834883994053369e-01 -1.261819320064258843e-01 5.899783927657442639e-01
5.843713400310829309e-01 -1.311130586266910925e-01 -6.361617602945610628e-01
3.696692489559363359e-01 -1.403910864317992890e-01 -1.415467705131801257e-01
-3.779882794093612774e-02 -1.219015303319770649e-01 -1.279043137907449612e-01
-7.740774373621536752e-02 -1.397180864432888692e-01 3.760545050053590854e-01
4.200497353868086203e-01 -1.282144455288528329e-01 -5.138612461164404621e-01
-8.368447557797026662e-03 -1.393716020555408885e-01 2.845821688693412899e-01
-4.761713999305432488e-01 -1.277365547134629020e-01 5.460607753120038099e-01
5.168849643200644772e-01 -1.509278674951989585e-01 -4.764455361958090662e-02
-1.215337502637614253e-01 -1.136446701016591010e-01 -2.393238541457153867e-01
1.966060369002106956e-01 -1.446253180616418610e-01 1.740004994820558426e-01
2.465427302128751219e-01 -1.225522409644481392e-01 -4.513928820732061586e-01
2.172929356006229051e-01 -1.276404817193252106e-01 -2.860075369565907577e-01
-2.693726638171815013e-01 -1.345053058628411236e-01 4.721215792717171067e-01
7.339839022752049358e-01 -1.575921259846702061e-01 -1.365838713149382655e-01
-3.632875529956248184e-01 -1.178297272184118533e-01 1.571392831188537509e-01
3.362420445246126488e-01 -1.408517599034979362e-01 -8.975169342673101902e-02
-6.966030166508921928e-01 -1.106899844847386571e-01 3.729259922393034499e-01
1.452517641062381626e-01 -1.298606809229748138e-01 -1.429274666599864019e-01
3.938593617719958473e-02 -1.340018285875061166e-01 8.984472150640775145e-02
5.751260608272247277e-01 -1.421243801530672202e-01 -3.429211344715433207e-01
4.317594337085023382e-01 -1.513810774340611787e-01 6.580708040375470025e-02
3.803322926208930199e-01 -1.473578103260463068e-01 2.422870814864870256e-02
-1.997614221804128731e-01 -1.294957281069797350e-01 2.604668142528483998e-01
-9.301257201965848487e-02 -1.129396219235359600e-01 -2.915121853754865100e-01
2.852180605475947428e-01 -1.406627391137748595e-01 -3.355452166594177776e-02
-1.411148538657301943e-01 -1.357549692119544849e-01 3.507083475439650155e-01
-5.939361268991841802e-01 -1.090575637069843007e-01 2.082703488086804500e-01
-5.393316255098163925e-01 -1.264069747434027613e-01 5.875483922068650555e-01
5.147745800348019207e-01 -1.335378676490784067e-01 -4.907625833082384093e-01
-2.398734779869873268e-01 -1.210184565577011179e-01 9.121195582736775498e-02
2.234775394691456973e-01 -1.443530286348937430e-01 1.348757505689776315e-01
4.438038206135803132e-01 -1.467508472416475251e-01 -6.725791289373569959e-02
5.718358221168775568e-01 -1.426819170282490057e-01 -3.246972997892573209e-01
5.864657042838363754e-01 -1.376848639826515341e-01 -4.702557181952916054e-01
7.084812389050376691e-01 -1.514164923560523401e-01 -2.643336145318129771e-01
4.203222592257660484e-01 -1.504490206674606867e-01 5.560437838581821363e-02
-4.371208534497827425e-01 -1.251573671141351651e-01 4.332485270378201303e-01
1.703115870136315962e-02 -1.314895973615342606e-01 5.220883324787966434e-02
-8.719030629316594228e-01 -1.002071859458921049e-01 3.140050414875341644e-01
1.843710733778675115e-01 -1.458974730489812632e-01 2.212381755868444710e-01
-5.004486182857551535e-01 -1.072584130420915494e-01 5.032351330434415432e-02
-3.836349486716918444e-01 -1.193375426288309643e-01 2.201211597347173254e-01
-8.779075539430837571e-02 -1.347561812853165786e-01 2.613202628998755328e-01
-5.978597643518136773e-02 -1.210619732555908573e-01 -1.231154227187216676e-01
8.030510194786653067e-01 -1.547783546031337998e-01 -2.913171220830695907e-01
5.943637740928100488e-01 -1.484349491362602080e-01 -2.042185920662789311e-01
2.463641231568603762e-01 -1.227167446792730016e-01 -4.469635760560121129e-01
4.308390698763183146e-01 -1.242100669098790688e-01 -6.293864835446647543e-01
8.920992683904165055e-02 -1.317908432481080250e-01 -2.642033922519631747e-02
1.524295716135122200e-02 -1.225098321214971447e-01 -1.757707706332263253e-01
8.793347930566912662e-01 -1.589761428948735233e-01 -2.750029282322463686e-01
5.430108302187256486e-01 -1.413385869435891118e-01 -3.246380275572487428e-01
1.377308315814264050e-01 -1.407688751632023283e-01 1.456075071937859566e-01
-5.663584393623275481e-01 -1.035790520282056648e-01 3.488415074320008746e-02
7.660921257834275577e-01 -1.448992492921645225e-01 -5.002680995541898268e-01
-6.413026251154564372e-01 -1.244182618658192380e-01 6.585749836171506111e-01
-8.066456384961840920e-01 -1.073723901994677737e-01 4.195544203790026461e-01
-8.070389979755061838e-02 -1.349213583975689135e-01 2.570749963163317386e-01
-6.207202601714401080e-01 -1.191090313255433325e-01 4.978955031446879453e-01
2.706054278958914261e-01 -1.370609815234355433e-01 -1.083731200077188844e-01
2.301728409502721562e-01 -1.208313102979150511e-01 -4.759104528248500610e-01
-6.504790805159987865e-01 -1.084386140204584015e-01 2.600524618522659925e-01
4.754246735390263434e-01 -1.455927685988992193e-01 -1.347639820659493615e-01
-7.894948122055063244e-01 -1.101388260948746034e-01 4.699302526561115467e-01
-1.372686898825055957e-01 -1.284710728445078443e-01 1.594472094819815444e-01
2.029820636020188140e-01 -1.215476679993350018e-01 -4.250238866886717481e-01
-6.472229251428887054e-01 -1.223405412918868729e-01 6.124131109577600762e-01
6.847973620997243049e-01 -1.348698794450620131e-01 -6.600298575250533872e-01
3.881714287354511295e-01 -1.269510085606128658e-01 -5.081018564465817899e-01
-5.895081212623790590e-01 -1.160059144921130603e-01 3.810341013951020206e-01
6.197673077016765397e-01 -1.559963001158028995e-01 -4.083933968415481147e-02
-7.295482217690932858e-01 -1.076685400387440289e-01 3.349103694997522251e-01
-7.011770542612612289e-02 -1.393197687590507772e-01 3.571258353184019740e-01
9.028051561247567580e-01 -1.602538245121092886e-01 -2.703386752633573087e-01
-2.884093871204408410e-01 -1.089064502181788380e-01 -1.611103570657379802e-01
-3.015273475430912953e-01 -1.298141564263447234e-01 3.903717457798379087e-01
6.122754154387467507e-01 -1.393168740641828607e-01 -4.593099221539091448e-01
-6.894465398511120391e-01 -1.150906570684701036e-01 4.771378487514316147e-01
5.479507571103920949e-01 -1.298080974088481609e-01 -6.260324639253491696e-01
-6.279695728283514189e-01 -1.054362994755315280e-01 1.561854027853239457e-01
5.285477273422491962e-01 -1.385409009564889937e-01 -3.790300678950725977e-01
1.986675223627833720e-01 -1.201492590455021520e-01 -4.556984660720941327e-01
7.669062577231983147e-01 -1.476942674653288490e-01 -4.296158679434196048e-01
-2.038935200934731684e-01 -1.240558074287263501e-01 1.260046625852500046e-01
-8.692545671704122734e-01 -1.024921022004937204e-01 3.693907190576409261e-01
2.160906061345116425e-01 -1.279616209032488350e-01 -2.763395298830574887e-01
-2.718121223354890148e-01 -1.298144584432996962e-01 3.548305219352271278e-01
5.144130879588021399e-01 -1.484702335297967135e-01 -1.076676543056289681e-01
-2.352002287138520165e-02 -1.330489676006390842e-01 1.406820973389368568e-01
-3.153104065632301167e-01 -1.176080164720755827e-01 9.406154665356278310e-02
5.750800718908494202e-01 -1.429418007778444633e-01 -3.219185861390041481e-01
-4.515574198252145788e-01 -1.253530242410829110e-01 4.555332857959131787e-01
-1.456963756365231288e-01 -1.381962660250506958e-01 4.187509181606254849e-01
1.516892550941728313e-01 -1.303123368670782434e-01 -1.390544692500559343e-01
-5.300610827521199386e-01 -1.262429963451176806e-01 5.722556697942936532e-01
4.946002550737008119e-01 -1.283490743920814581e-01 -5.995975870098817495e-01
-6.371585347707442448e-01 -1.168446253004799679e-01 4.595324376982007353e-01
2.113864832378793135e-01 -1.270856544212680406e-01 -2.931597355268956151e-01
-6.368181924224336488e-02 -1.329604651106431334e-01 1.864605203417738777e-01
-4.925943395057201246e-01 -1.112384356536949698e-01 1.429208386540679054e-01
-2.172760626131259309e-01 -1.266957399262724493e-01 2.096663970825671519e-01
-2.703232734444842300e-02 -1.180825614517084232e-01 -2.386508542967101798e-01
-8.262413207489448519e-01 -1.036560897246001645e-01 3.477618321429249426e-01
7.340671149093173087e-01 -1.392907390146503888e-01 -6.056817001119215726e-01
-4.981731619615701878e-01 -1.307554477198347720e-01 6.497452532593958052e-01
-1.805822140211031102e-01 -2.870196185709722458e-02 -2.595757981190938701e-01
3.393691974016210811e-02 1.217847751467929507e-01 -3.797522559501251838e-01
5.095486813219733957e-01 -7.117993414688988940e-02 -6.816800142399203066e-01
-1.408113265495959665e-01 6.519042064496569089e-02 -2.774092814501880611e-01
1.610625604529413168e-01 1.293610695433394797e-01 -4.564682722462098940e-01
3.420045225123551774e-02 1.265742310002321014e-01 -3.795896264940826770e-01
-7.942190715341601592e-01 1.491425698520001675e-01 1.251808795036892241e-01
-7.854039539873266529e-01 6.427276692812251835e-02 1.141072018979740338e-01
-5.813351595546897288e-01 8.071970011380835003e-03 -1.364777853039348364e-02
-6.282668902947590173e-01 3.415435373635216515e-02 1.661986555133917326e-02
-7.804426645784673378e-01 -3.994574396410915246e-02 1.040709101355188626e-01
-3.246946254213526895e-01 7.017932714498253954e-02 -1.653673565091287601e-01
-1.125854265537768462e-01 -7.400961612334268358e-02 -3.039355090216124822e-01
-8.905365639474646100e-01 -7.015316715464821329e-02 1.689155336632421622e-01
-2.381746953144187884e-01 5.225125711850922561e-02 -2.191346630311792887e-01
-2.023498015302934716e-01 -6.171581887241121833e-02 -2.485769068501047785e-01
-7.150277004963557781e-01 4.143808879234667925e-02 6.981627120774200335e-02
7.257923588694284445e-02 5.008373638876005562e-02 -4.080580841336404196e-01
1.156505430329234918e-01 1.680841217178987226e-03 -4.374845802982841869e-01
-9.635496833050043453e-01 2.979374931571308546e-02 2.200042499924025063e-01
-7.507987367949315871e-01 -3.284318856694989734e-03 8.853306374622324504e-02
-8.455041182781769526e-01 -3.127481470952293147e-02 1.441788219603606369e-01
-2.302670051605614221e-01 2.961508864519120030e-02 -2.254636999634091754e-01
-8.347508634471357825e-01 6.902378862672911564e-02 1.444046842410055265e-01
-9.830768619703721123e-02 3.622098657968635116e-02 -3.051814747830344232e-01
2.805221343857362479e-02 -4.528758401899921071e-02 -3.874349882087199659e-01
2.680446916260472157e-01 7.850101410943929880e-02 -5.248850005910371541e-01
3.759789699252481521e-01 3.433793507960433006e-02 -5.934288887774430421e-01
-1.000000000000000000e+00 -2.831250652551639199e-02 2.382318694053617569e-01
-6.785751508282725775e-01 1.261525199762064953e-01 5.338019380175559880e-02
-7.991742508693873148e-01 8.248266517344261806e-02 1.236994172778649037e-01
-6.789168979534289106e-01 7.642355911030185300e-03 4.560240755397603624e-02
-3.750581268606416607e-01 -5.022120034544046152e-02 -1.428852108436735602e-01
-5.539336412295427919e-02 -7.774285165763697610e-03 -3.342156131338577252e-01
6.534791518265861132e-01 1.098892651494268874e-01 -7.569144490654031721e-01
3.710788934529681005e-02 -5.855290848048054497e-02 -3.938299842089689751e-01
1.214964311742277592e-01 5.730736955625997768e-03 -4.407629631818501537e-01
3.115606468152827269e-01 -8.798343870441296954e-02 -5.625381236490314407e-01
-2.142616103884662782e-01 1.005781231004543308e-01 -2.304050916627512213e-01
5.903868485508982911e-01 4.291914419157035615e-02 -7.230995670254036778e-01
1.604383904096842173e-01 -2.240713945992406711e-02 -4.663154683180935067e-01
-8.268573976880224663e-01 8.694069921981295579e-02 1.408168152570034581e-01
-5.515276592711365611e-01 2.495406195345648004e-02 -3.061775318070433446e-02
8.578957413345958405e-02 8.008488456257500943e-02 -4.140616026741466560e-01
-4.546110117744125989e-01 -3.838649783990338848e-02 -9.376083794613340738e-02
-6.116814385325171355e-02 1.330239450435926341e-01 -3.212203447860508820e-01
-6.207209157765348762e-01 -1.429048041964919163e-02 8.771537953966363627e-03
2.777542476773156577e-01 3.336465586051598486e-02 -5.338247346461173493e-01
-3.322325761400509725e-01 1.790424170798683885e-03 -1.653963345003500174e-01
-4.673546751373956476e-01 -9.702963694338395673e-02 -8.997075594514936103e-02
4.349491061651719059e-01 7.843693059847460514e-02 -6.262807197036038831e-01
6.806521328405468023e-03 4.283574918719369740e-02 -3.685907345607040697e-01
-9.160272549978032419e-01 -3.809152552838628719e-02 1.865610267800207056e-01
-5.273079821927852961e-01 1.005437878157424900e-02 -4.633473005951023460e-02
-6.910679318355633649e-01 8.202772797917443071e-02 5.799613718597474571e-02
-6.225956034450085275e-01 -7.582120868466125756e-03 1.036239593193665799e-02
-8.418017546901831460e-01 -1.369509552078394810e-02 1.431142509812675656e-01
-1.891127866075182906e-01 9.525625452946982763e-02 -2.460411408737119277e-01
4.804071122316035947e-01 4.263672483740963554e-02 -6.563079041341647324e-01
5.109715940241734700e-01 6.010839418060297257e-02 -6.736980047017379070e-01
8.253458490408992210e-02 1.398283001210745558e-01 -4.080586554727304582e-01
-3.339327697946916640e-01 -4.350886454190456415e-02 -1.674158312923810232e-01
-4.736512017777118611e-01 -9.145469078081248926e-02 -8.577008216927964335e-02
-5.410241966741169417e-01 -6.127273276322603435e-02 -4.280850587505888316e-02
-8.528261537880589271e-01 1.204520385971796087e-01 1.588504070047924710e-01
4.697100424134945662e-01 -1.071535319778669365e-01 -6.599027191379635005e-01
2.947739031795908460e-01 -1.472648548950532439e-02 -5.474043190636157519e-01
5.292376543684620405e-01 -1.252545128498285809e-01 -6.972843335177119073e-01
4.747783607266986006e-01 -1.135326103007996829e-01 -6.634114622807693040e-01
-8.425260071372034920e-01 1.054662389753276280e-01 1.515834894458108484e-01
-5.311662225542040927e-01 -1.226595422328501800e-02 -4.549489639295255933e-02
5.697716623311264161e-01 -2.445970023047177103e-02 -7.151163026648339471e-01
-5.440125782457481129e-01 -4.684265415584965703e-02 -4.002079813968052735e-02
1.293616170337761294e-02 1.022376439140185306e-01 -3.683117916139849179e-01
5.928283310597221023e-01 2.668629391810089721e-02 -7.256765169518617498e-01
-4.081659949585732527e-01 5.117513406659363745e-02 -1.159405460880167382e-01
5.588103964367939769e-01 8.199166925922084237e-02 -7.012846808000660070e-01
-2.007680162703314730e-01 -3.309628232767989481e-02 -2.476093856603531485e-01
-1.415040687137295722e-02 9.866319784257564229e-02 -3.520980445627081568e-01
-5.176953803269096488e-01 -4.713039792963043956e-02 -5.602740659421014818e-02
-9.884345971231973671e-01 9.837230208792394071e-02 2.397423083195930893e-01
-4.223179446782454605e-02 -8.315509543055842057e-02 -3.472902990067380236e-01
4.250975824620156773e-01 -4.180601303830449450e-02 -6.283982466343235318e-01
-6.033580813560710521e-01 1.455496759072689439e-01 8.994199205501788794e-03
5.369282049083695663e-01 1.052874332592418360e-01 -6.864219435118558144e-01
-2.060201007329508782e-01 6.110598508773997656e-02 -2.380713505916590700e-01
-8.340501530933962515e-01 6.624061085982935713e-03 1.397744288152743819e-01
-7.308257588879532030e-01 -9.422709348106267369e-02 7.027198270246025336e-02
3.315206607930911709e-01 1.891701960285840228e-02 -5.674603575436155678e-01
-5.364829338078963561e-02 9.157169113398119786e-02 -3.285816320248938216e-01
