5.006769421563934674e-01 -5.159371761793967170e-01 9.961734289515996113e-03
1.718643534240064663e-01 6.367037823180877743e-01 -7.788287158172407798e-02
1.364322858182501208e-01 -4.647698610311653544e-01 4.832774628035073627e-01
9.608399658052563241e-02 8.007784090579803671e-01 -5.084094249030232660e-02
-3.743578534325379265e-02 9.670935582481078319e-01 5.396319955767436144e-02
-6.889977535306898715e-02 -1.302499167540935587e-01 6.077848894960070636e-01
5.440420745641570965e-01 1.520836587807253282e-01 -3.602280923955482606e-01
-6.289289815128658312e-02 9.126550387823822996e-01 1.140525362155107719e-01
5.695679855130481029e-01 -7.121558921139810316e-02 -2.911079799569553095e-01
1.237036663489178012e-01 -3.441037416832564699e-01 4.444728317420315600e-01
5.656828386391558883e-02 6.381839176646063316e-02 3.461902911478018097e-01
7.266814630926975507e-03 8.071078877890254244e-01 6.743390999811431363e-02
2.228048057351507960e-01 -3.072569308457938075e-01 2.920608665795035863e-01
3.019405347599994349e-01 -4.304507899931897530e-01 2.414069640814230366e-01
6.190023047938931766e-01 -2.584123322501611919e-01 -2.714269655481452714e-01
4.821623823639742401e-01 -2.932734492261669379e-01 -6.843190618386332802e-02
1.878207681728241152e-01 1.252653932053200136e-01 1.384439125383643276e-01
1.557584481631668905e-01 5.344363036970487535e-01 -8.289266896551785932e-03
2.040469637885414939e-02 -2.698148762652533006e-01 5.508739543164115071e-01
2.289037876354683976e-01 3.015796318283592847e-01 2.872994065278323137e-04
-2.529762273212922130e-01 1.019780223491533466e-01 7.509047001272680655e-01
3.584484349068289277e-01 5.626890875838640449e-01 -2.980828225774095896e-01
6.138787886042862407e-01 -2.567994469911655808e-01 -2.651850585805337612e-01
-2.383726874316507149e-01 9.610570428960878153e-02 7.337070573198855028e-01
1.986661402122804065e-01 -3.125113771247421401e-01 3.274526350163573518e-01
1.421670258169432099e-01 6.281571075944152316e-01 -3.337166953827561122e-02
4.148550505347488593e-01 -4.622911871052077237e-01 1.021198502657558876e-01
5.287740214865290778e-01 -5.030397288841835790e-01 -3.439092028113274746e-02
6.932865156732780088e-02 -3.527487798522980778e-01 5.227110213610833833e-01
3.311837066565366250e-01 4.982187785107948796e-01 -2.308559817655106983e-01
7.905139423618136318e-02 4.777976214216872464e-02 3.229712827116466012e-01
2.357102998306152830e-02 -9.034732396384186071e-02 4.629996489350484690e-01
3.050406143326168107e-01 -4.452130642693648555e-01 2.440485503124660005e-01
4.245918597728320365e-01 -7.753640465892865929e-01 2.345845463002919629e-01
1.968112341368599416e-01 -5.409011508098038323e-01 4.363132322333784785e-01
5.815667894186843379e-01 -3.254022521812923174e-01 -1.891455590398548048e-01
4.440853172387675407e-01 -4.290508117445304692e-01 4.674973620839404514e-02
-2.527991947321751587e-01 -8.994543312916983280e-02 8.400147913758605478e-01
-1.842471986884500201e-02 7.416155132510542369e-01 1.329894186276171231e-01
2.063637152820951837e-01 -3.370290956074991628e-01 3.283610929688118296e-01
-1.005725503702822876e-01 4.826374992881989345e-01 3.656779668971557595e-01
3.446696422744630062e-01 -5.784126397544384623e-01 2.519733846261147936e-01
4.767829171157854096e-01 3.383813675337947191e-01 -3.551624295593302505e-01
2.630011316305164160e-01 -1.080248530049360139e-01 1.444448430246723092e-01
-8.874419754448022168e-02 7.119679072777757023e-01 2.427672497312689248e-01
-6.004884100889090054e-02 -1.948947415054592680e-01 6.258007318295252253e-01
-6.565201476051758800e-02 -2.636530144097055661e-01 6.654592303117410346e-01
3.754545723270001911e-01 1.816446164079011105e-01 -1.438948225420735583e-01
-3.042185593000183985e-01 8.229222422060286646e-02 8.300073927607141133e-01
-8.529800172956905624e-02 2.825077847436681666e-01 4.380028024293243782e-01
-6.555394906409271749e-02 -2.842217438511050465e-01 6.749013453054342193e-01
3.168335258480722838e-01 1.559722600686321015e-01 -5.193423889211038619e-02
-1.064721628981167706e-01 5.029059911386275505e-01 3.642938367040163272e-01
-1.239754155952579179e-01 -9.837608164853690884e-02 6.681153930004837260e-01
9.270823471739124411e-02 4.664826477186387321e-01 1.094008829966114649e-01
4.361208381533351330e-01 -6.661850642320140681e-01 1.680200193343715509e-01
1.964490723924178228e-01 3.244171226957958676e-01 3.395072125430451115e-02
-4.729935935628928195e-02 -3.131466117483645006e-01 6.634529136004736483e-01
5.590475533476275682e-01 -9.445080419676742112e-02 -2.659318651002807177e-01
-8.062262351814902805e-02 4.574802575198313459e-01 3.501616117746047530e-01
6.557070961968594069e-01 1.395833778787329083e-03 -4.424793388605431921e-01
1.010165847013993479e-01 -8.777812778940348448e-02 3.561024346142587227e-01
3.907182079866435287e-01 1.260759535257687802e-01 -1.388568070435497459e-01
-1.735907785089274846e-01 5.270829825853001055e-02 6.654939145489647823e-01
2.217661632462224752e-01 -4.499554956045832554e-01 3.599130683667467467e-01
-2.722877801708684098e-01 2.282610281385041504e-02 8.141118546146932644e-01
5.493403537856130781e-01 -3.684958982692969620e-01 -1.250988618095807137e-01
8.111628626361160055e-02 6.695413692848961595e-01 3.068624674744171651e-02
6.028592665765999392e-01 1.519382187922982408e-01 -4.404366738223590705e-01
8.645277048457995772e-02 8.358173836563589365e-01 -5.400853505098601043e-02
-5.222189071601037597e-02 5.883999930433626152e-02 4.969896454839204947e-01
2.807001685216799491e-01 -4.196044310938664146e-01 2.653471295650630668e-01
1.249771128999932202e-01 -2.584041110113666218e-01 4.028365320601230981e-01
2.957995379526217050e-01 -1.941346908707211605e-01 1.397693540208127805e-01
-1.656562811881259409e-02 -3.078672998960425566e-01 6.190483328181171085e-01
2.470063281693805901e-01 4.104291633517412885e-01 -7.509573566693331093e-02
5.188397514140715705e-01 -5.821488736341196013e-01 1.599779176530911548e-02
-1.422570006806984644e-01 -1.922589172408464553e-01 7.367749143209393337e-01
6.340333601551671749e-02 7.504889961747527316e-01 1.717575570341056332e-02
-1.674213337435235815e-01 6.724840260733848385e-02 6.503043067619707074e-01
-8.733292363546800441e-02 4.658462045198096813e-01 3.554252818709560668e-01
-1.861274588441521882e-01 2.965589415598516299e-01 5.690776391738374684e-01
-4.250557117466897961e-02 -2.784687747597192620e-01 6.407655575799070524e-01
5.059813236098549272e-01 3.685703327836111209e-01 -4.090684476244990653e-01
-2.013884126164234289e-01 3.411548656591578688e-01 5.691444218192284188e-01
5.395458428078223623e-01 3.537690519692681113e-01 -4.479879095549437196e-01
-9.296215587009827586e-02 1.077958021966673313e-01 5.298019324157412502e-01
5.298502887428394592e-01 -3.933636784208330850e-01 -8.692054164198322053e-02
4.362071273050952547e-01 -5.930856949141801726e-01 1.338701707821530473e-01
5.824287934128199451e-01 -9.370110707060616551e-02 -2.981926389301809421e-01
-1.987706026383594948e-01 4.852594965289664941e-01 4.984822958527954095e-01
4.577930990239980624e-01 -6.583230722926379785e-01 1.347805418820725298e-01
-1.289730710349999976e-01 7.259957366688922775e-01 2.911426030699520440e-01
3.469637068201705254e-01 -5.988823273092925836e-01 2.583721938867994949e-01
1.731003470147445544e-01 -1.940086380043583580e-01 3.071759250259394336e-01
2.469702693962438911e-01 4.789424449254249261e-01 -1.069435034579571814e-01
-2.856008971468151914e-01 -7.137140920217124873e-02 8.761366924613681606e-01
3.331491250068085441e-01 2.649423155742502423e-01 -1.249344887672365068e-01
4.266628740554736510e-01 -1.447548309202940087e-01 -6.182793033826800011e-02
2.374905691602237079e-01 -5.084226973357313106e-01 3.656716455093710350e-01
5.020131988601964634e-01 -2.276476388158898967e-01 -1.260778681046495486e-01
2.862046686131816675e-02 -7.416204961735754775e-02 4.485727533266615774e-01
2.875377797574534822e-01 2.647309878497390856e-01 -6.258373176344723954e-02
1.396106035188226790e-01 -3.418038804578688722e-02 2.784747031084996438e-01
3.016651774937352815e-01 2.605891758205692299e-01 -7.993716765113975664e-02
4.488162060440121781e-01 -8.198415707061132429e-02 -1.212872319059287024e-01
1.882979977008124584e-01 -5.325863910896047049e-01 4.440614598733180207e-01
5.772917344549878260e-01 4.274568717241814843e-03 -3.367948231907793022e-01
2.784726925310178625e-01 -2.334610866828604539e-02 8.390561492065448657e-02
1.803836996027235740e-01 -4.547117081470605782e-01 4.186079741629040174e-01
-8.472170685652716249e-02 3.371954232742998547e-01 4.117559215010052620e-01
-3.249166628411544466e-01 -5.375261273456957006e-02 9.215939886557358296e-01
4.770962409752486089e-01 -6.561064627106357738e-01 1.074028013871828058e-01
3.839386099949200770e-01 2.389505608001482595e-01 -1.821535150213802468e-01
-4.176879456606272419e-03 5.051403342245825989e-01 2.236365128340187247e-01
4.722101250591720922e-01 -6.528497877702172936e-01 1.125554127518616915e-01
4.312024905323116886e-01 7.426208423909717860e-02 -1.699891187981876772e-01
4.194514498651357726e-01 -4.284684085167354550e-01 8.009997946465964580e-02
6.431331218713775000e-01 5.747411264297158651e-02 -4.514255788891455845e-01
3.535818120439038897e-02 6.031974639538898453e-01 1.240259319704999363e-01
4.367527064411995397e-02 8.198707133007990810e-01 1.180019712532188840e-02
-5.745800247748347050e-02 4.892338769557534883e-01 3.037623306466881168e-01
4.673930704665219676e-02 8.560298608159623568e-02 3.494632949631122920e-01
-1.312419738914682721e-01 5.371222084738144220e-01 3.821710932344113965e-01
1.506786808905400711e-02 8.872953355839948708e-01 1.945469206873602294e-02
4.880338544659552080e-01 4.580934052173104010e-01 -4.262512337529406614e-01
-1.533556319249091970e-01 4.853730211923759641e-01 4.364450925645841362e-01
-1.893243203938448083e-01 -9.931591095128006197e-02 7.577440005188068595e-01
6.915126077580150410e-01 4.726402064202671338e-02 -5.127026291747608377e-01
3.800787399266481459e-01 3.460589914355726160e-01 -2.267507001090221797e-01
3.810533368395294662e-01 -4.276553728081342598e-01 1.321288979303271438e-01
4.928571028209172700e-01 -3.368858154232184376e-01 -6.272439697166448669e-02
5.285620152929477317e-02 2.236273290082873566e-01 2.768561979053331124e-01
1.089852559088657913e-01 -1.659338055804484569e-01 3.816125292234873179e-01
-5.595877574942724475e-02 6.693408368367843586e-01 2.178656840794155336e-01
-7.307332789148827945e-02 5.823016445689109810e-01 2.817462669797619612e-01
4.557686124776111902e-01 1.917384415810775289e-01 -2.582102316090896243e-01
4.397567501640657905e-01 1.180608171795110954e-02 -1.525873878892347324e-01
6.770880598104312975e-01 5.246750448173396336e-02 -4.954379005836300753e-01
5.648167263695625939e-01 -3.450127075398551901e-01 -1.571545096384996953e-01
3.646483048225523937e-01 -5.966655332041520543e-01 2.332034275027366488e-01
4.482615632133932770e-01 3.916108410324877775e-01 -3.410166967700594132e-01
2.028737154507027352e-01 2.669135560691009434e-01 5.195339494476694520e-02
6.136978780567090563e-01 -2.911544000629286422e-01 -2.489438825272277389e-01
3.969855404487654948e-01 2.454217103952679446e-01 -2.029732425762698078e-01
2.619796908724250639e-01 -2.580023319704924933e-01 2.156623319523447435e-01
-3.489628724829211409e-02 3.594956936047526419e-01 3.333699018809759274e-01
1.017383679608619834e-01 5.938297417260506306e-01 3.778855996367416065e-02
-2.331953507452148022e-01 3.751735423540000780e-01 5.967182260289147777e-01
7.336742836825604908e-02 -4.246881127946255385e-01 5.506907328449081040e-01
-1.464016904549000214e-03 6.627181449726198270e-01 1.465720932983348712e-01
5.163875848665070434e-01 -3.596599042019014147e-01 -8.423714999554465788e-02
8.852495349432545901e-02 7.947392292092767541e-01 -3.771243259999274705e-02
5.058123555787378267e-01 -7.377835704035817788e-01 1.062353058778579551e-01
1.912231325655964487e-01 -5.575750163835933026e-01 4.517027892195832894e-01
-1.593185680680922200e-01 2.693454904163427588e-01 5.451571552157802314e-01
-2.105616592025746636e-01 2.255453777351646705e-01 6.354875227994462028e-01
1.200450285389233727e-02 7.952015986537670500e-01 6.651078596790498121e-02
1.947300051466866952e-02 -4.544315231410151618e-02 4.476872737293168258e-01
4.344288782116115799e-01 -8.014195976472109351e-01 2.332889497459654793e-01
-2.033914889337829213e-01 3.399730378751382176e-01 5.724285192284371826e-01
7.371539675037822037e-02 -2.599550651903746040e-02 3.646008353466360652e-01
-1.254532913969637342e-01 4.213752597408972761e-02 6.047150728337200576e-01
-3.347282591426060244e-02 -8.237524632212597136e-04 4.991770998243604818e-01
-1.546637562903908913e-01 -9.685810959770022044e-02 7.092934853286343433e-01
4.356783116105426568e-01 -5.599492469119511373e-01 1.191649464764739097e-01
-1.259411525653358552e-02 9.404473799361605657e-01 3.246356594375095217e-02
4.203938254831715571e-01 6.549281905431075801e-02 -1.511543657302752697e-01
-2.955205876388236619e-01 1.639481504272283785e-01 7.801203578899940094e-01
3.906232948268221206e-01 3.732182089550172832e-01 -2.537865938631300722e-01
7.422526464702515758e-01 1.724308386474873445e-01 -6.402274195852780680e-01
3.402218801115997615e-01 2.351194135280347819e-01 -1.207033724886418524e-01
1.051882337227742943e-02 1.306417208161066712e-01 3.779304119707574405e-01
-1.930236294646045514e-02 -1.756676055243119317e-01 5.612367769088218994e-01
3.991851352847718415e-01 -2.156407923332790688e-01 8.676502000315946053e-03
4.413185366216332284e-01 -3.250580841208804417e-01 2.111198449601235910e-03
-3.720044637658405373e-02 7.081801299740211331e-01 1.741815038087340395e-01
3.334430844161677121e-01 -3.979379116281390183e-01 1.832742310963734189e-01
4.684839370207492526e-01 -3.663973167740650766e-02 -1.692411270938856960e-01
1.853851963414472059e-01 3.799459448641663295e-01 2.319923720803192257e-02
4.834261330429558412e-01 3.139806540124251422e-01 -3.528694085699130567e-01
4.448969836036535397e-01 -5.175309140399302343e-01 8.683465590636808840e-02
2.145530357607873806e-01 4.875718179960237264e-01 -6.671651948181168967e-02
3.869722375378429335e-01 -4.684175490470570136e-01 1.430277242437112128e-01
5.238744732262150539e-01 -5.143984847567765195e-01 -2.241562890049001930e-02
6.259113613606772653e-01 -2.477937253120409689e-01 -2.858003392293475553e-01
2.256769543019187529e-01 -2.766857238035205779e-01 2.739081278639360906e-01
4.175152304030224637e-01 6.799315517616980054e-02 -1.483895867308599181e-01
-6.559363329248386887e-02 4.274620456924252410e-01 3.436246364359402672e-01
-1.104657175230413929e-01 1.358924809809644307e-01 5.406108989632878448e-01
3.145422772823325969e-02 6.110488404469134327e-01 1.256989396444706808e-01
4.626632399809913476e-01 -5.915425462395890177e-01 9.704327688425061493e-02
-7.125389504461478174e-02 1.431502415438561104e-01 4.837139612941576128e-01
1.424204198467900716e-02 7.503971789388752534e-01 8.431599984884974308e-02
-2.804546749079928070e-01 1.810054683243525753e-01 7.516165473705865852e-01
1.961475755189889536e-01 -5.141451882027739950e-01 4.247625405860556147e-01
-6.084942633548388879e-02 -1.477267008476387256e-01 6.049338948904446900e-01
4.301037001667235016e-02 8.355954106800588255e-01 5.386906648787597764e-03
7.725593695806841354e-02 6.843768762070530087e-01 2.904821598362882645e-02
3.711418798409432118e-01 -2.887212655208308276e-01 8.097445133269177975e-02
-1.309494100584943643e-01 4.484085721586325568e-01 4.230732308052357338e-01
-2.030546876811858692e-01 1.068364398622487083e-01 6.805077051314243342e-01
-5.557762358996247432e-02 5.927287405518210095e-01 2.530129301973467193e-01
1.619074467777746953e-02 2.013620457965860644e-01 3.372646325829212754e-01
8.455031431240302153e-02 5.321790562672985836e-02 -5.986180808048808810e-01
2.165919570862469279e-01 -4.719404887162576556e-01 -5.343420516470492876e-01
-5.442941740835770537e-01 2.862260727901248525e-01 1.511774789251867368e-01
-4.024442350722565176e-01 2.946713858763723159e-01 -4.635735342326864628e-02
2.560084989050441864e-02 -7.401440152227455327e-01 -1.488043874933926980e-01
-1.069839224200530570e-01 3.822667008328443083e-01 -4.903953888884329815e-01
-5.260810093397729759e-01 2.286141698291731528e-01 1.531410963466760256e-01
2.235256937037106428e-01 -9.897923738060039611e-02 -7.174410287831560762e-01
-3.346927902586627201e-02 3.364820862845730454e-01 -5.694159653411077215e-01
2.122390934016783748e-01 -1.515566793533930923e-01 -6.775586728515557988e-01
-3.876714534380669430e-02 -6.930541778037720146e-02 -3.732671349833930341e-01
2.417079706613248502e-01 9.693053645433032106e-02 -8.334645805627557413e-01
-1.514926722374541346e-01 -7.318866764605265196e-01 8.905636651477213950e-02
-4.716587717031127669e-01 6.103522774788663202e-02 1.568811343000838521e-01
-6.902353739842755909e-01 5.123800775372844285e-02 4.597652861728380169e-01
-1.987142113616778838e-01 5.966517402788726887e-01 -4.650067614387676795e-01
-2.473296386869762997e-01 -2.333710547630246379e-01 -1.222961282112785056e-02
-2.713698785437970717e-01 3.016864585844630242e-01 -2.285193351034452147e-01
-7.599690352545099281e-02 -6.368693539046957897e-01 -5.821976148795701689e-02
-4.831812757769095024e-01 -4.090461034166891219e-01 3.914582011496680058e-01
2.373234435096498451e-01 -1.364988406070465621e-01 -7.188052119038680354e-01
-2.150967991070376617e-01 -4.159936364022259192e-01 2.879919565002429446e-02
1.645380936947580391e-02 2.258713107015412613e-01 -5.860573393776841167e-01
-5.035035807358445581e-01 4.228685458458676938e-01 3.188953369439135460e-02
1.181407332178398967e-01 -5.135404355955252020e-01 -3.806042540022631648e-01
-1.476637195669375409e-02 -5.412489494169818727e-01 -1.863068362791685251e-01
-6.592747874317572698e-02 -1.014912987690901186e-01 -3.212130864640354022e-01
7.918474820952764448e-02 -5.314210794412173033e-01 -3.191109144857195434e-01
-1.704377306888355675e-02 -4.547304102687093064e-01 -2.234780330907105705e-01
-2.244190160124396871e-01 4.149126770491705085e-01 -3.453134361970599531e-01
-4.464801639046553361e-01 5.279824938075066143e-01 -9.487529138852764110e-02
-3.902516791501688398e-01 5.119893717194707872e-01 -1.641726584410966583e-01
-1.815927631263004327e-01 -4.526710238615012094e-01 1.469046160235141564e-04
-6.743583912626183174e-01 2.992692301790107756e-02 4.480172510142586551e-01
7.364963634143427418e-02 -5.161445816086516203e-01 -3.186684629297760751e-01
-2.184435794256330277e-01 -3.599775799767618301e-01 7.288243353999946349e-03
-5.843879035412156142e-01 -2.543514320282822538e-01 4.575699475275926131e-01
-5.994932865064943606e-01 2.546835967692964373e-02 3.479137858386180393e-01
-3.843791820724630770e-01 -3.185617212015278144e-01 2.144829267029447761e-01
-4.058855473339281206e-01 -3.384853908455543459e-01 2.531114064634727434e-01
-5.992008641904633670e-01 8.142315016467413513e-02 3.214644125326209800e-01
-3.855849166156684049e-01 4.649161369964199819e-01 -1.486266880813253144e-01
-3.558305809521778995e-01 2.304834075007579103e-03 2.613619150577420336e-02
-4.369663218851491671e-01 3.476732448748258153e-01 -2.391558824754870527e-02
-1.194580527400382064e-01 -1.221772494554602129e-01 -2.385216702787786858e-01
-1.519707651277531490e-01 3.944213476379050953e-01 -4.346540725353775225e-01
-2.272932176891441503e-02 -6.784584469843069066e-01 -1.115595203387256540e-01
-2.900114667366491261e-01 -1.098231259686872074e-01 -1.149443914363237201e-02
2.861788505562124496e-01 3.465716714528770115e-02 -8.651684603176115207e-01
-5.110061186432516278e-01 -3.124979111629282436e-01 3.844858808725646337e-01
-3.621549157523073492e-01 3.545344146226380166e-01 -1.292157680408215492e-01
-7.221720571542218359e-01 -7.325600973334617239e-02 5.613132009498075226e-01
6.560388530693929236e-03 -6.922320120591610726e-01 -1.451229973655200067e-01
-2.259937404470999389e-01 -6.612362330000073340e-01 1.578467457929705053e-01
-6.601511712974369450e-01 -2.123563655430798225e-01 5.414238041001876445e-01
-6.296748154430982236e-01 3.751440583871543111e-02 3.834987183598228544e-01
2.229333247158104547e-01 -3.372980665056328209e-01 -6.056810355367119314e-01
-1.177012307259197033e-01 2.870857817566130898e-01 -4.314555908464841050e-01
1.536695147778942838e-01 1.596765392403516615e-01 -7.425177944104797145e-01
1.916349417756698925e-01 8.485400541388535278e-02 -7.595003678676304215e-01
-1.526213300276885697e-02 -1.347780533680252024e-01 -3.748664283834644007e-01
-5.570374873177525998e-01 -2.382869001128775852e-02 3.129189331062845469e-01
-4.449938944659679874e-01 8.077717308723374456e-01 -2.271622455240075722e-01
-7.064605057375013264e-02 -4.993289105176559883e-01 -1.295560475100562270e-01
6.227254923450905449e-02 -9.164517384401268396e-01 -1.167738700592044626e-01
-2.624163232691131276e-01 2.409294888085593625e-02 -1.115033540935154582e-01
-5.069993399664174394e-01 -2.754340090071044633e-01 3.617618156866280188e-01
-8.642254650999096899e-03 -4.883680340345367688e-01 -2.192844930151277016e-01
-8.903618666017072691e-02 -9.860325981336762191e-02 -2.910178576774052339e-01
-1.770332872867756979e-01 -7.060225756677129816e-01 1.118740542895756973e-01
-4.498655770072426674e-01 -4.215406681035956948e-01 3.518044275836484935e-01
-1.256207265091711656e-01 -2.753419902315649148e-01 -1.588033414883464056e-01
9.652875067054203506e-02 -4.521364035703233086e-01 -3.796944755278637285e-01
-2.367650467145555326e-01 3.387047307487976028e-02 -1.510653607684414035e-01
3.928696127201358052e-02 -7.452315287609055927e-01 -1.651152563892274161e-01
-1.232787519394407949e-01 -3.170424816499538972e-02 -2.754275418121873709e-01
-6.736152364042322094e-02 -7.113618143691663454e-01 -3.532506442348885833e-02
-9.006936383196416374e-02 3.656901030344255621e-01 -5.057637367804346251e-01
-4.121079862035180730e-01 -4.364808483300857134e-01 3.072267428656450527e-01
1.215920361417035522e-01 -4.810741775704547862e-01 -4.004297063232373222e-01
-4.193327884867547040e-01 4.329387335231876244e-01 -8.767873572961901174e-02
-5.349569570508698746e-01 4.885839662237086850e-02 2.489423182225539155e-01
-4.986167471272374696e-01 9.244919576068527656e-02 1.790495066522321266e-01
-3.480778087618418559e-01 6.675393718543670696e-01 -2.941511325370945729e-01
-3.146358899427091904e-01 3.173752799838785443e-01 -1.767720522370454794e-01
-3.695324654073942061e-01 2.673604065028201693e-01 -7.856190993451180049e-02
-6.536047985334072496e-01 1.728518850294052597e-02 4.255773089135763687e-01
-2.012441956798423637e-01 4.954406657815522141e-01 -4.144339897272635298e-01
-2.726960771776713588e-01 1.726706986555644474e-01 -1.666448184722823245e-01
1.843894214261956876e-02 -5.300611649102734413e-01 -2.368354854017516442e-01
-1.159736404144959404e-01 -4.650625409974379898e-01 -8.364397842027025687e-02
2.205471055673946246e-01 -4.716167446581296940e-01 -5.398909343648594650e-01
-6.144131747746688355e-01 -2.406855311877363346e-01 4.921874745557275888e-01
-2.180118255369596358e-01 5.386304763225499004e-01 -4.116562002722530256e-01
-4.247316066636784293e-01 -3.225874778677838561e-01 2.714319194785422273e-01
-3.251093237049433315e-01 -4.102694903374327073e-01 1.762842027779377985e-01
5.923991568400435725e-02 -8.400970403130889608e-01 -1.481824236195389555e-01
-3.201923705943362508e-01 -2.804427037420395563e-01 1.091312855465454007e-01
-4.793026154276622264e-02 -3.282131232006523236e-01 -2.402240698013977938e-01
-6.736107981575877313e-01 -1.172353838194671732e-01 5.155096556358409465e-01
5.161862076789579257e-02 -8.555249247749584507e-01 -1.305979527283019637e-01
9.606102288463017058e-02 -8.635880470306664947e-01 -1.875010391284062106e-01
-6.746788068602538324e-02 -5.145478047218158268e-01 -1.268084588107317723e-01
-5.760735609940552671e-01 1.061550772372629875e-01 2.783850772882563440e-01
-3.344897424654921236e-01 5.582015263202949606e-01 -2.617934934058041563e-01
-2.806678501676967419e-01 1.160594204394265333e-01 -1.294086955379983583e-01
1.257476865801803179e-01 -6.428307183467055208e-02 -6.001424171776226224e-01
-1.242475600704109340e-01 4.998534798539233659e-02 -3.121366055144166873e-01
-1.338840740094729975e-01 -4.674004341228048254e-02 -2.539528800331591341e-01
-4.336924413229659159e-01 -2.350011151564891099e-01 2.428854319377274917e-01
-3.217549833109525914e-01 3.202941467998599578e-01 -1.684145053174207207e-01
-1.868906323927085333e-01 3.805658432894057919e-01 -3.805433445156657379e-01
-5.723736808530028447e-02 -4.539791726996596499e-01 -1.689697910938477154e-01
-3.607223717334257507e-01 2.654997746584146223e-01 -8.972007942772221301e-02
-1.486144584398771951e-01 1.788382629267975532e-01 -3.388682385757289528e-01
-3.044341625885734204e-01 1.821403787181120337e-01 -1.277359784591692582e-01
-5.412280171109292715e-01 2.945187671128652318e-01 1.431319135520251473e-01
-2.108577576657114927e-01 5.913277894123323414e-02 -1.981858657369573729e-01
-4.194130563050739169e-01 -3.640113277757338062e-01 2.834581785628123018e-01
-2.926655560046287699e-02 2.355095258004601469e-02 -4.294640871493808354e-01
-6.529656876332677884e-01 -2.498109903617133642e-01 5.490540815410835940e-01
-3.714031706356680784e-01 -3.300847373061406298e-01 2.021373403119336165e-01
-5.010555440848183384e-01 5.094065206434098547e-01 -1.174019699733993595e-02
-1.846169934188374162e-01 3.604161952488013632e-01 -3.742656548469767142e-01
-6.758620206921725493e-02 -1.918885954779495084e-01 -2.768639028635561661e-01
-4.792110554755824592e-01 -5.464321022488391466e-02 2.210439742132326302e-01
-3.157238231228965408e-01 -4.441775233619200680e-01 1.792606521823489896e-01
2.789064515706763947e-01 1.273955857832408389e-01 -8.984179857497071042e-01
1.895345244114104467e-03 6.024158310986280768e-02 -4.890768782232020606e-01
-1.536044580805822346e-01 3.444972460522995328e-01 -4.091817161897544075e-01
-2.120049168489332794e-02 -3.335203551250400800e-01 -2.742352059708212941e-01
5.898710084550511101e-02 2.683266749789036190e-02 -5.514443939894650981e-01
-1.325443234968817774e-01 -2.018824239026476564e-01 -1.835534819161151188e-01
-6.515618613818673355e-01 -2.208251459115728177e-01 5.336434537431666847e-01
4.785436238351464117e-02 -4.503220678902723761e-02 -5.027925956468975999e-01
-6.411746393831507795e-01 -9.986760511416001296e-02 4.631536309541273155e-01
2.098328561919421409e-01 -3.503440798605097495e-01 -5.817272491472530449e-01
1.429719428825141359e-01 -6.111099601842706619e-02 -6.251276290519701684e-01
-4.541640056700130823e-01 7.360560570138053871e-01 -1.812585888614687557e-01
-5.117852311268698828e-02 3.422289446695369053e-01 -5.479211118617985932e-01
-4.146366766639915657e-01 -1.901332334842053828e-01 1.959886345848784184e-01
1.679338953218029451e-01 2.006938512860397261e-01 -7.810824320749654159e-01
-1.427236454854020065e-01 -5.081660000629134588e-01 -2.706718613047690014e-02
7.160039380822368071e-02 -9.774212402558355439e-01 -1.011200158717067143e-01
2.970043733955892926e-03 1.802444019023132227e-01 -5.464120795348534898e-01
-4.742254431325802488e-01 -2.941099203747003510e-01 3.257252995077506985e-01
-3.038982575048544410e-01 3.184948551390615612e-01 -1.919484739889198432e-01
-5.026926583153282918e-02 3.619837862819069718e-01 -5.583591526965799856e-01
-6.408104502301052718e-03 -4.894096131931571780e-01 -2.218488428020868042e-01
-2.590158358949476991e-01 3.037388095840732327e-01 -2.463361669451608338e-01
2.380622756075163049e-01 -3.297863701568094497e-01 -6.298268322402503783e-01
5.845031093591496196e-02 -7.672664249078794407e-01 -1.810116927947727217e-01
-4.634374454248719744e-01 -1.711041250380366391e-02 1.820417210809007480e-01
2.442909346852930597e-01 9.972512526315661929e-02 -8.382909698234632945e-01
1.357678008343451148e-01 -6.541909522404105726e-01 -3.391813223448327252e-01
-3.784781800891574011e-01 2.889673765154949225e-01 -7.641172654396306829e-02
-3.702920538836614317e-01 -1.157549125262128803e-01 1.008376367981009686e-01
-1.957253635145843051e-01 -3.247900715729755139e-01 -4.010044269736794120e-02
2.760753925777170159e-01 -4.760743107255529377e-02 -8.130797830625409173e-01
1.635279805093777517e-01 -3.779752631007497476e-01 -5.056643677545175075e-01
-4.549574383979921310e-01 8.402771542170693886e-01 -2.286967582091891660e-01
-5.625118331673000238e-01 -3.149942559890705346e-02 3.239617420933951775e-01
-2.397111922817799778e-01 -4.725253539421049864e-01 8.871285889474422870e-02
-5.744479654921053058e-01 5.799006192134096432e-02 2.985900546639198572e-01
4.709721420320764351e-02 -7.367057326908061921e-01 -1.797442953672158394e-01
-5.458709659894699084e-02 2.868501054981275056e-01 -5.174868176719263912e-01
-1.544854769021029028e-01 -3.468358802904563110e-01 -8.612282792285096134e-02
-8.560450114578166403e-02 -5.749677176931189404e-01 -7.392576006458594085e-02
-1.156237428754855606e-01 2.862287551761485416e-01 -4.338920411677366085e-01
-4.433960760624761077e-01 1.491485283409584028e-01 7.728501358155732970e-02
-5.138292929782606322e-01 -3.697229267090439975e-01 4.149807007659320202e-01
-3.641045891753127428e-01 -3.448079141175909856e-01 1.990304241999945878e-01
-4.157700933352287409e-01 6.770978237109342990e-01 -2.062117475975009384e-01
-5.562682177572175757e-01 -7.343714212606317071e-02 3.349646669670581223e-01
-2.199812618956092092e-01 -2.995509561743209259e-01 -1.874522513093026047e-02
4.090600648214996748e-02 -1.110437353588396570e-01 -4.625769052098582801e-01
-4.323697751194799377e-01 7.839681703541813151e-01 -2.333102347752815109e-01
-4.595893231140577018e-01 3.012692868318816997e-01 2.856506492622081297e-02
-1.001192648168632293e-01 3.836870133446882436e-01 -5.004258151435396762e-01
2.933938572254844376e-02 -6.885197200052134425e-01 -1.779410666736234714e-01
-4.148835202123897226e-01 1.331183948065893519e-01 4.583279715545698907e-02
-1.360340360058176767e-01 -1.288427835687549171e-02 -2.667803771228519638e-01
-6.785781280164265850e-01 -1.316248442672984242e-01 5.289884304500513945e-01
5.512635876609402359e-03 -3.463936181592650598e-01 -3.047011932920747346e-01
-4.761404751351224623e-02 -7.856138939565139589e-02 -3.568832916224238261e-01
-4.380126917946087217e-01 5.029961038985119037e-01 -9.479942854944485575e-02
-3.264265555435245103e-01 1.901526421469116324e-01 -1.014499748493753184e-01
-4.797634022450091712e-02 4.063862244780021005e-01 -5.821605980897434085e-01
-3.072656324246232917e-01 5.061820431578060164e-01 -2.747320127021984359e-01
-1.351601023984712879e-01 -2.662292672833524443e-02 -2.615770072657643275e-01
-3.290307000226157519e-01 2.233320788678742064e-01 -1.133427128795597150e-01
-5.219918536903887796e-02 2.551085150920492928e-01 -5.059683574369880921e-01
-6.512846905322391411e-01 6.647977580564877476e-02 3.995077351195436832e-01
-2.419319636210237323e-01 -9.920964237561848142e-02 -8.205666506070365129e-02
-5.902425892220989345e-01 -6.368213174221064310e-02 3.767928504802924294e-01
-1.490128418263561572e-01 -6.692942320921271282e-01 5.653130213470083931e-02
-3.828445739448218532e-01 5.714437463576186316e-01 -2.019617273703585847e-01
-1.185312350496016826e-01 8.011622203677257192e-02 -3.339662003978647320e-01
-2.227634932151227320e-01 -6.347298857104004544e-01 1.410976907470473940e-01
-3.867689694404591316e-02 -7.068695586393634045e-01 -7.656651599444433409e-02
-3.682967195041775277e-01 1.300377053133102562e-02 3.816953873055399515e-02
9.182456558941409774e-02 -2.630534808646241562e-01 -4.613032738954663814e-01
-6.954259325400374836e-02 -7.710613761997174853e-01 -4.554569748631871404e-03
-1.849540671940607395e-01 -7.306845703245121726e-01 1.341662996016527443e-01
-2.549126407802780325e-01 5.567644121382985256e-01 -3.697347625574000096e-01
-2.465957285037455315e-01 -2.700291671697407914e-01 3.835232445544267763e-03
1.408340562663523698e-01 -6.394765972004917698e-01 -3.529463727723765598e-01
3.570317206374031688e-02 -1.859454692320154923e-01 -4.206046632485458403e-01
-4.915269318036259438e-01 5.538149173591307983e-01 -4.542000006569116982e-02
2.577659859626740269e-01 -7.909179841143838818e-02 -7.734324650385183686e-01
-1.274025731850110532e-01 -2.415852107726177422e-01 -1.720871749228771730e-01
5.575541973915831145e-02 -4.968848643704003587e-01 -3.032121853614044293e-01
-5.363965073598133682e-01 -3.615730630602154855e-02 2.904869148322518080e-01
2.228338442585506562e-01 1.319421610142526846e-01 -8.240043229238329658e-01
-5.248756672075536311e-01 2.970684924155705953e-01 1.196264588567619580e-01
-2.095540625899937337e-01 -6.507138050596034118e-01 1.305103377187658564e-01
-3.355315531045067745e-01 3.600953138546995058e-01 -1.681414324351147571e-01
-5.030154024702983007e-01 -3.447500424680865483e-01 3.885950732954994713e-01
1.488832427169089478e-01 8.120142714527642247e-02 -6.994504763038176254e-01
-1.356584836599761812e-01 -1.300757578522460656e-01 -2.127333866016291875e-01
-4.660570521330809068e-01 5.876774199446936908e-01 -9.594740939360804632e-02
-1.184556210077434002e-01 1.393390585402933812e-01 -3.616411328235368261e-01
4.320777979249614681e-02 -4.941505257642924559e-02 -4.944102614359100478e-01
-1.495824345874843531e-01 -6.114357222808740611e-01 3.037215107136065351e-02
-3.691570038216711591e-01 -2.856026929078623322e-01 1.783626519848288405e-01
-5.552400170661844214e-01 2.544531453143956123e-01 1.809090230167897939e-01
1.074896672067763709e-01 -4.371480203686277100e-01 -4.016323951751470944e-01
-1.768667671743729686e-01 5.569289149419528462e-01 -4.763317916118651185e-01
-4.934445869835594189e-01 7.230755651747670099e-01 -1.216035364283236109e-01
-2.610659900684292878e-01 -7.750672168369343584e-02 -6.604569607422432209e-02
-5.122106285474123943e-01 2.372633022614406909e-02 2.295975904263648781e-01
9.090177469755009176e-02 2.107068723066723714e-01 -6.806072566409490099e-01
-1.492962509116477210e-01 -7.069639561452942811e-01 7.445559453138397843e-02
1.093444322537572705e-02 1.517583593247146811e-01 -5.440203058628331201e-01
-2.820234627002042305e-01 1.772711957556082074e-01 -1.560561955268431611e-01
-6.514403925668506012e-01 -2.376887945261690616e-01 5.413286929984300055e-01
-4.055441607780912450e-01 -3.861938488939342662e-01 2.748565743346441104e-01
1.981386380282566806e-01 -3.664940865117146673e-01 -5.582476827852425050e-01
1.503077589366185463e-01 -7.312420272000249577e-01 -3.231542672181636489e-01
-4.789282669220035205e-01 8.983598160062696014e-02 1.533944079914241199e-01
-6.622730618950607440e-01 -3.744836337861182779e-02 4.628898399600743230e-01
-6.439683487424253672e-01 -1.420607817073640117e-02 4.270861042014550413e-01
-3.381990846874931012e-01 2.419343385815688197e-01 -1.094897494432816587e-01
-5.597106715679576183e-01 -1.112783994303082336e-01 3.572804215095568559e-01
-1.263686689235581362e-01 2.724551301173729900e-01 -4.128144565647995368e-01
-4.044810488154731432e-01 -2.990831235557906420e-01 2.328504005794443943e-01
1.264936113558850495e-01 -8.484977328924572237e-01 -2.360622085017216598e-01
-4.623228423519887276e-01 8.839252310122207301e-02 1.314026089496532212e-01
-9.739963921335725860e-02 -3.204016932097499271e-01 -1.763427682898493776e-01
-1.957485059944932826e-02 3.999210164423718239e-01 -6.179142646459067079e-01
-2.468150844897700480e-01 -4.321089570436617566e-01 7.959234186997161953e-02
-1.115869828625939836e-01 5.414078084488569559e-02 -3.313509181324155728e-01
-3.233306794385731875e-01 5.264581987890839532e-01 -2.622454784475443668e-01
-1.191512978889022051e-01 4.419277363869488773e-01 -5.015645579477718830e-01
-5.498686120516355080e-01 2.539778001512184025e-01 1.737991943161587838e-01
4.130986784113810373e-02 -3.954651437363327360e-01 -3.307131352224228493e-01
-2.167056302133864576e-01 5.315906588709662373e-01 -4.101615019913041893e-01
2.291798128795203560e-01 2.467014523247080399e-02 -7.827241160046789492e-01
1.293239648512028717e-01 -3.353898220274226238e-01 -4.788072618313401474e-01
-5.194961515581153488e-01 6.196316792585149225e-01 -3.788797104712745417e-02
-2.225502954225440644e-01 3.829844963328857821e-01 -3.329994929071076748e-01
-2.854853982129028078e-01 2.860723068316982642e-01 -2.019845420093922261e-01
7.589384193315865113e-02 3.155894775731616364e-01 -7.089528218313221331e-01
-2.406525998916747289e-01 3.775661209902966275e-01 -3.057700970415516140e-01
-4.167311618601022283e-01 4.758420432024848545e-01 -1.112035769229674231e-01
-8.470477375538783271e-02 -5.789914201367560853e-01 -7.328047627755952809e-02
1.797149516771093638e-03 -1.477149059246509188e-01 -3.921268184220864095e-01
-5.810678977759353714e-01 -2.808748914716998613e-01 4.653868957102683113e-01
-2.987394073138468498e-01 1.903354108201495143e-01 -1.393237029491108947e-01
2.806408627999259359e-02 -8.591305695810208531e-01 -9.677104658318030905e-02
4.836258972346555579e-02 -2.143681649293530944e-01 -4.246503487283632139e-01
-5.021726858958671658e-01 6.618168977324785374e-01 -8.117151219578370991e-02
-3.772692286560819230e-01 -4.048720819244118752e-01 2.449615240755510792e-01
-4.686822053001814536e-01 -4.035520691792068848e-01 3.691114339357833285e-01
-3.005203042529698276e-01 -1.338751785647274706e-01 1.404613701667018801e-02
1.182541326824005368e-01 -3.792490334615432335e-02 -6.021861704717651476e-01
-6.942080343723469604e-02 -2.214026557622871677e-02 -3.533878395620341228e-01
-2.772448151142799522e-01 -4.247112012048716023e-01 1.176800848844855030e-01
-4.400081901661390682e-01 3.204771666465829338e-01 -7.102530563002815503e-03
-6.356819987919887227e-01 2.077087165732529606e-01 3.124620747541663190e-01
6.509624498927527037e-02 -8.833198517065178335e-01 -1.360526260024886858e-01
-1.100800196437521500e-01 -6.408631429915073729e-02 -2.783659866669765393e-01
-4.413512871940035720e-01 -1.122290998327715450e-01 1.961809316806920334e-01
-3.360862406450864093e-01 -3.582846079812014861e-01 1.670639465747193186e-01
3.016498937776813105e-01 -7.566194324090803891e-02 -8.349239541766508843e-01
2.429000193173750377e-01 -3.630155168423171430e-01 -6.209594658192021388e-01
8.737380714728965048e-02 -6.560304469905486879e-01 -2.722746762911583129e-01
1.424273309340239879e-01 -2.253977266337879870e-01 -5.478991346073316393e-01
-5.380826904325097804e-01 -2.118660369835322355e-01 3.745910919735644939e-01
2.862452139197639855e-01 -9.395469038454749844e-02 -8.053826140318182114e-01
-5.443386560058065538e-01 4.199769053761583937e-01 8.896927123182343800e-02
-4.787922506887099527e-01 -1.703780383339912122e-02 2.029648314772850293e-01
-4.137128793708324537e-01 1.513181434637014995e-02 9.916478240159837254e-02
-1.254186910763474549e-01 -1.774204237704132547e-01 -2.046673656691479770e-01
-3.849953903331225225e-01 5.705592114605810561e-02 4.045173959163934213e-02
-2.206408978597889925e-01 1.782038196376544981e-01 -2.402680131532698715e-01
9.136476998922259118e-02 1.738386046599013079e-01 -6.640748151201724125e-01
-2.960212792111071023e-01 3.224375829378741676e-01 -2.045348934930744933e-01
9.380380662854904961e-02 -4.768668670175802982e-01 -3.644618594162677971e-01
-4.841604609560595796e-01 2.413317092886018145e-01 9.000532054096860302e-02
-2.989657637788745159e-01 5.764610983475495498e-01 -3.187790931109698023e-01
-3.015838150736315226e-01 -3.071584040425631157e-01 9.617124762114320768e-02
-2.862611790164098502e-01 4.729569150127634902e-01 -2.879315540796359985e-01
-6.189075276182678387e-01 2.982456537729202481e-02 3.723831253245620809e-01
-4.843824058590281423e-01 7.451198226086297449e-02 1.679726843559039839e-01
-4.905866641509323833e-02 -8.518352641533335490e-01 5.093084742679991617e-03
-5.343542129306033672e-01 -1.943587544040659143e-01 3.613516268841379109e-01
2.118361414460899206e-01 1.705280086624617886e-02 -7.555063858339006178e-01
-5.658206523437890878e-01 -2.348677158644968954e-01 4.231577243495253104e-01
-5.170644922599334503e-01 3.561658731249872090e-01 8.145209953493794119e-02
-4.721479443177306612e-01 -3.598006562531336217e-01 3.534727582196026674e-01
-4.115361445183594036e-01 6.585492563048603865e-01 -2.033549727555043485e-01
-2.269176409074149040e-03 1.924837520637667221e-01 -5.449595022614937001e-01
-2.478519549373958408e-01 -5.475928532437369656e-01 1.347720882245079244e-01
-1.152958433883765066e-01 -2.733102534182767496e-01 -1.738410899759615103e-01
5.642268572394285378e-03 -6.103648826707390729e-01 -1.819838947330050805e-01
-1.192357584508395851e-01 7.540722993730290813e-02 -3.308123216814033429e-01
-4.743181721796098094e-01 -8.398344054744200093e-02 2.280255632595900583e-01
7.601267178166243310e-02 2.989562097651419226e-01 -7.013712366816827748e-01
-2.660830207635893063e-01 -5.669571361696738032e-01 1.686698675797100311e-01
-5.313594034761319751e-01 -1.338733329960203056e-01 3.291046401744006089e-01
7.161933510852250273e-02 1.345872861571032267e-02 -5.624590642023049591e-01
1.094042421978162934e-02 -5.430934591611495943e-01 -2.205338748011481664e-01
-2.094419299675987500e-01 -3.634346739387693259e-01 -3.388122421517443267e-03
-1.941853726910262867e-01 -2.059070309924816988e-01 -9.754937251692048783e-02
-1.206306230754493614e-01 -7.890245632685471966e-01 7.353554723755030553e-02
-3.669640576365592599e-01 -3.315801632154654066e-01 1.967748526705791201e-01
-5.746898629597392283e-01 5.287370417016802326e-01 7.975966203931168785e-02
-4.887311784775434376e-01 5.936437618656427162e-01 -6.777844865286049292e-02
8.217164351463815408e-02 -6.315868852982462478e-01 -2.765544572324822870e-01
-4.070616225605456218e-01 5.986512925298800303e-01 -1.815759545524997520e-01
-1.613235960456467222e-01 3.555051964801430597e-01 -4.037711485619834284e-01
-6.290511187842229290e-01 5.591238817976842967e-02 3.740821214252369464e-01
-5.127722743858168508e-01 -4.694064961603214292e-02 2.632638056266304871e-01
-3.173746919546968082e-01 4.675275696494921585e-01 -2.429387810491222821e-01
-4.791168324126650058e-01 6.677024910258264612e-01 -1.153792473461456997e-01
6.758860937905041000e-02 -1.988193815629454297e-01 -4.581297442810388643e-01
1.203251802168839174e-01 -7.064605569831158838e-02 -5.897791967316193817e-01
2.872117866986193535e-01 -2.041398000635593901e-01 -7.554041535056738033e-01
-1.904954860296931007e-01 3.761820552289527608e-01 -3.735823691462262230e-01
-4.921472357733870373e-01 1.902524633033871870e-01 1.246864306275795031e-01
1.811005544225110786e-01 1.724250818288841913e-01 -7.858920847616805982e-01
-5.868407513165656564e-01 1.099257619357573990e-01 2.913251359169433674e-01
-3.704999717840830042e-01 5.118882173066091612e-01 -1.910835646139432686e-01
-2.170419924436996217e-01 -6.910746810965305853e-01 1.595205674700926612e-01
1.468283567021717861e-01 -3.646174608047808574e-01 -4.890908327418926893e-01
5.892997877323094026e-03 -5.149959122294287539e-01 -2.267259941224349928e-01
-5.286764665976778632e-01 8.052628207554927975e-02 2.256271558665138843e-01
-7.919041363950295176e-02 -1.769541031235205564e-01 -2.679788531530228890e-01
2.200573613900576597e-01 -5.658796635117946958e-04 -7.585245314216589874e-01
-5.889195752690220553e-01 2.204336724816086113e-02 3.350768557952278903e-01
-4.137301785144965049e-01 6.696488543663320359e-02 7.505703458964803343e-02
-1.018479659550258765e-01 -7.431490748842639604e-01 2.654239858935187810e-02
-5.499721409735789379e-01 6.472598840092229355e-02 2.620484001869846091e-01
-3.497096514500029341e-01 5.599521369279804039e-01 -2.418357044770154674e-01
-4.821366777322669828e-01 -2.831666022644432346e-01 3.314281392413205296e-01
2.372669219845726096e-01 -1.930069944123491976e-01 -6.924201830462797247e-01
-5.971039614429838327e-01 -2.983974563857118012e-01 4.954314109131036648e-01
-5.680339356386904237e-01 1.765355693590131003e-01 2.346459634883217571e-01
-2.428173455265468239e-01 -1.746751223187119895e-01 -4.571461519141781227e-02
-5.097520669598027965e-01 6.181441778613581128e-01 -5.049460673989936144e-02
-4.442740926164639448e-01 -2.025068182591229227e-01 2.421997194027439293e-01
-6.707678424703085174e-01 -1.143226251297694701e-01 5.102734032456502922e-01
3.049695589518471861e-01 2.891173615522446214e-02 -8.881400084200191669e-01
-2.051379566373423835e-01 4.324524978124166807e-01 -3.797948979797707847e-01
5.328082565020560157e-02 -1.671591444353281997e-01 -4.533415631485300801e-01
-2.533548542580338347e-01 5.859533921908126608e-01 -3.854500937393569582e-01
-5.143150987769166960e-02 -5.781159325337448252e-01 -1.191008824799141552e-01
-2.070170329385211117e-02 -6.528835154846132083e-01 -1.262335456205773976e-01
-1.868104714876115680e-01 4.697668230504041809e-01 -4.221810803943729651e-01
-1.486452760175901722e-01 -1.139352160325083213e-01 -2.025228170976599573e-01
1.347310424881338342e-01 -8.186572668096879779e-01 -2.611975178903374051e-01
-2.870651876386692281e-01 -3.655701586624919286e-01 1.035497103932913610e-01
-6.359726738098976373e-01 -1.588978865812116711e-02 4.169571219014914787e-01
-3.307160385357247878e-01 -1.150782203887510680e-01 4.650750903059509833e-02
1.500105504895399844e-01 -1.801288338563797331e-01 -5.793243918431001394e-01
-3.111433213516340279e-02 -2.820076727076951673e-01 -2.846865587725749824e-01
2.889387791689398965e-01 9.567052545369757188e-02 -8.973406571503530493e-01
-6.286503333369322100e-01 -2.085671035414314034e-01 4.966659485824261311e-01
-3.168151990353317848e-01 -3.703650575581182158e-01 1.463861441761492577e-01
-1.544591059491595697e-01 7.860798935993831837e-02 -2.842280894633005817e-01
-5.381504829375635124e-01 9.873525301678259813e-02 2.300803580352701605e-01
-6.192625665446325200e-01 1.151951805899268377e-01 3.331226304400344840e-01
1.436066578424102791e-01 -6.696151835818306974e-01 -3.426992479800304858e-01
-4.360046189388262494e-01 -3.634384384807282653e-01 3.058363596478576030e-01
-1.394982232345980122e-01 -2.005267380615790573e-01 -1.746936453905585940e-01
1.805550122017524350e-01 -4.776857431692156930e-01 -4.824824876501655480e-01
-6.714350317658157596e-01 1.340761059308415715e-01 3.955397204065865258e-01
2.032354487971423651e-01 -6.493913764556649704e-02 -7.055956880508214013e-01
-2.532718970966379435e-01 -2.087453819287311482e-02 -1.030490461405917102e-01
-1.999650171008156285e-01 3.806091370103632521e-01 -3.627190046185189698e-01
-1.851846295418085875e-01 -7.595211877769882103e-02 -1.703356761793233531e-01
-4.277650577744644411e-01 1.573875516531420549e-01 5.211535950467006267e-02
-2.921154597603714542e-01 2.721291952915225743e-01 -1.864441996060879903e-01
-2.063815002396747755e-01 -4.532886442783902181e-01 3.426720284924362342e-02
1.261723366977239059e-02 -3.797365227625921213e-01 -2.988747680584041277e-01
-1.771509360890984319e-01 -5.574631449259815907e-01 4.287143019690649315e-02
-1.357401064980609806e-01 3.027586209627264879e-01 -4.141319723320291968e-01
-4.504359623240285493e-01 6.455136190982175837e-01 -1.441939296879253540e-01
-4.928242169945815654e-01 9.714399365776521522e-02 1.689579006540932182e-01
-4.005936074604161679e-01 -3.606789678133331400e-01 2.562211559541813233e-01
-4.047246526510642761e-01 7.930867406373536266e-01 -2.752867481109244618e-01
1.545297843945274141e-01 -5.757915831023985992e-02 -6.425465590547705386e-01
-5.654945831312883087e-01 1.787998598311294970e-02 3.050436956141941991e-01
-5.319806061784729811e-01 6.058553557878207929e-01 -1.443494501783430806e-02
-1.971655682937584197e-01 -1.968951757308962658e-01 -9.767742170795590262e-02
1.602700461473571258e-01 -2.871476130503849422e-01 -5.435034354675755131e-01
-1.432614450151808716e-01 -7.682583887265719280e-01 9.475520731781507389e-02
1.473872994574530401e-02 -5.639757617350085739e-02 -4.523036717454462230e-01
-4.462508119798186956e-01 3.053210397032761203e-01 8.473747410993610896e-03
-1.461274851231205152e-01 -2.997922638957243868e-01 -1.194317671364639455e-01
-3.413952298071697977e-01 3.802808619215107266e-01 -1.695359941899866330e-01
2.157747088510577060e-01 -1.235943243522106688e-01 -6.954023655348794408e-01
1.206776076941959951e-02 -4.558533775441269142e-01 -2.626879280934503180e-01
-3.339764924075341312e-01 6.030235701620593192e-01 -2.833613105129229592e-01
-4.287229434871814293e-01 -2.801508731403006824e-01 2.571227237154321554e-01
-5.632974369302398004e-02 -2.575445443017637115e-01 -2.616604875783193340e-01
-2.602318457037048893e-01 -5.506622410422706837e-01 1.530976894614970163e-01
-2.749013778208872494e-01 -1.530908241812406201e-01 -1.197368245464644661e-02
-7.850709497692212602e-02 -5.421965850536495379e-01 -9.886951172185085013e-02
-1.001234457002738581e-01 -1.695795578990928754e-01 -2.428418163968647792e-01
-4.318552480399092675e-01 3.628376403972140563e-01 -3.795132926450978106e-02
