-1.313835795214080560e-01 2.910675601179628091e-01 -7.877665247470215792e-01
-4.620825002778400914e-01 2.892313789830506798e-01 -1.984559267555481288e-01
-3.992624888086855894e-01 2.753911211686814187e-01 -3.154006450475952406e-01
-4.535460784771469522e-01 4.235308533344391280e-01 -1.663739956553558774e-01
-3.173280899551273460e-01 2.650572986854792812e-01 -4.652096475096140216e-01
-3.058502308326459529e-01 -7.706307788576755025e-02 -6.062070835331885288e-01
-6.178241901511410950e-01 -2.666770717208519770e-01 -1.164511546339790232e-01
-5.598079649670597568e-01 -4.842097758089889958e-01 -2.965822922087663072e-01
-5.465042226314357210e-01 3.794139449698450406e-01 -1.608070563187790139e-02
-8.488522699023368645e-01 -1.781716666026283979e-01 3.268748010440050700e-01
-6.270048243600010451e-01 3.687188447798509516e-01 1.237624303105502449e-01
-4.434213884391224880e-01 1.279031153699867196e-01 -2.885791126861115274e-01
-6.052636913224549442e-01 -2.582448760432505264e-01 -1.358882546930825774e-01
-5.529089907846341800e-01 -7.622644420206924343e-01 -4.068422288455626479e-01
-4.435592714980278184e-01 -5.739801660193312172e-01 -5.355907218970467065e-01
-6.150793037868149682e-01 -2.119196997396688154e-01 -1.020581712389387469e-01
-2.044459708932975794e-01 5.758893393404580507e-01 -5.570890381385652512e-01
-5.464672284697038585e-01 -7.962438569536589572e-02 -1.778555129426488968e-01
-8.995767205596745253e-01 -4.015300080483503731e-01 3.386816877226776490e-01
-3.499357024002020533e-01 7.204577707195585212e-01 -2.466113213324899467e-01
-4.063746910574957960e-01 5.990161943992168281e-01 -1.887068929910257764e-01
-2.345852483580209702e-01 4.560379583113677304e-01 -5.455423546943818369e-01
-5.025438201702865371e-01 -5.676256440146457694e-01 -4.281254150873165520e-01
-3.713050838532950815e-01 -3.937881877660636132e-01 -6.010125777496687638e-01
-5.875669976256464588e-01 7.376449876662810601e-02 -5.049926583201027469e-02
-6.089531246924795305e-01 -5.923802222276273177e-01 -2.470147280683617219e-01
-7.005507105109131105e-01 -2.942840754673992643e-01 2.140527594325432673e-02
-2.993512390501012477e-01 8.500552570624130277e-01 -2.911983010555925788e-01
-1.833872632052102325e-01 1.728726707666615736e-01 -7.366308196717343826e-01
-3.192031642019343973e-01 4.385686074880745244e-01 -4.007404629186995249e-01
-1.927753587582018424e-01 2.025601236481537060e-01 -7.094245074606001511e-01
-4.166453396646785379e-01 6.517060524864770610e-02 -3.584460630271680270e-01
-3.626377942867066717e-01 -2.975613542997914557e-02 -4.882345251753546500e-01
-2.810604768428823785e-01 5.569135096470255730e-01 -4.270956997532445731e-01
-3.108607580093655232e-01 -5.112435609737960712e-02 -5.881308215451001020e-01
-6.660860438858134946e-01 -3.966114549988505877e-01 -7.612632538607397303e-02
-5.387394692237511551e-01 1.389747234300806877e-01 -1.146340982097678457e-01
-4.363349208919288791e-01 -3.845016194847437202e-02 -3.598236618684928501e-01
-5.276126696354781487e-01 -5.853384568731820892e-01 -3.896431255431496710e-01
-2.430289292849169280e-01 6.101643351411476512e-01 -4.761838357628376817e-01
-3.778787112839350204e-01 1.350449472299009301e-01 -4.029894737754822764e-01
-5.821545383433470722e-01 -2.255941762624834590e-01 -1.656122222438148051e-01
-4.231487442667292709e-01 -2.166557764979458178e-01 -4.461252281382200313e-01
-5.091466492212859407e-01 -2.909396997887975234e-01 -3.188759626851749851e-01
-7.699833414302952317e-01 -1.773829847393137704e-01 1.864527167708497912e-01
-4.330923107833299368e-01 7.726550397381219959e-01 -7.987438754555360731e-02
-4.251881709890222849e-01 4.849622506535983257e-02 -3.490799022007580188e-01
-4.315580193422560717e-01 4.709573910029440924e-01 -1.888927706145247798e-01
-5.785631867671272577e-01 -3.483354228301933087e-01 -2.152580532042542294e-01
-4.608493581586597387e-01 -3.283226333067332803e-01 -4.182061135821276143e-01
-3.148562885426474667e-01 6.764470305319754129e-01 -3.246959825011943024e-01
-3.038631494797732757e-01 1.150419667685907699e-01 -5.420777222238947202e-01
-4.979517690124379281e-01 -3.501406225188007787e-02 -2.486905020197548444e-01
-7.142511680672684049e-01 -4.539565365159345389e-01 -1.040249139035727757e-02
-5.093691281675255533e-01 5.834303257983487478e-01 -1.045830323560016477e-02
-5.989857527719910646e-01 2.132797145088259627e-01 1.901951941828237957e-02
-7.787870587184547722e-01 -2.884687825618378887e-01 1.630252858559732287e-01
-7.413516350292292945e-01 -2.140845908619491145e-01 1.224454242592317443e-01
-6.480571613560757172e-01 -3.835580835565948199e-01 -1.036909304148980887e-01
-3.348151402063373472e-02 5.617336897961440201e-01 -8.670714680956094211e-01
-5.322486656500510227e-01 -5.543932234506399048e-01 -3.704713357706220789e-01
-1.668881931490986126e-01 4.306006097764767948e-01 -6.752729724144156398e-01
-4.676720908415249456e-01 6.677388618109774132e-01 -5.514464021454816567e-02
-4.135264596145766247e-01 3.121784557173116204e-01 -2.769947828836723525e-01
-2.194033575696106575e-01 6.138709917907108071e-01 -5.170254106820398876e-01
-2.515607350078651883e-01 6.558473120875784046e-01 -4.448702592144093693e-01
-3.710813218895994692e-01 -2.676134494564070265e-01 -5.569632591338484762e-01
-3.747412705162673219e-01 8.893421290452870887e-01 -1.428647595549044913e-01
-6.065802099694448390e-01 -5.331813538529786012e-01 -2.303935192547065247e-01
-5.566877288119140843e-01 2.195193960052275670e-02 -1.238393922162072530e-01
-5.266347128622103080e-01 -1.691543351103137194e-01 -2.447755292856210740e-01
-8.362779687469057421e-01 -4.177225665647005814e-01 2.200542480326515837e-01
-3.946402902473108987e-01 8.932163613573214089e-01 -1.060006715517947534e-01
-2.854485996666711323e-01 1.679729333564067284e-01 -5.562823727879742108e-01
-2.700007627927313303e-01 1.395324430914580693e-01 -5.938598139934250231e-01
-5.286267637508883510e-01 -3.983967313464752968e-01 -3.219786732182246536e-01
-5.004708823914149063e-01 5.122696387767052828e-01 -5.140081880519488389e-02
-3.026996262567129281e-01 5.563127719570689633e-01 -3.887037006385387072e-01
-8.067386998675378784e-01 -5.008606454545400100e-01 1.380693719584423218e-01
-3.245103663146520212e-01 -1.097190703222639813e-01 -5.844219007932278664e-01
-5.317275507363647957e-01 -5.177895193322130662e-01 -3.585063336998914330e-01
-2.547548282318015667e-01 2.315966359678167663e-02 -6.620536218466066547e-01
-8.750918545512885727e-01 -2.134885253205846267e-01 3.612441419843002155e-01
-5.090740850622074154e-01 -2.356621078361335886e-01 -2.995323709734960538e-01
-3.864545609780554170e-01 -2.596134569654149904e-01 -5.267196228214909848e-01
-6.728837867071078005e-01 -2.094391832152631139e-01 1.937207505856087955e-03
-3.848271072820929062e-01 4.643194033984805458e-01 -2.745977976972064916e-01
-5.391169652725008588e-01 4.472457561600311493e-01 -5.363750775664018720e-03
-5.475922755352281568e-01 5.525888149190382181e-01 4.686593553837661852e-02
-7.315158492269693280e-01 -6.446444190249571438e-02 1.576064538269286441e-01
-3.904519568734199919e-01 5.756213705383133039e-01 -2.253540634186604608e-01
-2.399768796018145189e-01 -2.065674402624514960e-02 -7.038525890884503866e-01
-5.356685445110571653e-01 1.881586489072063773e-01 -1.027861569442105466e-01
-3.120150453334646912e-01 8.099507262513462313e-01 -2.827343500161355605e-01
-2.718954463311574199e-01 5.884720463588799522e-01 -4.323284948326923116e-01
-1.234752498667670007e-01 2.981601740161615166e-01 -7.993761920117333775e-01
-5.151567809151531563e-01 -7.366759430146603282e-01 -4.651768457031668080e-01
-4.596260280278492982e-01 7.283412198819904093e-01 -4.814974815177288509e-02
-6.691083565871375205e-01 -3.508538454289280573e-01 -5.461523587292054643e-02
-2.251500808615209889e-02 4.641313444361022666e-01 -9.210184983661381386e-01
-7.473038748881799531e-01 -4.182030430104238805e-01 6.115774117373401486e-02
-6.126406149015670710e-01 2.299184621895461189e-01 4.924085810725265661e-02
-4.449934265443865056e-01 -1.915048365146527487e-01 -3.982948312571455984e-01
-4.484160355596534808e-01 4.770981748754761775e-01 -1.566552913521058465e-01
-4.301455592489480950e-01 1.183194923765702733e-01 -3.156389067294103068e-01
-2.191214599313288935e-01 7.268469686115847095e-01 -4.777294292902556361e-01
-2.506094282295007747e-01 7.869323026351988659e-01 -4.003890891080946202e-01
-3.836762578597464057e-01 9.013068177159208050e-01 -1.227101080362152374e-01
-5.051498476416077521e-01 1.405561384203105890e-01 -1.739999284336463115e-01
-4.913994554739543053e-01 -3.717620867124293849e-01 -3.790083471861112052e-01
-1.474774287561004260e-01 6.708778465657767587e-01 -6.252569921019972554e-01
-1.112944465891705231e-01 4.446649242425617099e-01 -7.694960911774252343e-01
-8.144380203650760652e-01 -3.292632990206363353e-01 2.122546001436676211e-01
-4.131810327405229799e-01 3.199524204867381094e-01 -2.748724227978367463e-01
-1.365723018104716135e-01 6.476632960041963649e-01 -6.528893881175988900e-01
-3.344134324313765005e-01 8.574926807074882973e-01 -2.260283120848983196e-01
-8.772655278389959177e-01 -3.335105603430371657e-01 3.228408676230574148e-01
-6.580588882383477979e-03 5.152292228835740895e-01 -9.314444221057656126e-01
-5.389051659407589900e-01 3.599859641684163836e-01 -3.648124380784107529e-02
-6.260129350267708004e-01 4.148511171280470644e-01 1.382442830939032419e-01
-3.960263684741578971e-01 2.224155280678238866e-02 -4.103526527902437993e-01
-3.213888593928567183e-01 4.898538845200509084e-01 -3.787746030889501681e-01
-6.529210018709887819e-01 -4.376866474463711465e-01 -1.140822451845496938e-01
-4.505951348971167225e-01 7.649274589419681192e-01 -5.137210026439481547e-02
-2.658958544468039698e-01 4.443218178808890362e-01 -4.938124574244203702e-01
-3.295749658316428632e-01 -2.063752323223607965e-01 -6.094365771734415738e-01
-2.372443327838110461e-01 5.882645943571653824e-01 -4.942181737879625669e-01
-3.386685951412730655e-01 6.128883283434430895e-01 -3.046057984057970458e-01
-5.717056749816962213e-01 3.895861678913216108e-01 3.246141043606524945e-02
-8.997312562511960987e-01 -2.601937720380873009e-01 3.887469309339056656e-01
-3.630855269217412307e-01 4.217783007855498423e-01 -3.283704242610895885e-01
-5.996770382225036222e-01 3.685501796726427526e-01 7.495102233649324208e-02
-7.649853726952048349e-01 3.041574750767937763e-02 2.507392716786016051e-01
-4.551427133517966794e-01 3.941017362000133473e-02 -2.988426631413269030e-01
-3.339070076814624199e-01 2.346357857553824089e-01 -4.463501413499052495e-01
-6.002565580022000136e-01 -7.016780593534518440e-01 -3.010323084171552810e-01
-6.514210497364834040e-01 -4.495220867089009809e-01 -1.209274742989412121e-01
-2.296613381373465157e-01 2.431272546308104743e-01 -6.293300904809282503e-01
-7.157408024241498357e-01 -1.059016830080330429e-01 1.148668183794564618e-01
-4.728791968442724869e-01 5.653474869378269929e-01 -8.192547473239224221e-02
-3.580679808710465206e-01 6.084245452979809565e-01 -2.715703372402776816e-01
-1.081166033139430160e-01 4.877473894474783078e-01 -7.599882958884921491e-01
-4.236040642906542808e-01 2.790844984803610429e-01 -2.706748754092626053e-01
-4.315543642877120445e-01 2.001172316988849287e-01 -2.843101471435005023e-01
-6.842260007351779194e-01 -4.387332792000196990e-01 -5.860372470542832973e-02
-7.181440399304070965e-01 -2.277407242705760115e-01 7.623298987744535349e-02
-3.944599461951620589e-01 3.923076777745809762e-01 -2.827811883225908596e-01
-5.034382800470256214e-01 4.850982495589632459e-01 -5.567893125083750450e-02
-3.968226705591783587e-01 7.080613649905138640e-01 -1.673332804329266399e-01
-6.376708252047501579e-01 -4.127824063891624706e-01 -1.325149251529615380e-01
-2.127717558527136010e-01 2.848056144796607403e-01 -6.447782810498386974e-01
-5.097395545007324946e-01 -2.974486859432883268e-01 -3.201112050283301813e-01
-3.551065017523213907e-01 7.983483959422299492e-01 -2.099476590204800985e-01
-1.104786894665791830e-01 3.821258786869885515e-01 -7.929824684178437000e-01
-5.303224603671589099e-01 -5.718328335134318374e-01 -3.800512108335071804e-01
-2.332062618125319009e-01 3.033681036289832544e-01 -6.017845605606184645e-01
-3.435149320358759084e-01 -9.215640557073574712e-02 -5.443313684057513591e-01
-6.343807143843159801e-01 2.654042232543151192e-01 1.005254057406850671e-01
-4.603851458841982103e-01 -1.405310353107565580e-01 -3.528795268662346940e-01
-6.062089052516600463e-01 2.172330729214019263e-01 3.329809609685036725e-02
-2.087748209606723748e-01 7.317141182772963770e-01 -4.944729514959324557e-01
-5.862003108078558400e-01 -1.872041971743957089e-01 -1.448707591102346981e-01
-3.928633095377028761e-01 1.504135009735935724e-01 -3.708433843307696320e-01
-3.298060113416514394e-01 5.287211427786780993e-01 -3.500665889823162402e-01
-1.114204879942834736e-01 5.688965184794891883e-01 -7.255072589901011559e-01
-5.275890342440610059e-01 3.583023491392739457e-01 -5.726199947242996413e-02
-7.744676740120711722e-01 -5.315253785446621623e-03 2.550682040228140490e-01
-3.308173360442155930e-01 4.989125365641544629e-01 -3.587633116272059275e-01
-3.332320606510671412e-01 5.741851144561811449e-01 -3.279386868562012558e-01
-3.282569059484763407e-01 -2.089408225352015758e-01 -6.126917577580026641e-01
-4.852999115581518863e-01 3.848213433170443176e-01 -1.233625470192985379e-01
-5.317255243498990591e-01 -2.227029080170710995e-01 -2.545576166213870950e-01
-1.323794364972310789e-01 6.377775041433070280e-01 -6.638518809029249068e-01
-5.373107720944495513e-01 -1.584296746988086146e-01 -2.219516890532343134e-01
-1.712330810225543842e-01 3.834881556562895755e-01 -6.841184672760970420e-01
-4.017330381859741117e-01 -2.546960521144783218e-01 -4.977309648339401371e-01
-6.770341807616215846e-01 -1.589334008405091925e-01 2.713343575550249825e-02
-1.355726547098456969e-01 3.470170436832570871e-01 -7.605835977793582448e-01
-6.843796704204146986e-01 -7.151875425462779490e-02 7.103178064439816253e-02
-2.680019422032545173e-01 7.616908598859137847e-01 -3.782533290044670093e-01
-6.992042720168123449e-01 2.266899858527985923e-01 2.025306344712627937e-01
-5.010743618999444760e-01 -5.168087754740210427e-01 -4.128452544930191204e-01
-5.530902805880959505e-01 1.430855523450905165e-01 -8.758450807044033948e-02
-6.847070698313735271e-01 5.832081378131503263e-02 1.173553919703326648e-01
-4.049997265520274836e-01 -3.088208618703182640e-01 -5.109702309896806405e-01
-5.378531394708857549e-01 9.415603304153896680e-02 -1.320038950920385534e-01
-4.658398294886379465e-01 -2.780295416251761242e-01 -3.915861375478908446e-01
-5.052645420003047949e-01 -2.524771344805253337e-01 -3.122520403239030240e-01
-5.051081188715119685e-01 5.930085246447902581e-01 -1.468563970180267533e-02
-3.286873806610621229e-01 2.158775886490942320e-01 -4.622698952247016879e-01
-7.629799881740705336e-01 1.470540891272578178e-02 2.416273262984887371e-01
-2.359187415331523707e-01 7.897457549898768692e-01 -4.256057396281273664e-01
-5.163735167418046501e-01 5.170791184173808563e-01 -2.133670188459255504e-02
-5.826045021698188497e-01 -3.508861211453630502e-01 -2.089470150508841162e-01
-1.213063615050757327e-01 5.385959223064583634e-01 -7.185453565881725346e-01
-5.579654795069266537e-01 4.157420033752421418e-01 1.716340222739057633e-02
-5.696968567782064730e-01 -3.079885480280317167e-01 -2.168620425380457517e-01
-4.319316660321879664e-01 1.320768574798582111e-02 -3.494810528012904927e-01
-4.189852116898593049e-01 6.407812224283062630e-01 -1.514972100670222421e-01
-3.442960903109358872e-01 4.585526897816948749e-02 -4.943194161081462812e-01
-9.997957811242010051e-02 5.894952371140251834e-01 -7.386610537241521390e-01
-3.222857845489497941e-01 8.121020937133865969e-01 -2.636537661315331293e-01
-4.022797499368216401e-01 2.169703404755987941e-01 -3.305982555779440335e-01
-7.651113914034746166e-01 -9.561423705688305852e-02 2.065665753497770707e-01
-1.740898498272434314e-01 6.727934022028873029e-01 -5.771063850217260649e-01
-2.743836108060626056e-01 6.814889700746770140e-01 -3.951219241485923739e-01
-5.375803787574973125e-01 -6.633433190279717229e-01 -3.993403635752296732e-01
-1.884440294863995169e-01 4.505635592408824830e-01 -6.297854800512208140e-01
-2.954788890907177334e-01 7.127935534977732912e-01 -3.464606533590228743e-01
-7.332421032372890002e-01 -6.757793058831158828e-02 1.595892301768955523e-01
-5.094490639666509058e-01 3.752607258924046674e-01 -8.364913691727556000e-02
-6.984231440339110364e-01 -1.983369483679950362e-01 5.140975855984130510e-02
-7.440941747935085893e-01 -5.481867310843668850e-02 1.834438138571206911e-01
-3.852159796354092669e-01 2.553797226949663934e-01 -3.475087794066778479e-01
-5.058251796633644881e-01 5.312435175432781431e-01 -3.516483727679818594e-02
-5.713752440458760296e-01 4.806946646659628342e-01 6.396739169174786577e-02
-5.140096177271761269e-01 -6.205811521032676970e-01 -4.263257857836489917e-01
-2.851645725949140675e-01 7.600523969631871601e-01 -3.482128792584357480e-01
-4.723593723580705728e-01 -1.062359081967716723e-01 -3.194364515397017934e-01
-2.400376768810001671e-01 5.862209138597617164e-01 -4.899548699534447826e-01
-4.098435257930157505e-01 1.128007092908365344e-01 -3.538012977269018311e-01
-3.992313113069950181e-01 3.598919027372794455e-01 -2.856885526616378401e-01
-4.967068848776755030e-01 -5.292615597172808384e-01 -4.250235428841858121e-01
-6.032123655789991545e-01 8.370970951247770631e-02 -1.908490303645154346e-02
-7.151682076348900852e-01 -3.033092841210635604e-01 4.430309725013935329e-02
-7.308791659182516387e-01 -1.446374796001310692e-01 1.282274829837762309e-01
-5.306555588403182311e-01 1.111026271008619948e-01 -1.388742722622441084e-01
-3.340654030170050470e-01 -6.407922514008609904e-02 -5.512981037042844479e-01
-3.473649915699685842e-01 1.985525660186748531e-01 -4.350527832682008489e-01
-5.326745583099012915e-01 1.441609398307836798e-01 -1.236267396910849248e-01
-2.557750237948088201e-01 6.783518966996612276e-01 -4.294242325795321613e-01
-3.854667707264176069e-01 6.858070167276399953e-01 -1.954315848932001720e-01
-1.924537595530785572e-01 5.541655161462359924e-01 -5.861356122103782429e-01
-4.140477723779055763e-01 1.610959806356568880e-01 -3.292877110864934065e-01
-5.377624388024001556e-01 -3.239642804553291566e-01 -2.794600222578028648e-01
-4.512112523400993447e-01 -3.640966024999131578e-01 -4.480025788681530341e-01
-1.762278059552196130e-01 6.170647047738537783e-01 -5.929242906120913981e-01
-4.948533778707656094e-01 -3.277635193472929198e-01 -3.573469490279756466e-01
-1.348821185980114967e-01 5.458755334493973210e-01 -6.917621509300139193e-01
-4.623612006292191490e-01 4.699742721141121349e-01 -1.342871042369635504e-01
-6.450608403544871861e-01 -1.474315354422700564e-01 -2.585424487953216083e-02
-5.836576996100049097e-01 4.648653387111801316e-01 8.030262897891052298e-02
-6.607545413333626438e-01 -5.334451798050235949e-01 -1.338409970735046362e-01
-3.754922211072157512e-01 -3.739433492514096513e-01 -5.865519570060047094e-01
-4.663395513443076013e-01 6.763867155776008555e-02 -2.689235627981731436e-01
-6.052506480025017233e-01 -7.567663340012762418e-01 -3.115293461908101302e-01
-8.010908539333035927e-01 -3.545439482176822032e-01 1.795378355616028265e-01
-5.143667362283155242e-01 4.261443019502557661e-01 -5.695101806808754163e-02
-8.055665727732465031e-01 -8.781968172779588966e-02 2.814833104893271765e-01
-3.988236786745066875e-01 3.457688061736903795e-01 -2.913910048097835270e-01
-7.417268931357957618e-01 -3.055028888164699197e-01 9.091027745623508904e-02
-5.292268794927557085e-01 1.063964924000452700e-01 -1.430808601753279508e-01
-5.756832205934114821e-01 2.797747935035893030e-01 8.731774155489309235e-04
-5.515530787596563123e-01 -5.630546561391740479e-01 -3.390840399808834893e-01
-3.379823984734868780e-01 7.982026021331581900e-01 -2.405479307451901527e-01
-2.488651973819217544e-01 1.078595604766707933e-01 -6.427226993336078165e-01
-4.448877970662825088e-01 -3.786361072952532658e-01 -4.644053810801461735e-01
-6.907420873186617127e-01 -4.711209178760887850e-01 -5.838864389581909647e-02
4.674289983071369114e-01 -3.327125899255903296e-01 1.732536516715619535e-01
5.529822011283493932e-01 -2.168417668463116788e-01 6.144784536559477067e-02
8.298127926778916391e-03 -5.598173660089493797e-01 9.123261592063298675e-01
5.315652976073443892e-01 -2.949660423988029190e-01 7.213357697169947569e-02
4.495647530928091329e-01 -4.528741419908733495e-02 3.063763374414628093e-01
6.919321544900286503e-01 2.005906866966193913e-01 -3.938290627997828586e-02
3.950400665073656170e-01 2.553929615742372983e-01 5.095697119193316471e-01
3.189343114776900800e-01 7.522306790020129481e-03 5.580209887140198388e-01
6.233109162825528626e-01 4.146581361425665802e-01 1.584465413180969340e-01
1.651084257524658150e-01 -2.725636613601585267e-01 7.337740365662405173e-01
7.626501815040237497e-01 -4.226873739411484560e-02 -2.510957260947420111e-01
3.240831123378702938e-01 -5.243493161418271223e-03 5.443385725325411428e-01
7.189778738283905124e-01 7.206216168536322408e-02 -1.329093875705422423e-01
3.883590217947704426e-01 4.007934965180869891e-01 5.727098215811412540e-01
6.553791699790649794e-01 -1.453978031096577654e-03 -4.534918528984862446e-02
4.842217417116813083e-01 -2.030691734309073015e-01 1.889663167375184583e-01
4.139731127194309912e-01 1.264806887853801576e-01 4.303808224574779961e-01
1.714699135694927323e-01 -5.430522627403776559e-01 6.271383136125429081e-01
7.536504154802748934e-01 5.548517385949907066e-01 -2.468837592994235081e-02
4.419790987113850211e-01 -4.879033039340984756e-01 1.639853718505928648e-01
4.258078778122214580e-01 -9.922623347832883189e-02 3.297565005910386149e-01
3.604430509210027611e-01 -5.772418602310664948e-01 2.779714050204982190e-01
5.695271490915945201e-01 1.376209469251026551e-01 1.568013187162023980e-01
5.438218959155253218e-01 1.341622601535175652e-01 2.014403402221996986e-01
7.154320164553976680e-01 3.003241907369867403e-01 -4.617213440389922319e-02
5.744255609889740155e-01 -1.084591517307821433e-02 9.576117752411507367e-02
2.726555080917696938e-01 -2.113346311973117453e-01 5.634827099730733702e-01
6.215437168549775571e-01 3.975580503558281270e-02 2.952957163128041781e-02
2.513338316161367603e-01 -5.109291781449176728e-01 4.959795969541956895e-01
8.114720819336306290e-01 3.697075897236734021e-01 -1.930626715861379628e-01
1.817479150521668918e-01 -4.224361173175110173e-01 6.512929892537538956e-01
2.676478922500133417e-01 -6.740443434555251079e-01 4.094139984240086627e-01
2.939691469094288245e-01 -3.277294375971384066e-01 4.844565311980146283e-01
3.449608073695610289e-01 -9.636922665821870959e-01 1.694535574470415473e-01
2.009250498935926665e-01 -5.022286088122068087e-02 7.482038305739918682e-01
3.412132267415312059e-01 -7.706176087540864694e-01 2.441549649446395631e-01
6.610886300244498415e-01 3.511015084264517694e-01 6.866261647497159948e-02
1.294388808374301869e-01 -6.219259735013327184e-01 6.743350547562798614e-01
3.990389525006126648e-01 9.035462993975809654e-02 4.442965457634769910e-01
4.964113867576643302e-01 6.891198955037395324e-01 4.815183465105338789e-01
5.751813761183115492e-01 -3.464337546248816291e-01 -2.380717288681291968e-02
1.855005578224394325e-01 -1.847629439283694774e-01 7.283252593913208672e-01
4.333082717496642422e-01 4.124370522620099955e-01 4.966234026891219178e-01
3.566066465216337078e-01 -5.457344663213415936e-01 2.959147825677381771e-01
3.176786234642008933e-01 -7.294880685153240507e-02 5.319129489325997717e-01
8.485907224878161959e-01 2.261212480539736280e-01 -3.098634849279843784e-01
4.370780360327748970e-01 -7.180498395663199585e-01 9.165331414708645374e-02
5.379983134247949828e-01 4.796942412218742069e-01 3.335525390178021299e-01
5.294239711355320788e-01 1.310986556092701150e-01 2.260465888804054913e-01
4.156267847786443426e-01 4.959664787230292915e-01 5.575921969138789569e-01
2.339010555531723101e-01 -2.384719802669092170e-01 6.230596743584310149e-01
5.490105301282682815e-01 -6.150275046187845401e-02 1.232556115899560850e-01
4.311469896311745931e-01 -5.800345323670259845e-02 3.347535295304245873e-01
2.657776861919580180e-01 -7.853726692642615248e-01 3.735319441012557862e-01
5.088945274671204944e-01 8.006331072719063968e-02 2.446919343732306684e-01
4.082707488544823349e-01 3.849837820440849545e-01 5.316184639323482397e-01
6.719773897815662922e-01 -2.093501267324812953e-01 -1.481970422324565551e-01
3.011577630511653170e-01 -6.885754028914695679e-01 3.445143813819876444e-01
5.277320838827578298e-01 -5.531515998356572039e-01 -1.198100535926711722e-02
3.518222987735718510e-01 1.218355603293690276e-01 5.396197283991990279e-01
4.148246526281822444e-01 3.497848894833056055e-01 5.075267136095674703e-01
2.160678613124897007e-01 -2.439106888194807476e-01 6.529576503926841635e-01
5.821125380874373478e-01 6.274759674603940240e-01 3.069141765855347148e-01
4.241698096523049411e-01 4.877674540918244261e-01 5.394633534449850831e-01
6.302644859380226450e-01 -3.602246377213541573e-01 -1.269320856989670232e-01
6.893699785824004556e-01 2.173378540921003799e-01 -2.891240963463036565e-02
4.257128260336524583e-01 -8.476701953125560518e-01 6.626620805971898676e-02
7.888576129858038133e-01 3.661126683441655039e-01 -1.539855133614362048e-01
4.826196974350834834e-01 9.342636511559611334e-02 2.962729832945323882e-01
5.060726468296233849e-01 -1.804339278019511175e-02 2.151653185435483118e-01
6.819345351748999917e-01 3.479379613428212892e-01 3.035967020429950272e-02
7.531128117516227016e-01 8.456296050344297432e-02 -1.894013948982120610e-01
7.719140909337236511e-01 5.053396648333739055e-02 -2.349299848839201399e-01
5.762531576622021978e-01 1.759221935200753206e-01 1.582949732480880833e-01
8.590948089669239174e-01 2.047863440771577892e-01 -3.361182792544329945e-01
2.605656469222967786e-01 7.863825527494798517e-02 6.872015601063754531e-01
5.901037279813392544e-01 6.018766853501876790e-01 2.836400742324219348e-01
7.112483606046262619e-01 1.096004544219940507e-01 -1.058962658019910186e-01
4.272545486952888938e-01 -7.980606421614037105e-01 8.099214116412445374e-02
8.069365372544151649e-01 4.300695069295416006e-01 -1.637072524588822076e-01
6.927749513429546369e-01 5.520961163027154894e-01 8.294097256764011716e-02
5.785738236863058326e-01 5.876931017110512689e-01 2.992125392748864465e-01
1.459836806613884208e-01 -5.137851459572659873e-01 6.829151688525971764e-01
5.416621486456751206e-02 -3.883390181539564390e-01 8.909067397746669448e-01
3.650651852727069269e-01 -9.842045894892706981e-01 1.263618937090424943e-01
3.927153763376715623e-01 -1.970981449726377788e-01 3.543145209209596080e-01
5.902012576405243349e-01 6.545956086317675782e-01 3.020377671620662619e-01
1.957709669190717539e-01 -7.697443228452143238e-01 5.039274472800781002e-01
9.437572123599692608e-02 -3.517149804710310024e-01 8.320759464597916599e-01
6.560204481983389346e-01 -3.312981480181410587e-01 -1.626898404101389528e-01
7.161540552448565355e-01 2.035392923077394556e-01 -8.155535941603561656e-02
6.879615153316742671e-01 4.415947282650767303e-01 5.260086799396690438e-02
2.540678533025390040e-01 5.601610255694298296e-02 6.908241663925389631e-01
4.619568129838724779e-01 -1.161264607803882132e-01 2.593142637799014660e-01
4.155014370699562365e-01 1.528990008065903017e-01 4.369609085908677248e-01
5.931660948324907201e-01 2.007185991864916461e-02 7.322023178470823956e-02
8.540618457819489917e-01 3.160792950673810831e-01 -2.879336296294767172e-01
3.895426214460930292e-01 1.537685458610105194e-01 4.835770163486470263e-01
4.795917366541155302e-01 -7.130710402462244746e-01 1.756400301278910822e-02
2.082325367961747886e-01 -6.059184200594371905e-01 5.394085183858874366e-01
4.974540984030674795e-01 5.090297590091421576e-01 4.162165010170878476e-01
6.827548774501798201e-01 4.776882988848726863e-01 7.460430921307394103e-02
3.871875396213066423e-01 2.966417809329319755e-01 5.381094210717594084e-01
1.256916962824771999e-01 -2.116904433435952138e-01 8.255366142413099739e-01
6.916671205248954291e-01 -2.104721942793366940e-01 -1.837182393155867011e-01
4.342868307399749828e-01 -6.265419178487384722e-01 1.288689137689535413e-01
4.111255463975663216e-01 9.797235251802530187e-02 4.254179581543583444e-01
6.170445002273985402e-01 2.815488428305285007e-01 1.227342585420755361e-01
6.412060197738661538e-01 -2.431873124166347711e-02 -2.811942441871279064e-02
2.318876637894749793e-01 -2.979771848967299741e-01 6.056891715120614750e-01
2.590952574465566483e-01 -1.805998907531649045e-01 5.985009635746876278e-01
1.282653599599763716e-01 -2.741642615615186851e-01 7.989371599570095350e-01
2.563541307249098122e-01 -6.272151929118129077e-02 6.449169368440212935e-01
3.626830733972321585e-01 -6.554340220847084675e-01 2.464299405407688048e-01
5.181560059418172798e-02 -5.821411045594624412e-01 8.268280814360732256e-01
1.242719184614900635e-01 -4.569189073702737414e-01 7.416810217361234914e-01
3.150537003212314779e-01 2.843469677371368229e-02 5.723108498540465661e-01
4.793337163808445434e-01 -5.588212008160470257e-01 7.236302987368979645e-02
6.353849291464934712e-01 2.899375009995621699e-01 9.297059076787482501e-02
7.331863491369391417e-01 5.237975588020746809e-01 8.792503457786712525e-04
4.969329889424310420e-01 -4.771927464637343297e-01 6.972228587248627263e-02
5.528346512149949765e-01 4.803566671429605472e-01 3.073182931892886049e-01
3.595121902840632822e-01 -9.546391201251884784e-01 1.466835238598425128e-01
4.003957651083636660e-01 -8.185967508995003472e-01 1.216730389162240661e-01
3.656340912945255650e-01 -6.218946953022845836e-01 2.529805542353089631e-01
5.202011810642046541e-01 -4.377767667070582291e-01 4.209785198950315166e-02
6.104573015107597200e-01 1.561302331980692903e-01 9.030349662048350878e-02
8.590149945347891336e-01 2.654943293915624225e-01 -3.145898438503895167e-01
4.412451290729694220e-01 -2.594531218654611004e-01 2.457725795422439352e-01
5.353356274817604177e-02 -5.348278432978377239e-01 8.404306766702868137e-01
1.072569465476785056e-01 -6.272652948017027885e-01 7.120260708898821234e-01
3.447901191886962313e-01 -9.705091353379752261e-01 1.673566317720796004e-01
7.151968555117355075e-01 4.906880896216163634e-01 2.130827755033351534e-02
4.206298816549486896e-01 -7.877458422963703466e-01 9.644402868180612654e-02
1.910412562827608352e-01 -1.825246112637697593e-01 7.192293252794261793e-01
2.806266784687611593e-01 -1.898971272063269128e-02 6.170211292473238851e-01
5.400826939248587477e-01 -1.833692988191759354e-01 9.625179095415385688e-02
4.841405758143960680e-01 5.714869972808007681e-01 4.619697165563823593e-01
8.100380448846689063e-01 3.321015001882554052e-01 -2.037521642915956221e-01
4.736217161440210432e-01 1.328449730612628055e-01 3.262114083940120812e-01
7.360187969800896512e-01 -8.709191661706064402e-02 -2.193762868324698467e-01
2.267633117175481827e-01 -5.391997981420939556e-01 5.298536043489462388e-01
5.717660342207613322e-01 4.338961203216845641e-01 2.571782471043644880e-01
5.266224709313211960e-01 -2.973010889692369596e-01 8.012885475250434986e-02
2.044165297552952010e-01 -5.940117669126130512e-02 7.387418172252708803e-01
2.701265999164865761e-01 -6.163742494827616492e-01 4.253079230350856887e-01
6.402109500282171517e-01 -3.770984852340970028e-01 -1.506205683978238397e-01
7.937526667235685063e-02 -4.206102141656454796e-01 8.345660986156107075e-01
5.003156736473207689e-01 -5.482615498102781926e-01 3.865174248747448721e-02
7.072078400359240735e-01 3.086843143757453389e-01 -2.855535595074550070e-02
5.179172148539920029e-01 2.516248369753478209e-01 2.890329587671395251e-01
4.489768357999193715e-01 -9.012025687116478889e-02 2.916315697139411078e-01
2.854485269561925498e-01 -1.514372659279183131e-01 5.617608148231917342e-01
1.455387462203202587e-01 -6.096257367755073542e-01 6.499464489926555233e-01
2.077553120783944829e-01 -2.390362316635563367e-01 6.695041620439766694e-01
5.517747530500362041e-01 -2.073197795548296085e-01 6.695627883560487104e-02
4.762825524523364717e-01 -5.288324224220763980e-01 8.837058695298086186e-02
6.371582129921629090e-01 -6.362973059318725866e-02 -3.474662759343594837e-02
4.881558901802919848e-01 1.415610000548727931e-01 3.033533154005656485e-01
5.126742844138594268e-01 1.501892975414191311e-01 2.626527532079857008e-01
6.190295747290349704e-01 -2.300064390543709036e-01 -6.101640141097868647e-02
5.506748434159949301e-01 1.039469575485062469e-01 1.785707103273301843e-01
3.001562756141029631e-01 -6.857869901148024860e-01 3.472833010957043776e-01
4.900106339567955605e-01 5.706035792908670246e-01 4.511864920891980324e-01
2.313473665875134810e-01 3.603227706696318644e-02 7.243170174342337120e-01
3.322985452713543841e-01 6.808204299588557946e-03 5.339280146373127645e-01
4.243049725302332487e-01 -5.313878651110293116e-01 1.801968825219698311e-01
6.081486871241524872e-01 5.656875863731908316e-01 2.386997815571512971e-01
4.699508765840169078e-01 -7.731238656220335015e-01 1.360777169806588228e-02
1.935798119245850379e-01 -7.056154065928456065e-01 5.304275705474758018e-01
6.341984428389391137e-01 6.822089032643261497e-01 2.332755820812665026e-01
9.435678474892909839e-02 -5.192278401934241616e-01 7.730987408002976125e-01
8.734637343020240641e-01 2.281037145852177761e-01 -3.535378505475944566e-01
1.520353897244060559e-01 -6.130104394936889411e-01 6.371642681325215829e-01
1.862176810990512632e-01 -2.367569396245747526e-01 7.087296244334764239e-01
2.989002119683544234e-01 -2.194407370988505496e-02 5.833809121620988636e-01
8.473638365220622637e-01 2.256510971992069237e-01 -3.078403788575276856e-01
4.236327321978304861e-01 -4.681830122547101652e-02 3.520990262933498816e-01
6.875702142017962037e-01 5.328911721928869527e-01 8.546060819765673167e-02
3.946888851907676132e-01 -6.099471415052161172e-01 2.053564832702466647e-01
3.644442763652607775e-01 -1.761292353727564597e-01 4.121362290683007190e-01
3.406126621321476922e-01 -2.743110608840189021e-02 5.070341334422963087e-01
6.593207442994554190e-01 -4.690658970756052953e-02 -6.839276746150570185e-02
9.101162300049352172e-02 -3.832965501098993810e-01 8.269519298234745408e-01
3.149191219907032657e-01 2.038519121331951178e-01 6.343464470978560366e-01
8.158191144010822349e-01 6.091748137643003547e-02 -3.095974173668114560e-01
3.986233155704956843e-01 -6.697850846515714940e-01 1.772580191072211098e-01
2.704293355694125101e-01 -4.610595223699288092e-01 4.794817131369375485e-01
3.424716647135757075e-01 -6.778590387803682393e-01 2.745866915432751965e-01
2.721881607343103471e-01 -4.965221420513946105e-01 4.638513412021316729e-01
2.310519048346884041e-01 -2.624856226239358770e-01 6.196830154736900909e-01
3.593732143084349406e-01 -1.784341458309902373e-01 4.203708913811746162e-01
2.394060645103603113e-01 -7.011022986282260394e-01 4.502647086624596562e-01
3.204250577916854525e-01 2.574953071876285304e-01 6.434213681938851792e-01
3.508440704283706246e-01 -8.909809926490512844e-01 1.845725194886277121e-01
2.147710955428470958e-01 -3.894700885297457948e-01 6.039937626421449934e-01
1.377074845516072787e-01 -2.841305954818849067e-01 7.785817651849297194e-01
2.743162741723747522e-01 -1.094611717599886097e-01 5.964076638878281766e-01
7.269878449208736493e-01 -5.249550974850097917e-02 -1.910777950826826888e-01
5.793938653399893779e-01 8.080447738954388281e-02 1.191842224971505076e-01
4.363786691430014963e-01 -9.244462087159852418e-03 3.425970511168280330e-01
4.990696707348942773e-01 -5.494512030203606567e-01 4.045548825609056320e-02
2.176190262945370546e-01 -3.438249100009773129e-01 6.149928983453600839e-01
8.027601818393844679e-01 2.003279695868938615e-01 -2.371894955239945146e-01
6.235733488301987704e-01 3.304078824654878010e-01 1.282989122819053751e-01
5.172118713711355564e-01 5.323293786114030590e-01 3.891771259954756590e-01
5.013803900043941608e-01 8.130006540726490705e-02 2.585326219744386589e-01
7.560238941723571582e-01 -8.376447059749794755e-02 -2.538926257784258067e-01
3.874638961942164506e-01 -9.158574988116474636e-01 1.104803648361381840e-01
5.653738384182658283e-01 6.246790581152230626e-01 3.357902515670553867e-01
3.449753483475649918e-01 2.088052037760784740e-01 5.824719289846500558e-01
5.313639058853097952e-01 4.446015917777683679e-01 3.330257869890989042e-01
4.566115557353447874e-01 5.429895063635158392e-01 5.010416824075231146e-01
6.901104388011789492e-01 4.396220114494721609e-01 4.807230634233618238e-02
5.621104362303712687e-01 -3.215634297930338170e-01 8.272263435406840976e-03
5.741594482754800444e-01 -6.873025952720930587e-02 7.584457106205833021e-02
1.632482176439128407e-01 -6.504719362528421644e-01 6.039640657756987219e-01
4.475747218024235807e-01 -5.118962519414066437e-01 1.455507674871116819e-01
3.773377654886639343e-01 -4.666210557709179474e-01 2.868009209119282699e-01
4.944773837780981340e-01 -4.730959360969611560e-01 7.554622898742729964e-02
6.873543629368579211e-01 4.001937781064316413e-01 3.909939317050899893e-02
4.982231335369301517e-01 6.550602513371811542e-01 4.662878004340864080e-01
5.308116052815421426e-01 -3.820147061262053612e-01 4.281286922788744148e-02
4.212532706581954556e-01 -4.461981582781212596e-01 2.156514365589637938e-01
3.901683677060373001e-01 4.104722051406999861e-01 5.728915899899105213e-01
7.610368224375495538e-01 1.443645645976809194e-02 -2.282415836041474522e-01
6.455145770519243875e-01 -3.707488398088354398e-01 -1.578452514269989837e-01
3.801884900618666685e-01 9.859208788773439480e-02 4.808271030656958156e-01
2.353051466014723647e-01 -1.024608656350139008e-01 6.684684522229199510e-01
7.364578956877285698e-01 5.058075257305645334e-01 -1.129457673345573947e-02
6.501432991384926696e-01 -1.994902758394396372e-05 -3.550336508830977816e-02
5.208165302958678300e-01 4.780443565923307714e-02 2.120593500330933134e-01
7.172166059602018695e-01 5.872554174163217011e-01 5.172358354985091139e-02
6.312616796499048721e-01 1.081662883292641986e-01 3.629246754216863824e-02
5.275926262816960088e-01 -2.978036827768008599e-01 7.822107285730341142e-02
8.294930258088990538e-01 3.435526313415928623e-01 -2.344253211609673149e-01
5.835868711572514966e-01 -4.364013645852170276e-02 6.786499980314945890e-02
5.594491072795479969e-01 -4.907787700548930099e-01 -4.659073477839074245e-02
7.983947482198128220e-01 3.704673461427571701e-01 -1.694654362240203271e-01
5.276356665686737779e-01 -2.906396972109384080e-01 8.066800012751554338e-02
5.063923570935076057e-01 -1.265870478100085961e-01 1.763574924268236366e-01
1.079542125107320616e-01 -4.622158091255417767e-01 7.689253652072050027e-01
6.173241316609885676e-02 -3.965190575930378492e-01 8.745272151045088149e-01
4.588513372147625669e-01 2.496788442423300280e-01 3.937192707247442747e-01
6.758242707749489986e-01 5.583067092430273881e-01 1.153683545427667406e-01
5.855580428685173144e-01 6.407598359522826970e-01 3.054471004314484039e-01
4.441412533536713281e-01 -5.138320159560125777e-01 1.509940514418944835e-01
2.894137626709171185e-01 8.480889785019116167e-02 6.379111220340845101e-01
4.480862347128503620e-01 -7.276820456475791010e-01 6.862179353866861009e-02
4.294272135908587251e-01 -8.064760461035130890e-01 7.415161268006854878e-02
6.581497602719909024e-01 5.032647411108286811e-02 -3.205075842902526534e-02
5.867335499204571203e-01 -1.275607126309635797e-01 3.268809569829694145e-02
7.411949678600847635e-01 2.321658638274144149e-01 -1.161431403393216738e-01
2.136581731131476092e-01 -6.910630199710380284e-01 4.997348231513074057e-01
7.588842228450621841e-01 -2.946275719305159468e-02 -2.398661063690905038e-01
6.695240740640253652e-01 1.712661257518638680e-01 -9.737908764624717689e-03
7.341870753130232963e-01 4.750109321935306328e-01 -1.809244058495129703e-02
2.539943403254812382e-01 -1.482025197801812577e-01 6.190137145226705107e-01
4.090063010494365270e-01 -1.415075315661553368e-01 3.448352903284730986e-01
5.905081006599655069e-01 5.270218256325778228e-01 2.565490126210120958e-01
5.269128051568631177e-01 -6.549925823606984610e-01 -4.639570783455759101e-02
6.550997065858119583e-01 3.932983873548481224e-01 9.421169014886825177e-02
5.337279479364406276e-01 4.890856610318687903e-01 3.444791338247853996e-01
8.146763080584823458e-02 -3.621383474407209313e-01 8.514316954585403607e-01
2.766569018927890200e-01 -1.536606359312126246e-01 5.766615802847361305e-01
4.717434636758185973e-01 -7.233128004452606952e-01 2.795715793794006226e-02
6.677094148445377186e-01 2.187841084363309763e-01 1.023890097099330182e-02
5.401026332116357631e-01 2.701224045247193131e-02 1.703288728606431879e-01
4.305402801895844567e-01 1.851667305514600459e-01 4.214992319898465123e-01
7.006561130411389504e-01 5.740402844446943487e-01 7.661163846764125485e-02
4.929155725974330715e-01 -3.344835988252999326e-01 1.271624436818489801e-01
3.860519904538899372e-01 2.330161620961484215e-01 5.177213434352770927e-01
3.243922632602441736e-01 -4.477099586617698523e-02 5.298624118455415033e-01
4.489926795655885261e-01 -1.393544121025236393e-01 2.742592267130568584e-01
7.498382094995830194e-01 5.322822505719083663e-01 -2.583822881875583177e-02
3.811005178236135382e-01 2.977912377706398162e-01 5.493734219748129810e-01
5.120496137105045031e-01 2.281815189445522696e-01 2.912420417012009932e-01
1.713132024193950165e-01 -4.303569014291455663e-01 6.671179060829731666e-01
6.898504679400938588e-01 5.162034879019774536e-01 7.551400721290005280e-02
7.797572497372561307e-01 4.370893194991035680e-01 -1.127472576545176935e-01
4.295080379023067385e-01 -7.949786311746870338e-01 7.805770337939352266e-02
3.285255123567593638e-01 -3.162033478374017825e-01 4.268693412537348242e-01
4.376660046429718953e-01 -7.531156400938177065e-01 7.825150731635018009e-02
9.587908731427030595e-02 -4.400603164162484870e-01 7.982719226305419191e-01
8.611276098527485823e-02 -4.275722695815787344e-01 8.200940264212526198e-01
3.162500469680092907e-01 1.911503837806961537e-01 6.274976540339951558e-01
2.711507747466563867e-01 -2.820095110097800006e-01 5.412699513413683494e-01
1.732865409593988271e-01 -5.273824233922017601e-01 6.294176317801853937e-01
6.817405204225461812e-01 5.172175501772183770e-01 9.033915346705928551e-02
5.198503531155793667e-01 1.363608988081533024e-01 2.449794195227910920e-01
2.126475120744114600e-01 -4.927469457631665217e-01 5.714000764784797903e-01
5.011474600207039831e-01 -6.780412535328479429e-01 -8.550591952001149534e-03
6.228776781661393702e-01 -3.850621256009862936e-01 -1.225039159401834499e-01
3.833357524257299254e-01 5.840121677315592008e-02 4.610541428391480845e-01
2.439311394799868471e-01 -1.488693455194698145e-01 6.367312702162827298e-01
3.794019488434210441e-01 -9.302653823448909787e-01 1.197870778225777338e-01
7.194984961424020220e-01 1.663028818127957054e-01 -1.006392909389105667e-01
3.500626312225292858e-01 -7.349406844119811266e-01 2.409360524197903253e-01
5.343535646301548203e-01 -1.370661021017011150e-01 1.227839620703776446e-01
3.211068483370674298e-01 2.129257963331234182e-01 6.265042437324206404e-01
6.078460926025123223e-01 7.295661761728543526e-01 2.969703183559808113e-01
2.381597961322508006e-01 -5.924876028754452184e-01 4.907505140676099442e-01
6.278846471540674434e-01 -4.083471170213497092e-02 -1.017268157012254405e-02
4.524025621136189002e-01 5.827295693266385523e-01 5.225499314123313033e-01
4.565909973619762807e-01 5.472725501943009885e-01 5.025871773282387656e-01
5.961166857861497359e-01 3.667868064557792684e-01 1.900962873477081427e-01
5.114054201073650052e-01 3.992917668031515377e-01 3.526695309207497631e-01
6.038060050267272105e-01 3.856699000468870597e-01 1.830308474623805748e-01
5.250979272851179491e-01 -3.892592023964229209e-01 5.045383580534536921e-02
6.119995050760774769e-01 5.410963268444171081e-01 2.231670881970601872e-01
4.007249895122487748e-01 -1.552678672328052234e-01 3.547614592193616967e-01
1.335446792370398872e-01 -3.369814825413079418e-01 7.673899202309034662e-01
3.649517560012296435e-01 -6.288743929606923633e-01 2.517390314808748419e-01
8.528824991908064979e-01 3.530775028521962455e-01 -2.727960780219337855e-01
4.537944981231074593e-01 -6.412299662188899463e-01 8.889352463200078658e-02
8.952034586360601010e-01 3.121103833560639473e-01 -3.627272513299956702e-01
2.256075091193103788e-01 -3.040369359626836077e-01 6.147580752310288776e-01
4.905676338413568205e-01 1.296344648029597590e-01 2.948493851527123066e-01
1.726172299928957488e-01 -6.766336846462713828e-01 5.780338233217350297e-01
5.739468792579495160e-01 4.154470643462177537e-01 2.467884970420751167e-01
6.939284972187925726e-01 -1.971042802122920448e-02 -1.205514196374838504e-01
4.388608975224535524e-01 3.135776662232021561e-01 4.518917532517398583e-01
4.609741343457529617e-01 -4.250389880442264623e-01 1.522444451945511312e-01
2.933566188828914956e-01 -1.574696589341845754e-01 5.455279288899070878e-01
2.967474185510609597e-01 -6.988875631536504152e-01 3.487495696041149063e-01
4.262980625809636992e-01 -2.472395296661668643e-02 3.551274915578221947e-01
4.015309889187368420e-01 -5.250050989994524686e-01 2.230735237550081074e-01
2.662480970401147062e-01 -7.631137689452642814e-01 3.805340511817520421e-01
4.643400208188682154e-01 -7.114370942670037445e-01 4.534823125520050929e-02
3.462459232324927028e-01 -5.938067754072363647e-01 2.974632313425585317e-01
4.159435203963884886e-01 -4.180329168888611280e-01 2.350458564415822960e-01
6.276951842605443810e-01 -3.472353279497487621e-01 -1.177726850424656857e-01
3.496932201317207722e-01 5.689245177248839630e-02 5.205399572104214556e-01
1.032880551214708093e-01 -3.665250004649700521e-01 8.109593622602047081e-01
6.065050633170260275e-01 4.459646226318386142e-01 1.994562700807084865e-01
2.843319171277297608e-01 3.833949942076502609e-02 6.306068725974245393e-01
6.931113805412593143e-01 1.226949537378978772e-01 -6.892751500341197379e-02
7.755062891549966420e-01 4.891373819068827178e-01 -8.682831125076179157e-02
3.164588203237517217e-01 1.859320100914746698e-01 6.252868934203795748e-01
3.131418023029828857e-01 -9.066566063224038574e-01 2.463101267636397806e-01
6.441379684410867279e-01 -1.535230732548264754e-01 -7.886570158993100321e-02
7.396446408285840546e-01 -9.767832988371529315e-03 -1.986051648848483342e-01
5.119937599315762533e-01 4.596227224918272292e-01 3.728731791865647627e-01
6.435440482271747031e-01 -2.228559138000503828e-02 -3.157417135756004217e-02
8.274415462128502652e-01 2.051223819728638376e-01 -2.795313827159431330e-01
5.696336832803375883e-01 2.301530508878675274e-01 1.892082299634994524e-01
4.184455376211708710e-01 -3.558426339342219968e-01 2.524905577018969893e-01
5.457338811323018124e-01 -2.398553599613078569e-01 6.627147371266524367e-02
5.010589318118374713e-01 1.042048031462971674e-01 2.671749147399471447e-01
3.815701461873594047e-01 4.580667400193860761e-02 4.597671617484032636e-01
2.991277883173410479e-01 -2.416087923437491569e-01 5.055920155122654025e-01
5.171730073361268110e-01 -1.640969732260280645e-01 1.439112224004389096e-01
5.029980060452476920e-01 -5.520568269954255758e-01 3.252954776696376921e-02
5.985082427490846513e-01 4.139263900750070335e-01 2.024360259526545025e-01
2.838909592064090548e-01 -5.125233107025189971e-01 4.373370330615322099e-01
3.505086956091712502e-01 2.895055023681976647e-01 6.010294833361947697e-01
6.501914200681570000e-01 -8.607751712982038284e-02 -6.590534426270928947e-02
7.256364527041447854e-01 5.854597823382251542e-01 3.607025551137491709e-02
3.210271003488063823e-01 -3.551492068602928320e-01 4.265265500613271143e-01
6.003713049384332701e-01 -1.444631773779772067e-02 4.820636998928198858e-02
2.951930216935502380e-02 -5.304877229777088532e-01 8.848003587754210697e-01
4.817607481726596808e-01 6.006606748792745476e-01 4.764924872912018050e-01
4.686905615505184142e-01 4.700497481322368221e-01 4.537980551370265903e-01
3.000383639827958748e-01 -1.823255829157073016e-01 5.248517069419899039e-01
5.692453404858940358e-01 1.839462998511840475e-01 1.736234302125370110e-01
5.174309705632448297e-01 1.475601760067910828e-01 2.532407807885276307e-01
2.903589009586751701e-01 1.390796171226311717e-01 6.553433679375988419e-01
1.703702319652013741e-01 -2.196969535347464419e-01 7.430108685593123097e-01
4.435984661835642440e-01 -5.612169509796169908e-01 1.352697285090683765e-01
2.286991429144154264e-01 -3.706361578013027680e-01 5.857812907374464473e-01
