2.567384378478900775e-01 -4.986173693109563487e-01 -3.792790739836912062e-01
-1.745490395636644654e-01 -1.119222227606717357e-01 -4.123571891548147850e-01
-8.403090492645782783e-01 3.542943964186534012e-01 -2.702808044977819679e-01
1.803419197197654034e-01 -4.996154049091374172e-01 -2.824498521290862985e-01
-6.080283427410629882e-01 -1.985930713312937246e-01 2.567581112462867798e-01
-1.793479992538123680e-01 -5.173020782563146902e-01 1.926322708326649868e-01
8.163873515502616252e-02 -2.586674095165850118e-01 -5.152841446537728132e-01
-2.333628853528066927e-01 -1.816074705686054336e-01 -2.359798434714305559e-01
-7.478005140153833885e-01 1.729248465677393765e-01 -1.177492780523076710e-01
-8.470146687128935481e-01 -4.031372774388454483e-02 3.211718721805628118e-01
3.238602155988411918e-02 -2.638916386947962045e-01 -4.460897965501932072e-01
-8.969016868921719787e-01 2.791568648498123917e-01 -8.861943143376073417e-02
-3.650736301669246786e-01 3.724271154978614495e-02 -3.949633765833600041e-01
1.470339345876910953e-01 -5.424816167063996053e-01 -1.775362006428854167e-01
5.112661374916167567e-01 -5.787266065238676482e-01 -5.785969835159842090e-01
-4.273755518074311421e-01 -2.475809817089602571e-01 1.036616804942364356e-01
-7.846747715605437712e-01 4.653727884399398440e-01 -5.038531315456782345e-01
-6.939932929400383088e-01 3.731165806455699618e-01 -4.807173098959037771e-01
4.097752964825929767e-01 -5.179255571895523547e-01 -5.417621279195193873e-01
-7.101768594032876747e-01 2.278995268344232439e-01 -2.459413250726527611e-01
-5.103349097356761899e-01 1.369802557747761274e-01 -3.610299013702082949e-01
-4.090469029299868553e-01 -8.594802401008802550e-02 -1.580482529394066638e-01
-5.458480770050501141e-01 2.142576244941554187e-01 -4.308910691921344904e-01
2.770133074974100995e-01 -3.588490603787811706e-01 -6.111104241990282793e-01
-7.359708618105691436e-01 2.497019367142516155e-01 -2.459622761669695012e-01
3.223065617680332395e-01 -6.690792867655724896e-01 -2.092392041285060789e-01
-1.371922958030342976e-01 -5.270425881889750919e-01 1.544083537853747634e-01
-3.295780715804967897e-01 -1.626054063684247986e-01 -1.439665612838223752e-01
-3.258142008373997034e-01 -4.476443948595543350e-03 -3.823198387376051666e-01
4.795368349764008720e-01 -6.094838533767958921e-01 -4.935462843916630926e-01
-5.087421744617680597e-01 -5.790111737877710191e-02 -7.505618401652958127e-02
-4.604465701637500685e-01 -3.017984324878800109e-03 -2.164331783620686012e-01
-3.178439766188455029e-01 -2.895653966067279206e-01 2.898682350260459173e-02
-3.761790999934488400e-01 -4.359878223706711159e-02 -2.616486018431853355e-01
-5.297136118633319901e-01 1.428907638282674863e-01 -3.455758450555841965e-01
-7.592000267206437947e-01 1.369181263543760019e-01 -5.031649937831767644e-02
-5.659879481941109125e-01 -1.356459402178069318e-01 1.112730026214398954e-01
5.355760595301043425e-01 -6.566270458072660521e-01 -4.938317930722734284e-01
4.586765398043430308e-01 -4.852091529203642062e-01 -6.511409275446283784e-01
-4.319445930478221785e-01 -2.259057213833430278e-01 7.733662218724535187e-02
-5.181891485117714469e-01 7.185748206068746924e-02 -2.549995407281576143e-01
1.225219854750366211e-01 -6.845750167548179110e-01 6.301928456753301544e-02
-7.121463327896575546e-01 5.303435205309210004e-02 1.490212576331760227e-02
-2.906688969716028637e-01 4.372212721695919319e-02 -4.974059744245943326e-01
-4.545607635369589006e-01 -2.175207884416809623e-01 9.317525906614528008e-02
6.817264592629630748e-02 -3.312582156583454562e-01 -3.912143838601578327e-01
-8.421594424120821820e-01 3.004852570995994454e-02 2.111427471503305453e-01
5.052009248188378265e-01 -5.430285248130682918e-01 -6.237750708146541090e-01
-8.470371301158143851e-01 2.772517156010254613e-01 -1.480429014548329814e-01
-8.331008613302223198e-01 2.993424820065799241e-01 -1.980793696449524854e-01
3.310637534778530511e-01 -4.568036413090421077e-01 -5.338334288516750625e-01
-6.074811923086642640e-01 1.225335101501160012e-01 -2.184296534325078087e-01
-1.044869649295204067e-01 -1.533393135969340626e-01 -4.386063860415918003e-01
-9.693836307143197661e-01 1.185805584981983879e-01 2.391207331115013934e-01
-4.886462229989596007e-01 3.090119039429309669e-02 -2.313555522110996576e-01
3.525550813800966687e-01 -6.201743002203241595e-01 -3.192572241049234094e-01
8.655209940727918994e-02 -7.094768612484341208e-01 1.447107862563973835e-01
-8.432110604855144187e-01 1.360612621399202027e-01 5.580820015230637809e-02
-1.979851704739070128e-01 -5.185954446123280936e-01 2.178054123465242298e-01
-8.927711943952478801e-01 5.163256643856734690e-02 2.424207980780811456e-01
-8.238382534848006644e-01 1.219312475757914072e-01 5.250685457978052084e-02
1.392140062820525562e-02 -3.061476227910795989e-01 -3.606046140436018344e-01
1.509394857857897787e-01 -5.238916609057859830e-01 -2.098799172520944833e-01
2.692206024329196756e-01 -6.559363291658916184e-01 -1.624002053124640743e-01
2.614663204815584341e-01 -5.968207939167193832e-01 -2.400723040735663616e-01
2.339421878247865405e-01 -8.346075763874539755e-01 1.456418309460781602e-01
-7.842772766168961684e-01 1.322640836947624188e-01 -1.213933695176291731e-02
-2.780601354219772170e-01 -2.219186026155703650e-01 -1.206261044832111773e-01
-7.546718457398674529e-01 3.922151040147323631e-01 -4.332016932449578306e-01
-6.568702863957408544e-01 2.387966789701584103e-01 -3.285779634453134812e-01
5.158863880142149361e-01 -6.666065552846411890e-01 -4.545101038695127937e-01
3.864953145093136255e-01 -8.625029485676479757e-01 -3.548808966986332237e-03
-3.164264324188861832e-01 -3.439398429770683663e-01 1.075625828193281508e-01
2.944015444186584562e-01 -4.920246566893914375e-01 -4.360299321184721300e-01
-3.690492647910327273e-01 -3.535978872215483904e-01 1.875148711996420248e-01
-1.641545007088832386e-01 -2.491368980928618942e-02 -5.538971882420896664e-01
2.364790510553664293e-01 -3.417815294337944176e-01 -5.857369135203557287e-01
-5.690549766866421777e-01 -7.889357414861870865e-02 3.124237624298472488e-02
3.076335912506808490e-01 -5.289887642021925407e-01 -3.979264341620381007e-01
-4.488758957678446460e-01 -9.009649182963277991e-02 -1.022057171584828256e-01
-6.015455935611360161e-01 1.046676582828190566e-01 -1.994391464053667518e-01
-3.560374981161549268e-01 1.200931124592685834e-01 -5.286637148380105566e-01
-1.895390980106691561e-02 -5.729947968306761119e-01 7.472898317136877910e-02
-7.046873433657686592e-01 7.987566136210076662e-02 -3.406923402841127713e-02
-6.059812622045112063e-01 -2.445303100325392325e-03 -3.562990872577459500e-02
3.371387230452694284e-01 -6.394662684161854793e-01 -2.715089542711139892e-01
-2.597015052807294944e-01 -2.790107621653068956e-02 -4.302257248336482376e-01
1.577978456936786344e-01 -7.239853471379142924e-01 7.722334488676663167e-02
3.472304798808354409e-01 -7.333638050445820955e-01 -1.453596069623437070e-01
-8.845405466517968218e-01 8.590093567797904561e-02 1.815118776663744160e-01
1.128263334631969816e-01 -7.420782216328831726e-01 1.600891400993992020e-01
3.546354499711604769e-01 -9.138660624340699812e-01 1.121126067821009847e-01
2.049510144895253239e-01 -3.176678714754646582e-01 -5.820160751884487782e-01
-4.369134431717553446e-01 -2.842897109324344918e-01 1.698081784275892459e-01
-3.425666929226267587e-02 -1.671757612224509248e-01 -5.058194111272463767e-01
-8.445934122747938977e-01 2.416964583176681725e-01 -9.855567763989273034e-02
-3.040324189035522595e-01 -9.407230517616878285e-02 -2.771176899689816731e-01
4.714542966042843675e-02 -1.796580786568159338e-01 -5.889774469062597495e-01
-7.791745738539057609e-01 1.909306884372997670e-01 -1.051955611145450747e-01
-7.776249253008848950e-01 3.696064385812216635e-01 -3.711456100369130984e-01
2.023683455597692638e-01 -5.142513463564895027e-01 -2.883157479944330470e-01
-4.909078766422249607e-01 -1.287297308320975164e-01 7.342062023166722774e-03
-6.948057154549360792e-01 3.847582381890581327e-01 -4.969052932522199373e-01
-1.313474713390030794e-02 -6.693607122605036430e-01 2.098585187833678367e-01
-9.811056428407178079e-03 -5.402739111614943690e-01 1.496809233830702357e-02
-7.198007674719543170e-01 3.537100207790150885e-01 -4.198300196570700638e-01
3.831090009118367362e-02 -6.575968795900954955e-01 1.282639701383733732e-01
-2.796596484361690282e-01 3.562467286739558897e-02 -4.991821892894606760e-01
-4.069145448878321303e-01 1.002871823710000387e-01 -4.358956577057648274e-01
-7.150659776150175562e-01 -1.273459339620058688e-02 1.157281608824259622e-01
3.625366445602021814e-01 -6.328228947053968767e-01 -3.130258501180990804e-01
-2.082182573803419146e-01 -4.405303116785516671e-01 1.152268305256785585e-01
-8.142426493087855099e-02 -5.991092902358912120e-01 1.912889504461203760e-01
-7.271851108332954006e-01 3.866659698946393053e-01 -4.593097856451185401e-01
-5.176930953765636056e-01 -1.118021072905926311e-01 1.576140876902416138e-02
-2.624316632066978072e-01 -5.857392632935790044e-02 -3.814950849795677446e-01
-4.393095026599664887e-01 -4.753074290973894646e-03 -2.402516470711937302e-01
1.267150274388292586e-01 -3.392545299977404172e-01 -4.524686407339172378e-01
-5.687263873859628172e-01 2.721836087015329086e-01 -4.879283642740341320e-01
-6.059830964642396456e-01 1.908432916053565964e-01 -3.212357829199632420e-01
-1.187428751758606293e-01 -4.765717661285511220e-01 5.680368921401923038e-02
-2.082999104523395040e-01 -4.588437480640197297e-01 1.423891472862352237e-01
-4.059147327356629753e-01 1.218760552871122754e-01 -4.690438456079089047e-01
2.585136736639130350e-01 -3.879631071266718689e-01 -5.450004024915183765e-01
-6.362086070132555449e-01 -6.977135569875983837e-03 8.794776230341232875e-03
-5.469169153076064438e-01 1.925616661722316381e-01 -3.974984940030414360e-01
-6.350020265748324011e-01 -1.692457115239756893e-01 2.470609716876144835e-01
-7.543214667964546205e-01 3.556050435364599416e-01 -3.795430592817015669e-01
3.417094011819301613e-01 -9.328133914868051990e-01 1.562433431313926535e-01
-3.711804278818506275e-01 -2.665806584924639011e-02 -2.929197416920663044e-01
2.434807059952347752e-01 -6.804769685996286954e-01 -9.401101575583656333e-02
-5.658708411598867283e-01 2.198937129955176040e-01 -4.142276359615760239e-01
3.039234891414659967e-01 -5.133801117385862200e-01 -4.163594047216408467e-01
1.371780282890204261e-01 -5.135646343649874490e-01 -2.079629989195846407e-01
-8.105233920874192755e-03 -4.266563922919991425e-01 -1.550451815325704918e-01
-4.297685158873317812e-01 8.733449989805129252e-03 -2.720882854872999634e-01
4.995245892036674906e-01 -5.937446910209074336e-01 -5.417506364319248924e-01
-2.194006919044760306e-01 -5.077828123132693827e-01 2.285582256299409087e-01
-2.871560659932571868e-02 -1.439690348841383138e-01 -5.470263534133125161e-01
5.287168194933515863e-01 -5.816412009901253954e-01 -5.960714152693894485e-01
1.573390522576906259e-01 -6.059602100226085808e-01 -9.660096763544867571e-02
-2.028845020743640093e-01 -3.523247532953647232e-01 -2.176529467594572401e-02
-2.891471020942491532e-01 2.664389062862469043e-02 -4.740701678661421448e-01
-4.554350941788589680e-01 1.391438102447237757e-01 -4.327501623415475618e-01
-6.413404021489167439e-01 5.378686806249754343e-02 -7.458640477637856758e-02
-4.368794958024270203e-01 -7.376372158319589867e-02 -1.413127712174661876e-01
9.216557072007917906e-02 -5.775135505957541548e-01 -5.728803936967924448e-02
-2.727908713163580967e-01 2.855738673786393025e-02 -4.973126676074816621e-01
3.155670179129848596e-01 -5.146239139166208787e-01 -4.290544294712932971e-01
-5.892760940038774820e-01 1.942307812607872441e-01 -3.470941096914342827e-01
-2.477202909759360361e-01 -3.611353161961390890e-01 4.721531647737377962e-02
3.158307302574506203e-01 -7.191975855398299311e-01 -1.271003011971356123e-01
-1.426675750644810503e-01 -4.302175519247311009e-01 1.817119059869301903e-02
-2.397782340571008239e-02 -2.017213049318204721e-01 -4.676035999043477998e-01
-4.797962768495450669e-02 -2.684633620027609968e-01 -3.390259218649226969e-01
-4.705899097179047086e-01 1.776239139490204400e-01 -4.706938265707466540e-01
-1.631414418505501562e-02 -1.467977127703892493e-01 -5.583255420531257895e-01
-4.634797417046033208e-01 -2.964191814396741620e-01 2.208897836039636631e-01
-3.011023404983618201e-01 6.738967263369827210e-02 -5.193552161555256008e-01
-4.745013072687495614e-02 -1.897144954760715541e-01 -4.560481509974653180e-01
-2.024693625833272059e-01 -1.252394342324187060e-01 -3.578305186577258046e-01
2.086862434863442917e-02 -6.430230294018921544e-01 1.284998955969311463e-01
-1.744217364880983334e-01 -3.114603018236428711e-01 -1.176735214846637151e-01
-6.568190217637180917e-01 1.952031461468640983e-01 -2.642270321535940547e-01
-2.963157683468928827e-01 -3.932120233660009179e-01 1.552672408209210264e-01
3.365287334030299116e-01 -5.201651199972111561e-01 -4.470300177709713996e-01
-5.686648466159607285e-01 -1.257091274951509241e-01 9.993129162468933346e-02
4.646926443005731100e-01 -8.519048156149280349e-01 -1.168110672693966068e-01
-1.813779851454539460e-01 -2.698766814940106173e-01 -1.704360822277198872e-01
-5.277582918533541001e-01 -8.010059449829361189e-02 -1.851865676937535302e-02
-5.719545589851118272e-01 1.773718036422616551e-01 -3.438027696761182805e-01
-7.619791430490528983e-01 4.454330336321897787e-01 -5.027172442777374517e-01
-4.029300454083749039e-01 -2.011640635857830095e-01 4.563138941194319967e-03
-1.184007794569322432e-02 -4.231497955196791838e-01 -1.555649638655690337e-01
-6.879672678859670709e-01 3.616137198339091086e-01 -4.712417867602977650e-01
3.297830009691400943e-01 -7.605182082825846512e-01 -8.345845426096457076e-02
-6.869291270068936806e-01 5.748117146687625051e-02 -2.314352458166880552e-02
2.555120830726751585e-02 -1.643687803189362029e-01 -5.846164249435189531e-01
5.046903212994981874e-02 -5.206990683408603271e-01 -8.919493370562550649e-02
-2.314340485428043603e-01 -3.263064274221708638e-01 -2.457645191783615346e-02
4.393548204401008239e-01 -7.873981297145554725e-01 -1.805023275259417526e-01
-2.267149025702565601e-01 -3.673082754271899120e-01 3.011871231083467632e-02
2.324383288460291908e-01 -6.929458465655895516e-01 -6.180411349095874668e-02
-3.286681255032950499e-01 2.107959449104497215e-02 -4.165199607936843629e-01
-6.357429215562097058e-01 -1.152728955788608900e-01 1.682341103842679153e-01
1.248867440681310642e-01 -3.254397265552191887e-01 -4.705997707818247444e-01
1.167216465793064206e-01 -7.876366478546490413e-01 2.225454896376961034e-01
-2.234921699639014492e-01 -1.002645877876001818e-01 -3.684943216543493105e-01
1.159725735860769741e-01 -7.754978980036244529e-01 2.055439201345422018e-01
-1.554513535553953274e-01 -3.703816833193678271e-01 -5.428771284865393371e-02
-7.398059853274091546e-01 2.852076072542793564e-02 8.564749656943594636e-02
4.203083262352492189e-01 -5.366425563765595541e-01 -5.272522385106724885e-01
-1.526722383835252828e-01 -6.766254244206236501e-02 -5.050620054027342709e-01
-1.364305287186207138e-01 -9.020594317596603018e-02 -4.920234299982073622e-01
-2.628464087415788297e-01 -2.930979351090183815e-01 -3.443875482472649047e-02
2.792228196769976356e-01 -3.897337101268975035e-01 -5.682322849903915785e-01
-7.680186836035381992e-01 -2.525843235824033750e-02 2.003267532749329338e-01
-8.270851886353317584e-01 1.962317737386851460e-02 2.077325417598414325e-01
-2.266063136968614888e-01 -5.190470342134699822e-01 2.541962418453643235e-01
-1.694026803782127666e-01 -2.938492418592840716e-01 -1.499606204578733393e-01
6.389541718009536519e-02 -4.581526444253616326e-01 -1.983733019474915316e-01
1.055721789857530096e-01 -3.345479313806709043e-01 -4.330337335862998183e-01
-1.892845562702439310e-01 -4.941118702993400613e-01 1.707681650220095604e-01
3.366455135369935125e-01 -6.386673176303830912e-01 -2.720739037141278183e-01
-5.460137968729601443e-01 2.039374770455140984e-01 -4.154349121178971260e-01
-4.149877081419410807e-01 -3.018944990890969904e-01 1.684548037550084587e-01
-6.503886414939632488e-01 -8.827907337343664229e-02 1.466274401211701828e-01
-7.866143027384515651e-01 -4.512416445922814295e-02 2.528910333682769518e-01
4.065491549268520077e-01 -9.206594374861317709e-01 5.735445478203606701e-02
-1.669735571338113178e-01 -2.483562656271275648e-01 -2.202141199674712557e-01
-3.376092817770644516e-01 -7.281689454943288120e-02 -2.666161848739262430e-01
-6.434387016565412676e-01 -1.422403498809121647e-01 2.176874160949276160e-01
-5.743802037879644495e-02 -5.123338263319711094e-01 3.312881977979028475e-02
-1.189209130297459588e-01 -1.497626117080141372e-01 -4.258756448435534470e-01
-7.945966306127904000e-01 6.643623127397590977e-02 9.800970551992665980e-02
1.135382791325019181e-01 -5.227608942984490747e-01 -1.648683602794565051e-01
3.170492260774415150e-01 -5.219737957139792828e-01 -4.200440781376130750e-01
8.478151700925862233e-02 -7.005679552357704232e-01 1.337567159261563721e-01
-3.303648735763097255e-01 -4.016116661501529239e-01 2.101772405888402973e-01
-2.920284244230720860e-01 -1.986852749685081021e-01 -1.375217090163809996e-01
2.694168101168646356e-01 -6.197386609150493664e-01 -2.161317014106124978e-01
7.383290480784091003e-02 -6.153403081517585527e-01 2.148770491313784642e-02
-7.684129511550492619e-01 5.909835600126365357e-02 7.617111453833602663e-02
-9.403516307569578792e-02 -2.275733548428220954e-01 -3.419617127258182121e-01
1.266026553349152983e-01 -2.572928626688704146e-01 -5.734370359554828989e-01
3.151121802181946346e-02 -5.793777744725999712e-01 2.117246253119850138e-02
-7.486100194425214793e-01 2.721625513141164299e-01 -2.633750587031541412e-01
3.050876012630953094e-01 -7.223673499172263979e-01 -1.090075139547302258e-01
2.342709743526200095e-01 -7.817473924136721930e-01 6.712389749316940990e-02
-1.155443504080230915e-01 -3.273287314378710566e-01 -1.677138765564131218e-01
3.902508468387106411e-01 -6.530537175276893702e-01 -3.177238183100931646e-01
-8.630424706702193305e-01 -2.139597263352187653e-02 3.132236539161969424e-01
-4.022482938976930655e-01 -3.667414357443363748e-01 2.483735626644517080e-01
-2.204392938287947912e-01 -3.439518203230012006e-01 -1.222629845131273894e-02
2.018575069576102887e-01 -3.496649847546657308e-01 -5.308751545715613140e-01
8.235816989654096490e-03 -5.833255560831669406e-01 5.605705357573322056e-02
-5.901867235612826557e-01 -9.939856266346234408e-05 -5.881026880647564209e-02
-2.490711619181907033e-01 -3.081632019957766463e-02 -4.391863746679512959e-01
-4.814873133142017481e-01 2.279036430256631274e-01 -5.313868176006745214e-01
3.955345763119388208e-02 -3.247642179075749258e-01 -3.650889716528414874e-01
2.390847713176348366e-01 -5.028650437571692278e-01 -3.509681351488626033e-01
2.237785293773207063e-01 -3.748385349065223027e-01 -5.210388511776544718e-01
-8.850806048687591410e-02 -5.250577660949916625e-01 9.071018385509094228e-02
-2.395166756352148651e-01 -2.053879073549982545e-02 -4.662981698399374375e-01
-7.334865025415124862e-01 7.190836485303125913e-02 1.364918697161714156e-02
-2.917409653458042929e-01 -9.062032764697457166e-02 -2.975600276219462770e-01
2.288847396650523225e-01 -4.956654348334844085e-01 -3.488752669645491244e-01
-7.122472601593451413e-01 5.664565045815072968e-03 8.502290548830600259e-02
-2.067658095850157807e-01 -2.633612938277800075e-01 -1.483755109213439893e-01
5.064298797634427807e-01 -7.553333340028621778e-01 -3.116019861258506052e-01
-6.059745674882920791e-02 -1.204809562457851840e-01 -5.419395298219104040e-01
1.050881295771691065e-01 -4.551080962330811275e-01 -2.542867877636978968e-01
1.098689445052516284e-01 -3.009353634545305911e-01 -4.880635406129256726e-01
-9.342659889589890465e-01 7.583221501691497779e-02 2.584546075867140691e-01
9.278620883341401337e-02 -3.443287970411678667e-01 -4.026224371228424026e-01
-8.485519546480786435e-01 1.368853587005398054e-01 6.125674400204072362e-02
-4.863012935684681709e-02 -3.310605609038796415e-01 -2.457187769615525041e-01
-4.618654743508779359e-01 1.153293379720788381e-01 -3.895351953791414967e-01
-2.186107538653374871e-01 -1.506076334660665650e-01 -3.001989030437189343e-01
-8.119699185669024821e-01 -6.194310496675551475e-02 3.093908026269321931e-01
5.169697327392174246e-01 -6.534963165425639042e-01 -4.752343067765427698e-01
3.758117044342054180e-01 -6.108742528376961411e-01 -3.620270219585849381e-01
2.429522685378037172e-01 -8.364667780323158386e-01 1.371430807310168309e-01
-8.125977240023138926e-01 9.079183042532412706e-02 8.448935850818029003e-02
-5.525578310409654526e-01 5.810080652330129602e-02 -1.917749713792065158e-01
-1.954872511324615980e-01 -8.121655873254904345e-02 -4.315945830300230712e-01
5.911783573612943571e-02 -5.902602771865057552e-01 2.795459749177885665e-03
5.143033442085586104e-01 -5.228000638471539396e-01 -6.650263681081737266e-01
-7.966376917832079796e-01 4.068195786780773315e-01 -4.024018656793704740e-01
-7.496624134368928827e-02 -2.555422910374591239e-01 -3.244350191532111571e-01
9.370544079586781358e-03 -1.795970601643601949e-01 -5.419187945428001196e-01
-2.388978636551976342e-01 -3.685305944432357844e-02 -4.429641614416550133e-01
-7.533243239118636581e-01 -2.731601695765610918e-02 1.850262922175645586e-01
2.917444305190212694e-01 -6.573794179231650103e-01 -1.883810310412345479e-01
-6.880252254186722816e-01 -5.781673147879064223e-02 1.485916991073015780e-01
5.048857590651629756e-01 -7.396402514812473461e-01 -3.328631876346377361e-01
-2.634554375655899228e-01 -2.419746426954792751e-01 -1.092196764517351232e-01
3.830051367374034954e-01 -7.566980804393717008e-01 -1.555325102654897262e-01
-8.276194553270309617e-01 2.754566698020814441e-01 -1.696267137163738892e-01
9.887261021423224272e-02 -5.084998483016527349e-01 -1.676358558860770731e-01
3.533505989593600793e-02 -3.958765175851041151e-01 -2.547464182833507618e-01
-6.438592517585507435e-01 -7.513742646368511136e-02 1.190593334453066421e-01
-5.187113649726179387e-01 1.667865328530505203e-02 -1.728140884652323572e-01
-6.980321029173965908e-01 -1.200580990675982340e-01 2.530512417055957308e-01
-8.264800436137861306e-01 1.452911356064467974e-01 2.128704421647059294e-02
3.789539731539888767e-01 -6.476733697517350619e-01 -3.115737373580745873e-01
-4.019330218847549929e-01 -2.190977823713396999e-01 2.981802247608879297e-02
1.646910147321050955e-01 -5.386505497431522960e-01 -2.052358103325745975e-01
-4.858780346801078176e-01 -7.513629652761046052e-02 -7.812697455972816840e-02
-5.524718867907334463e-01 -2.757203541440115813e-01 3.013804290314285317e-01
4.321123072767569240e-01 -9.173423980022001878e-01 2.054640206816302217e-02
3.745828245957011360e-01 -8.653707700355761645e-01 1.555736038255914507e-02
-3.945006115758657034e-02 -1.817950646337475884e-01 -4.777354104435852511e-01
2.908335897472744680e-01 -7.351401332010216727e-01 -7.234294422499235044e-02
-3.618017130597739328e-01 -2.094952951477452308e-01 -3.446084808874293887e-02
-3.195572118020625907e-01 7.928696740222206107e-02 -5.139004704565682813e-01
2.957148578343459788e-01 -5.770395831734412839e-01 -3.120489210011916370e-01
-4.597280792192396937e-01 1.888499033600951060e-01 -5.008388552279898764e-01
2.571261781340491992e-01 -5.211290502602824448e-01 -3.464991982990576203e-01
1.567423370318091758e-01 -4.204073201725128106e-01 -3.700338646676396004e-01
-6.005133462322340687e-01 2.033554025443956303e-01 -3.465510795584603176e-01
3.845883691107839786e-01 -6.000860075689264939e-01 -3.889226239257365103e-01
-7.580693340678805736e-01 -2.439143992506624670e-02 1.866273584163511967e-01
-6.126118255265922130e-01 2.461425023668019352e-01 -3.946736447209560628e-01
9.077520504587703876e-01 -4.359533114819073157e-02 -2.858714151664513703e-01
3.475465319093834493e-01 2.427788201623690412e-01 -9.803300826873397045e-03
3.185957657557364486e-01 1.046669192343419597e-01 2.304093398368786960e-01
-3.605385124608754821e-01 6.396667927327932546e-01 2.875429569760399318e-01
8.353761623948902093e-01 -3.687427597909188892e-02 -2.054664780991625750e-01
-2.481143855990728397e-01 6.629244957920239489e-01 1.128543350051390143e-01
8.526540213900302145e-01 -1.814265006152899484e-01 -1.343782099936988682e-02
4.690631165183227758e-01 -1.831777616093544295e-02 2.243284785069568910e-01
-3.326430778427908463e-01 3.756705336221768943e-01 6.428128170017771703e-01
-1.502283493133952930e-01 4.718298861151435930e-01 2.730439172711640050e-01
-4.114607025239865878e-01 8.740493435831985236e-01 4.771969062737200888e-03
4.898351857069442872e-01 5.642382531424098430e-02 8.796167103681577781e-02
2.781668281122395281e-01 2.820227213019024792e-01 1.880535384204019486e-02
-1.735492457784945652e-01 6.508932189441157812e-01 3.756339722212238136e-02
3.370507045500124033e-01 -1.130244901597329266e-01 5.290411491216666651e-01
1.408568827327455475e-01 2.070221749626527941e-01 3.010118170244920899e-01
5.813675681745331669e-01 -3.043171649017147318e-01 5.067554059066723404e-01
3.526434343312779274e-01 1.671378021894927290e-01 9.560408791511786075e-02
-4.022784531760224547e-01 7.748948255204810565e-01 1.398243703601185772e-01
5.112048109607776336e-01 1.604438277628043863e-02 1.209548170466220735e-01
-2.955053308366429876e-01 8.196040849227238523e-01 -5.950830411162771894e-02
-1.129913285223377445e-01 2.489366060863548447e-01 5.559192423546323036e-01
4.871505107859204764e-01 1.562864205312695098e-01 -5.624696639019124977e-02
4.233505662770707390e-01 3.296458875284549728e-01 -2.327752868563106869e-01
3.547102097274303922e-01 2.395547182403894582e-01 -1.398064729510789354e-02
-1.638926228778577604e-02 3.737918915750735871e-01 2.508557813038312378e-01
8.545060622804923067e-02 2.345955334069740883e-01 3.294241965271947903e-01
4.121413849136276730e-01 1.295852443754747230e-01 7.683019534298464459e-02
2.197247662878278884e-01 4.900554150589798152e-01 -2.156444661870828838e-01
-2.170147576306207804e-01 6.144499781351815404e-01 1.456644443048598081e-01
6.399820295304588236e-02 2.053933524017626522e-01 3.993499539876315674e-01
-1.880333802736723625e-01 6.759548839791550412e-01 1.861004847514357782e-02
4.369374007301459750e-01 2.031240160036185127e-01 -6.278177874884283138e-02
6.444409054647287638e-01 1.795783118855948102e-01 -2.869860466031125545e-01
6.559321640762590944e-01 -3.995098754154131210e-02 2.305321020045339106e-02
4.102697040494278635e-01 -7.680876170929033797e-02 3.841393925048542934e-01
4.572409099638177210e-01 -2.045762726647178398e-01 5.143047052217616377e-01
-9.674416623847353902e-02 4.574995490207500737e-01 2.274623767946512276e-01
4.157175740093312921e-01 -7.691762560038648000e-02 3.775004804971208161e-01
-4.858803922255402474e-01 7.786813025472931749e-01 2.385773377347676916e-01
4.363911907613375607e-02 1.084932190384856332e-01 5.679433054312932327e-01
-8.817151532030997885e-02 4.863471945237871075e-01 1.741363841170282811e-01
7.792926700680828933e-01 -3.645614227642817173e-01 3.487331649359163288e-01
3.002826812238988952e-01 3.451374227312531962e-01 -1.020584963545684010e-01
4.540579984275625591e-01 -2.292361726829317825e-01 5.547155619750475664e-01
-5.395134237003864630e-01 5.755206644724102372e-01 6.057148827711980044e-01
-3.930245298271017873e-01 8.182871353378662338e-01 6.415647842534913381e-02
-4.871653542131221815e-01 6.303218510601844571e-01 4.594008803845098243e-01
3.772916174599192374e-01 3.525810682315301259e-01 -2.091763071480947644e-01
5.981275116348256926e-01 1.535390189376882319e-01 -1.907035477879314989e-01
-2.703888777410197175e-01 3.961499080931105143e-01 5.348492397920461272e-01
-3.984558390709563858e-01 9.255008291476940485e-01 -8.748611173409620578e-02
2.825047005263560673e-01 2.082549429976652822e-01 1.223921809528591559e-01
-3.296405308394765865e-01 5.435694850867087702e-01 3.909734023032658823e-01
1.846680691552409770e-01 9.911837732801410950e-02 4.057701856460207979e-01
-2.366641987523756818e-01 5.744204248559959813e-01 2.293386319660952466e-01
5.450605760885639528e-01 1.844177791649342923e-01 -1.700951684491804339e-01
3.105397466340164003e-01 1.993819101192542131e-01 1.005111902893483095e-01
2.023644269200406687e-01 4.547617449647359256e-01 -1.418252883556038180e-01
-2.437884788826828464e-01 5.966743400229291838e-01 2.053478660918894860e-01
8.369198770049245117e-02 8.816366521028186354e-02 5.479906884380392196e-01
4.010216395083447405e-01 -1.180874491603444848e-01 4.566768293694827840e-01
5.513580039364006646e-01 -2.945500862243846663e-01 5.297798312486020622e-01
3.843880683162336220e-01 1.499946472816030274e-01 8.131310967439438209e-02
6.447551597858355299e-01 -1.501094284309711646e-01 1.997767405729194701e-01
9.399803316712157519e-02 5.142967020047501947e-01 -9.453788465744823732e-02
-3.071322401159481408e-01 6.166534517193776876e-01 2.548888892979991327e-01
3.521232272247352135e-01 1.745893214558755235e-01 8.524283051334298478e-02
-1.177247611588513529e-02 3.189106419168124540e-01 3.261872644923671793e-01
5.496135550390764957e-01 -3.369963201323751545e-02 1.465178767700171247e-01
7.539563582030759381e-01 7.982897985974488075e-02 -2.762858636038320603e-01
4.404413290026004679e-01 1.804730975060367393e-01 -3.368563968284840615e-02
8.477624952984543771e-01 -2.458841102999266282e-01 8.791175927977108728e-02
8.018269117827421244e-01 6.043048446558012959e-02 -3.073718987104170353e-01
-3.381517976309827422e-01 7.593591396428589491e-01 8.274045626075718363e-02
7.055089537151761903e-01 1.117522717213746963e-01 -2.629867897516237618e-01
-3.223009930722827709e-01 8.488318140867190387e-01 -6.925087246515350403e-02
8.100969283220136319e-01 -4.853176435053790927e-01 4.887172310253508623e-01
7.628593270647576752e-01 -2.873915914841299601e-01 2.552163683530044302e-01
6.264781044248559638e-01 7.060170211530106266e-02 -1.035391114399695361e-01
1.821159994838267016e-01 1.793371926840163777e-01 2.904221874300196848e-01
-2.026406737393458557e-01 4.124673790452155764e-01 4.261780432438643795e-01
-3.691958519171191777e-01 6.542964078072512901e-01 2.767315433308557004e-01
8.022250616557117242e-01 -1.929276393849050086e-01 6.649958347748680110e-02
3.988841586856082255e-01 -1.433707900512222744e-01 4.967040414024580519e-01
5.202697548950563355e-01 -1.321466903226028999e-01 3.286112993686878814e-01
9.151090325713510110e-01 -6.754894982327402930e-02 -2.596595715248257719e-01
-3.026605306026014519e-02 1.964107354128670213e-01 5.302790574889026942e-01
-4.210453693621722393e-01 7.638965760289022633e-01 1.794996365261456450e-01
1.132255411693771779e-01 2.255048600414590737e-02 6.080800213965165124e-01
1.524986518688622172e-01 4.357411923902239081e-01 -5.147994633923997504e-02
1.609307142591749618e-01 1.260935743496333639e-01 3.955387826034942877e-01
-1.974512223001386457e-01 3.344897270480052254e-01 5.349225868119146243e-01
6.103473319251898621e-01 -3.010427283857136649e-01 4.657458526387489028e-01
5.810812354963574844e-01 -1.563265705243069847e-01 2.884381111812009402e-01
2.271155704107157836e-01 5.477238237210800553e-02 4.183160088679904742e-01
-2.042447946414842896e-01 6.558764460269352892e-01 6.851277721682219601e-02
-8.225952665934239960e-02 3.520121221322619620e-01 3.652542547013060692e-01
5.621762762740412089e-01 2.110200236175565347e-01 -2.307663268085946573e-01
3.496597784344513404e-01 3.719648854070131683e-01 -2.033295836756195685e-01
6.256063497298420817e-01 -7.422048172990877712e-02 1.115419285272929023e-01
-2.192778056459905867e-01 7.750326577980969356e-01 -8.879199517648310447e-02
-3.984670194974088697e-01 9.117792340175183696e-01 -6.719677747922522815e-02
4.909739081875766353e-01 -1.250442204482046793e-01 3.546821904621219046e-01
-2.521307622313584407e-01 8.102437796798558356e-01 -9.981535081003550802e-02
-2.498256832591693455e-01 8.588281758066662608e-01 -1.744819851443480951e-01
3.218881408456971682e-01 1.627330017547085408e-02 3.569126227681018726e-01
7.183133704000311814e-01 -2.892124817572461204e-01 3.135071059257024118e-01
-1.234311592613397401e-01 7.042449961267575054e-01 -1.038255621730593686e-01
-1.827225376602376605e-01 4.773993222566140227e-01 3.053720760146875213e-01
5.208138848699899598e-02 2.170579415071102747e-01 3.969880600543601035e-01
1.411450747014332541e-01 5.573152868456201503e-01 -2.169499381805828908e-01
-5.132872564562337425e-01 5.862491365050772618e-01 5.571279644097857364e-01
5.989157804553395525e-01 1.100771329955680666e-01 -1.274670348510402729e-01
7.786487387254727999e-01 -4.365993468491370377e-01 4.559819656901847873e-01
-2.616856154958580039e-01 3.639208994030542210e-01 5.716086482467019891e-01
-4.354220094415103826e-02 3.025023134963766847e-01 3.900860885142721224e-01
6.618874859937893262e-01 -6.250156435139329891e-02 4.894136891615638585e-02
6.240246263641520408e-02 4.979551004645833001e-01 -3.095502908578245255e-02
-2.180653528350721126e-01 5.354069190411249179e-01 2.637717899250374143e-01
-2.509855339879987213e-01 6.067240153417899906e-01 1.994812309432024977e-01
-3.096329320195401191e-01 4.999450489690217547e-01 4.304614502845808821e-01
-3.533910643158923448e-01 6.444314372183227446e-01 2.715814919097737090e-01
3.811728541121903180e-02 1.706470386160061914e-01 4.829953244258161082e-01
-3.560851985611583892e-01 4.046633579756160337e-01 6.292316190354410033e-01
-1.398548350180328359e-01 4.307765642680242424e-01 3.207576270587544909e-01
3.079877870116651817e-01 3.143324308622642005e-01 -6.615740012278538418e-02
-3.361321172625822973e-01 7.145336437694216336e-01 1.464548847519583918e-01
-1.789486366748535839e-01 6.125787828666039436e-01 1.009170492350987547e-01
-4.892463010668857137e-02 4.192952525173659351e-01 2.242279512097909433e-01
3.421361305341629189e-01 4.654579786317719625e-02 2.869086297769811722e-01
6.581208301901533275e-01 1.461991959233096272e-01 -2.547388435896036363e-01
-1.704739474418682788e-01 3.293814140583261052e-01 5.087990096441078469e-01
-8.343181895006558657e-02 6.957436595759115550e-01 -1.411890435840313096e-01
1.129301967830954045e-01 4.998409446801626577e-01 -9.680791430154808697e-02
3.073182370626579840e-01 -8.449867974012043037e-02 5.240013344115060923e-01
-3.123136491981554075e-02 4.631878630466181312e-01 1.372872172300435012e-01
2.201923367528217379e-01 2.034710213120025923e-01 2.072363534332986035e-01
4.929628758148016932e-01 2.211168816650437574e-01 -1.592968288401060417e-01
-4.407983792970482373e-01 8.437075862744948251e-01 8.622361676860473834e-02
1.407070444144482672e-02 5.570896272152848772e-01 -5.800831501087169717e-02
3.181310823903283347e-01 1.189095981495265353e-01 2.099439894174564281e-01
-8.367637583828974046e-02 3.257367466881440077e-01 4.058478641941610787e-01
-4.503105447199501343e-01 5.379560235018564507e-01 5.498825663190702873e-01
8.025769169210575926e-01 -4.385753101567748669e-01 4.290356860178494713e-01
-3.060576694928852648e-01 4.365298295400904527e-01 5.197029253999766452e-01
-1.079180480065408676e-02 2.141793424046048999e-01 4.797168799440494902e-01
-1.606592834874342457e-01 5.894252092461043091e-01 1.123014604615471396e-01
-2.682647293945060740e-01 8.525799079435646410e-01 -1.422346449321624517e-01
8.782921906172109772e-01 -3.441156380698764949e-01 1.949554602043340190e-01
9.309893341260756516e-01 -1.064125783885209453e-01 -2.220547182928649665e-01
9.293592381869804075e-01 -1.753684142002019108e-01 -1.181292061521896641e-01
-4.065194474306382255e-01 8.775181108079158632e-01 -6.521009473597343120e-03
3.650198412359378364e-01 3.978766901785448229e-01 -2.607892276810480636e-01
4.634622426071234869e-01 1.848288283776407248e-01 -6.885538787483906631e-02
1.093034199502741222e-01 3.639680749619395583e-01 1.084880781172130187e-01
-3.047600558700645501e-01 4.351749282765684512e-01 5.200853425243291417e-01
6.765633769643131235e-01 8.421737059191040931e-02 -1.861720250075953875e-01
-2.028489904145207856e-01 6.997104123504694906e-01 2.000412747105774405e-03
-1.745441295335684595e-01 3.837088038638590826e-01 4.336036787127310888e-01
-5.347094241630969691e-01 5.805969959053733920e-01 5.922178421621394628e-01
6.025152729518374467e-02 5.163923148271823971e-01 -5.551363271588356102e-02
5.872603574876598953e-02 5.222573852081801027e-01 -6.227596452455775450e-02
-2.622944882412426293e-01 6.147490482166647618e-01 2.017385360454456156e-01
6.199291814465535122e-01 1.074360885818202022e-01 -1.497924874756564051e-01
-1.044382676680950112e-01 3.773409347019735516e-01 3.555102036743201244e-01
6.670388828423341465e-01 -3.097159238154694183e-01 4.078018912362178505e-01
1.952744072000004161e-01 1.618499911614296183e-01 2.998380245459471571e-01
-2.000888206197434793e-01 4.218203305971724992e-01 4.091727815341456576e-01
-2.575974187470185806e-01 5.024435791159246323e-01 3.618213065257972483e-01
1.981806434365903924e-01 4.226198923594234880e-02 4.729168843692845292e-01
-2.991172023675743932e-02 2.371776538588531713e-01 4.695985563399566742e-01
6.912163982384296190e-01 -8.588157595996138982e-02 4.688131834539671638e-02
4.212903314978241331e-01 3.096850501062187733e-01 -2.007091567077314009e-01
7.011235417170474937e-01 -2.307183457099592772e-01 2.485302029796438994e-01
6.342542780147405468e-01 -3.146654349194146216e-01 4.560355990895884060e-01
5.158098930680136140e-01 -1.676495766036685819e-01 3.866378581213379406e-01
4.631367295902791281e-01 7.159098269175778045e-03 1.940802324203105556e-01
-5.255429978563108673e-01 6.086544688257271574e-01 5.393183064835226359e-01
7.160764227746554411e-01 -5.323150584312350692e-02 -3.239235883961177204e-02
-4.618692178128169790e-01 8.141192698751797963e-01 1.562436867707153454e-01
1.157483209519205303e-01 5.601165249260906531e-01 -1.893900994566528051e-01
3.928919889451699121e-01 1.556328774464973697e-01 6.236772768590462257e-02
2.848531382512655696e-01 -3.860541930478388756e-02 4.842281482395481840e-01
-2.579625774041834074e-02 1.622399485384667384e-01 5.751916989638258260e-01
8.059629547607151112e-01 -4.513480010344807225e-02 -1.565483504172306140e-01
9.767351509790841435e-01 -1.389690774052871891e-01 -2.310461559383176766e-01
-2.893766085062423610e-01 8.333405232892875381e-01 -8.745519584240965538e-02
-1.502804554403399384e-01 6.719607081245023705e-01 -2.260945976708223643e-02
-1.511206486187648967e-01 7.467375511409789501e-01 -1.320529434674034552e-01
5.205145834912500158e-01 -1.230929107461803118e-01 3.149276200515779833e-01
-3.633999100207989663e-01 5.171110088991142106e-01 4.722059732161826839e-01
1.676817461823594257e-01 3.706930181210276176e-01 2.568608121597594843e-02
8.334039200354119714e-01 -2.067903912474397185e-02 -2.269353145863218513e-01
-2.335349037616008261e-01 8.394294896400228412e-01 -1.661513669226938050e-01
2.140770429183551093e-01 3.135272878981676392e-01 5.224722216944314296e-02
8.465858736356700609e-01 -1.225127599913816701e-01 -9.291629534699652471e-02
7.912979974618817858e-01 -4.441084216301638410e-01 4.512893634482725846e-01
-1.686735958802271229e-01 7.663855196957639615e-01 -1.391765299630824959e-01
-1.919394005205687093e-01 7.785608363522257269e-01 -1.281278184199820258e-01
-3.063865763400326903e-01 8.786064600051113338e-01 -1.331102673963147909e-01
6.713393575584195583e-01 -1.791295925558096871e-02 -2.874126901675354631e-02
2.268018373813756872e-01 7.722217319718449602e-02 3.855352112747795212e-01
4.306433554047421897e-01 1.325004406890470665e-01 4.942934758351517216e-02
3.454323956211483027e-01 1.474152358434180354e-01 1.337471310270835489e-01
-9.144021684715595427e-03 2.609515085975603887e-01 4.085484482532026340e-01
-2.279023000887873684e-01 7.611455475522206360e-01 -5.750736282764967039e-02
6.295626354537869895e-01 -1.688953517208392208e-01 2.464978865783434281e-01
7.593263855062125645e-01 -1.927471707087884401e-01 1.197770047960422107e-01
7.102899802006429342e-01 -3.416785820448431932e-01 4.010467694522327209e-01
4.914551329063328033e-01 -1.384325325233155823e-01 3.738644604901146806e-01
5.162886511963868941e-01 2.677014661050290956e-01 -2.572455234456252904e-01
1.541754313097362938e-01 1.342861547126712185e-01 3.918648394015850633e-01
6.487394762850404728e-01 -1.627138155428025368e-01 2.134282705731259666e-01
3.132103148470081200e-01 -3.438586136966672452e-02 4.425991430907277868e-01
-3.715076541173065738e-01 8.607265055692566724e-01 -2.540935930490047234e-02
-1.542115137538875580e-01 4.276380830317857984e-01 3.433144503868879593e-01
7.110797850100963879e-01 -1.199655955583974615e-01 7.245220185721992778e-02
-4.132147959561222605e-01 7.034215844940219231e-01 2.590852792482406519e-01
5.285892266314679011e-01 5.397196983853695673e-02 4.321364534402459545e-02
5.522932259967725521e-01 1.148037993172116300e-01 -7.625922354911220113e-02
2.362534617912642465e-01 -4.913901968431377137e-02 5.604526689374011994e-01
4.170078840060553738e-01 -1.137035632228801801e-01 4.302458178014732515e-01
4.737400825005204652e-01 1.089997411691609741e-01 3.036329713048971368e-02
-2.366614059865528863e-01 4.496320427799986308e-01 4.137256462979887472e-01
2.878753796660066255e-01 3.699526120777297256e-01 -1.232398503860083483e-01
7.343169133067473098e-02 2.165769681894708087e-01 3.710503263530907092e-01
1.330005035767244104e-01 1.456455208183332628e-01 4.015094872443920604e-01
8.985830801742064056e-01 -2.679616472140428085e-01 5.710225563812960925e-02
5.422287680784676489e-01 -1.826733448930158710e-01 3.758625790407861267e-01
2.917334103643846877e-02 3.312379748953306335e-01 2.568654617147824171e-01
-3.085546528957188728e-01 6.207871318270294925e-01 2.505562459604461223e-01
2.544062534574748624e-01 1.228372497173635530e-01 2.836786905939012726e-01
1.829469919158994984e-01 4.070087502757615550e-01 -4.702832542757935663e-02
8.726697871847790555e-01 -3.057949410091063691e-01 1.453494360648491246e-01
5.726162906916452133e-01 -9.467393383976115129e-02 2.079041421082420682e-01
-3.631935414838952797e-02 5.015223579980178092e-01 8.699377459326994300e-02
7.731669936947641597e-01 -2.422189044036487937e-03 -1.787272371238712299e-01
7.569318056507151615e-01 -3.784698127487109987e-01 3.971943241931746305e-01
4.959810230052755786e-01 -8.873973222502599956e-02 2.947881090644156599e-01
-4.452135020361466800e-01 8.133052075599030983e-01 1.366576940863303002e-01
-3.806754717980023184e-01 4.665177227281064321e-01 5.685264391206366064e-01
5.346596954609312835e-01 4.120665820740774740e-03 1.092983348756672718e-01
3.685988379336524456e-02 1.418145608942464053e-01 5.271683586867064175e-01
-4.357540411295661165e-01 5.462497106232399036e-01 5.194588672486469827e-01
7.256320301267299433e-01 -2.556226865151476901e-01 2.547391638314142059e-01
5.039075412576030644e-01 -5.750974151419938063e-02 2.387483743191914087e-01
3.693489121416289045e-01 6.113412695994403095e-02 2.313868429418496908e-01
1.182871401041523940e-01 2.634346689012506126e-01 2.458257542276479912e-01
7.118044688642494178e-01 -1.944965810319368715e-01 1.816765734161308321e-01
8.053731872495195621e-01 -2.902025477541596565e-01 2.063061316566643655e-01
5.329100164427382769e-01 1.897487771258368761e-01 -1.628066367520554225e-01
-5.049186557249805279e-02 4.087249523952612984e-01 2.418030453475270847e-01
8.423976300701750963e-01 3.634248666095304253e-02 -3.224172982132000875e-01
2.384927844519340312e-01 -6.782551126372343697e-02 5.852692901023212046e-01
-1.279942433168658189e-01 4.014475949567655744e-01 3.492910348670802967e-01
-1.369058393274260044e-01 4.633980131554867876e-01 2.688745450075980536e-01
-1.031640719981788828e-01 3.542068626096327444e-01 3.881033089738394892e-01
-1.246037447207846566e-01 7.596454947019460890e-01 -1.842231882751258210e-01
5.805092340635210624e-01 -2.131620139986899198e-01 3.731335588623013733e-01
-9.371096577137634498e-02 5.790607271536303280e-01 4.405457912335519061e-02
2.801583820710265571e-01 4.470870125707203657e-01 -2.275836211464166703e-01
6.720648316951159940e-01 -3.222378030006182725e-01 4.200313894742378484e-01
5.045909704751277286e-02 3.873131420580856465e-01 1.474394948268479277e-01
-5.622825493817190656e-02 5.120476378731186884e-01 9.629069495801816092e-02
-3.299262772609102834e-01 8.096179187763600238e-01 -1.789902420842916187e-03
4.135372778306743435e-01 -1.245588501454878289e-01 4.506177124704283110e-01
5.739710213234984204e-01 6.982226446055014857e-02 -3.685055162580787302e-02
8.298197008178405110e-01 3.766022740367473004e-02 -3.086652527537177559e-01
2.858376569247302879e-01 1.833553649890772713e-02 3.988619084540404591e-01
1.218089747147201862e-01 2.230591996384831688e-01 3.010897923044022484e-01
-8.186344659994475303e-02 1.697956121465145629e-01 6.340076549119365579e-01
8.256387882474562900e-01 4.234217529443151662e-02 -3.103650023802057567e-01
-5.105334216830319516e-01 6.843958109707287685e-01 4.086667262701447201e-01
-3.000848295663489651e-01 8.390292514882286001e-01 -8.249551387648473844e-02
3.697083521066191758e-01 1.913422730702959151e-01 3.853932520647936066e-02
-3.870979510503117504e-01 6.338117184997323905e-01 3.293447917308008899e-01
2.857695053029450372e-01 2.473493333338317723e-01 6.055033743997782075e-02
-9.618179887070274145e-03 1.357706365225298528e-01 5.941107233359177453e-01
-3.946834370385856605e-01 4.491609799215042220e-01 6.116572812499664336e-01
-2.389936680942423008e-01 6.023400235486142673e-01 1.909914527392018446e-01
7.471735959726519827e-01 -1.584743037719151260e-01 8.430307503326664453e-02
5.714386595808461644e-01 -6.366531062564877164e-02 1.635548716873115593e-01
7.126878594031669234e-01 -8.252722005526376761e-03 -9.462471490847966515e-02
9.956154612027605377e-02 5.715810946528205871e-01 -1.861268782852409931e-01
-1.117000095423897055e-01 3.718222417054399820e-01 3.727285260717131399e-01
6.668674258494436957e-01 -2.582869638683257252e-01 3.320231511157352156e-01
4.983079397454200921e-01 -2.000605782610810068e-01 4.563742872550005103e-01
-3.095348674130264377e-01 8.063320481216605939e-01 -2.238620357397340388e-02
-2.170617668885282403e-01 4.992351515407806306e-01 3.159674890896321253e-01
3.376840973565558013e-01 4.892790032869764882e-02 2.889455903249186774e-01
-4.123449587919644777e-02 2.867308603383775245e-01 4.105100228017625197e-01
-5.981930279313778936e-02 2.411872846513864188e-01 5.010030450239935096e-01
3.750838739227922436e-01 1.490468032967360856e-01 9.432672089858114284e-02
6.252855670097632323e-01 -2.410003251648958900e-01 3.583804700427042356e-01
2.178329230902219527e-01 1.301685130126924161e-01 3.184949195259230703e-01
6.280708558065023484e-01 1.312709851273154704e-01 -1.951735898468985875e-01
-2.032440699230078363e-01 3.570516381064741673e-01 5.088148876369678053e-01
3.055741261942654940e-01 3.075003548411243126e-01 -5.304953353046395342e-02
-1.668443790349647127e-01 5.582309969997559795e-01 1.661147670710455271e-01
-2.050086232330199099e-01 2.746365419927815354e-01 6.327959698076047745e-01
-3.911240926944473117e-01 4.725437729096148010e-01 5.726636649383255451e-01
4.098188468602628198e-01 4.520551396699101776e-02 2.044107213269425460e-01
3.130942763620862546e-01 3.481935800271053760e-01 -1.225651758947924330e-01
-1.640361711658991917e-01 5.607854022714904296e-01 1.588352411614674664e-01
-7.258257662273855104e-02 5.851835156708757868e-01 8.635940407247084949e-03
5.276936572864012742e-01 -3.175191196354364143e-02 1.709992493070549013e-01
5.509897221648147880e-01 -1.412535802493417869e-01 3.037246710063929989e-01
-6.326889794634264763e-02 6.339241133842632436e-01 -7.500930206073604112e-02
-3.447779069952687236e-01 8.506074202110369686e-01 -4.381993891578155054e-02
2.379184492407053486e-01 4.608187347356141883e-01 -1.951520901148565967e-01
-2.977844283232055078e-01 7.695759743072576597e-01 1.725917076571609546e-02
8.514971656989391846e-01 -1.073868436459299164e-01 -1.213967766891887456e-01
5.535045014473710667e-01 4.172200310156898989e-02 3.021644847520218655e-02
2.962412096174034740e-02 5.513771420783589727e-01 -6.898043555667708604e-02
5.419656349703049214e-01 -2.774840216553700611e-01 5.162856864709782778e-01
7.298131724742292770e-01 -3.014259618287175035e-01 3.172005501937608662e-01
3.308228475753273723e-01 2.817956731892046207e-01 -4.658189217937842158e-02
-2.134322774713652560e-01 6.676545270839248092e-01 6.257656279133970434e-02
5.751688383562996165e-01 -1.222324122551733394e-01 2.454392850430570094e-01
9.001200313840425071e-01 -1.267059452085675386e-02 -3.220406726688732069e-01
4.963935414556800985e-01 -1.319899242635265424e-01 3.581808114169020008e-01
4.022481544615605364e-01 1.542687934953153595e-01 5.270541233783795909e-02
