4.514590560617293691e-01 -1.080083754661167322e-01 -4.786068767456598261e-01
-5.248480062458802387e-01 5.792187291819685946e-01 -5.873510005645647958e-01
2.031419990941057407e-01 6.001280464483508270e-01 -6.494908705383052316e-01
6.070431890468592773e-01 -7.479780057645862845e-01 -3.188282962416444932e-01
-2.755824552184877319e-01 5.638065239739911139e-01 -6.025664121461586920e-01
8.457395811600232349e-02 3.489147476857486496e-01 -5.728232480226866929e-01
2.434372808930060084e-01 -3.366517537237071617e-02 -4.824193062957383149e-01
-4.713055443913418130e-01 -7.411927020608555239e-01 -2.369219763183469385e-01
4.927618599249657116e-02 6.348270265702253834e-01 -6.468620931577676592e-01
-4.154975957783644813e-01 -1.424226920494978677e-01 -4.020502683391065091e-01
1.374740959876885049e-01 5.266960979169890145e-01 -6.246724968285672919e-01
9.618268559866537115e-02 4.314051117446270345e-01 -5.958767611564326216e-01
3.811543012607109260e-01 4.054005629483404816e-01 -6.110200801774460233e-01
5.350644204407235816e-02 5.189189125247913870e-01 -6.160643192952909297e-01
-4.187650251374993027e-01 5.690103797416816711e-01 -5.928464471633162480e-01
-5.957099411203884420e-01 -4.428731512476085097e-01 -3.073740089331247760e-01
4.528489152515907668e-01 -4.393444334539040041e-01 -3.897370429482410192e-01
-5.726380184257394701e-01 1.592409229694447259e-01 -4.708585327039035429e-01
1.490463565139591162e-01 -2.553462222678716809e-01 -4.155595767058647416e-01
-2.312911331189581310e-01 5.379119415862343434e-01 -5.990516239733182369e-01
3.669210953116468499e-01 5.077791583817083954e-01 -6.374079261671845575e-01
-3.564693186062913299e-01 -8.482330005401937933e-01 -2.170935941807990710e-01
4.379442880722087539e-01 -7.315223241461064063e-01 -3.101176472399529982e-01
2.632364060310006248e-01 3.043824209323400809e-01 -5.747366922133115841e-01
3.695847365482639590e-01 -2.779202770196589163e-04 -5.011799246214996284e-01
3.305893958843230673e-01 -4.200289883189262108e-01 -3.854312084226722002e-01
4.547185737197723121e-01 4.643718131146245404e-02 -5.203351283885682133e-01
4.649235895524655993e-01 -1.283589769843783146e-01 -4.741873338808972327e-01
1.996145658309913529e-01 6.080390808168040229e-01 -6.513414301643056792e-01
-6.282380116333554643e-01 -2.528558628046126966e-01 -3.558760457456413007e-01
6.598904642525207365e-01 -5.724618672131384089e-01 -3.700651353511610897e-01
2.000778243406612089e-01 -7.214849550617474794e-01 -2.943439476756732898e-01
-6.158248036862445929e-01 3.005956090998998520e-02 -4.328146307839241813e-01
6.232273988616522375e-01 -6.961049668488322739e-01 -3.340150258756885981e-01
1.645648745570749971e-01 7.192485857766740542e-01 -6.784844515496275541e-01
1.665503577332786145e-01 -6.105537629315938020e-01 -3.215304235297153923e-01
-1.592013693947125566e-02 -1.248799976033448944e-01 -4.377864430562773412e-01
4.004544478123510109e-01 -5.400247585479527324e-01 -3.586319441444041356e-01
5.915150948683590704e-01 -1.650606945506304102e-01 -4.741605760369048683e-01
-7.526065468121827529e-01 2.127444914835332213e-01 -4.712528357678008595e-01
6.375812862881432563e-01 -3.702505570980907934e-01 -4.226352294886196459e-01
-2.714668825350302628e-01 1.799370290590278920e-01 -4.998007661953805525e-01
-5.493508269353395423e-01 -6.040451989455498660e-01 -2.676920519556583722e-01
2.168700349501525015e-01 -8.067408702219960315e-01 -2.727529598455004090e-01
2.506044470407715052e-01 7.487391098646913878e-01 -6.930844534123306033e-01
9.765821168460069035e-02 -5.468387073477073423e-01 -3.332914761832004857e-01
1.297097234906945673e-01 2.661641918457616773e-01 -5.541057924100298848e-01
-6.097919380850873594e-01 -4.086701793656156156e-01 -3.154655563035678179e-01
-7.481019106453290490e-02 5.351674253610602117e-01 -6.104645786838277521e-01
-4.114987452983651650e-01 -5.476616213196529026e-01 -2.935369622770849229e-01
2.121263373772012684e-01 3.519474840264728566e-01 -5.835414792339151946e-01
3.581703234966502891e-01 -4.675395773310387915e-01 -3.748141282350460068e-01
3.739440788746911659e-01 -5.200905902202100917e-01 -3.619267122953164773e-01
-5.113380953773174475e-01 1.296285544589563521e-01 -4.676659956495532455e-01
-6.614968295666420195e-01 -9.871616440339721354e-02 -3.946866928140463915e-01
1.456421701755377940e-01 -1.342599598655500048e-01 -4.478120427150066862e-01
-2.042675896669763486e-02 1.786181808298112073e-01 -5.189386271839887543e-01
-1.717626836848758134e-03 5.257435679146161833e-01 -6.136091514014423431e-01
-1.086353249021672907e-01 -3.505455657998960417e-01 -3.699868135911331679e-01
7.939332830538384234e-02 -9.860017286040623219e-02 -4.522443083454009138e-01
3.252336685705624619e-01 5.726657979647362673e-01 -6.515959109791467085e-01
-3.314842018348901909e-01 3.312411149700003055e-01 -5.357722656773656889e-01
-4.348867580988927672e-01 -8.813881840227996145e-01 -2.021012972652657114e-01
6.231953957768638919e-01 -6.346620381076097939e-01 -3.505125668464211808e-01
1.440091734033276949e-01 5.112646905077932180e-01 -6.210359276099066683e-01
-5.420712108271201757e-01 5.505745445585468190e-01 -5.783215282389149170e-01
-4.480974783995639310e-01 -1.146964932109900970e-01 -4.069647056363177029e-01
4.199011507744318528e-01 5.250210248607771746e-01 -6.461517367977138715e-01
-7.773831381562747167e-02 1.633373849284528723e-01 -5.103851274056225851e-01
2.365565260613531340e-01 -7.332191482235309032e-02 -4.712355373044898044e-01
-4.942218834960402929e-01 -4.389395607889475803e-01 -3.163103915546158218e-01
2.447683507898462119e-01 3.491117963445855565e-01 -5.853144684811623089e-01
4.735953230626953059e-01 1.715066646690761865e-01 -5.553872625158793319e-01
-4.787854281956931968e-01 1.551638089212013238e-01 -4.770508458667135354e-01
-6.338450084991077427e-01 1.371582297263083949e-01 -4.601759743852723572e-01
-6.007854415070031928e-01 4.951850301889931805e-01 -5.588882297989347103e-01
3.859513248082760417e-01 7.535034620403355810e-01 -7.048729011039720493e-01
-3.176741224132254016e-01 -4.856186294864003883e-02 -4.348513822211343971e-01
-2.199500337561630658e-01 -7.232961974861777943e-01 -2.612444607351481762e-01
4.416341583692860451e-01 3.216810688033922006e-01 -5.932338166870753104e-01
-2.857271668376945573e-01 -8.916549551199468571e-01 -2.109257415140044500e-01
2.949142008663013237e-01 -6.210805028777862669e-01 -3.286703678605885637e-01
-3.665363148555814687e-01 3.322297175305817807e-01 -5.333161235812091672e-01
6.686238909538956277e-01 -6.356674250821691130e-01 -3.537698765183330818e-01
6.170532906003382001e-01 -1.683149725496868310e-01 -4.752695796657064875e-01
-1.313144462631746778e-01 -1.248445668640126710e-01 -4.288361586823893901e-01
3.470972295222764514e-01 -1.312467608471659108e-01 -4.642632059698139635e-01
-4.159802040895658193e-01 -8.340488159822109226e-01 -2.162819210627423550e-01
1.367208757491365778e-01 -1.672027873985726942e-01 -4.382728052848975375e-01
6.519468768818992288e-01 -6.133872990922949464e-01 -3.584581450626507237e-01
8.207730594925344292e-02 -5.145261813857048283e-01 -3.407589759705926258e-01
-4.460144438310655324e-01 -7.123240636634599054e-01 -2.466381563125007725e-01
6.458261588030405065e-01 -5.224256576585797340e-01 -3.824099505573886337e-01
-5.206325864023029215e-01 -6.589171737428800579e-01 -2.551864349836072132e-01
-4.580189209877323919e-01 2.637638337583629242e-02 -4.440783903275069000e-01
1.133229494704620158e-02 2.749923497044223786e-01 -5.472851027688534487e-01
3.393778829427365196e-01 -5.139785338575159068e-01 -3.608841633701401208e-01
1.489668587494179797e-01 -7.918325079942836187e-01 -2.714841390840103119e-01
3.565621770246292510e-02 5.340243150469810018e-01 -6.187347770537514613e-01
4.295669735373779455e-03 1.449338774159797949e-01 -5.118125412894779513e-01
-3.808691057133843372e-01 5.386013391533356343e-01 -5.876227644916065529e-01
-2.356742231774429097e-01 -9.200875416217560998e-01 -2.071767533598748434e-01
-2.505479710755617040e-01 3.946706406858259408e-02 -4.637028879967931005e-01
2.858460707952285504e-02 -1.456660491751995967e-01 -4.356600826952444216e-01
-4.659251696428559630e-01 8.345148097229303230e-02 -4.587915875097067775e-01
-1.377594266682117818e-01 -3.239757638663403050e-01 -3.748605866371343964e-01
-3.370925357941586403e-02 1.977550570948695408e-01 -5.230463678899210933e-01
-3.993078681366988847e-01 -1.981349726376432085e-01 -3.883462164722612520e-01
8.972138896896223251e-04 -4.705282463706352281e-01 -3.462710491658781420e-01
7.197303839556870031e-01 -6.367328178297694263e-01 -3.574519406302883451e-01
1.889602332892780789e-01 -1.468491918708002275e-01 -4.477947352731315722e-01
2.435245626425894261e-01 7.969881376228415016e-04 -4.916806321972280180e-01
-5.278972200475838816e-01 5.067758772513749621e-01 -5.676602735447244807e-01
-4.881026671315442100e-01 -7.957774206712435738e-01 -2.209594562964609654e-01
-7.466881301144026040e-01 4.891566886920369894e-01 -5.459407408451276700e-01
-3.456285495962004295e-01 -6.107631938505589941e-01 -2.817060162371576859e-01
-4.630530225637230490e-01 8.247324393634401785e-02 -4.587518975350357020e-01
2.566099754314801751e-01 3.053986942460261145e-01 -5.744950949374909577e-01
-1.390751318027473593e-01 -7.017618264153921981e-01 -2.733068877132834862e-01
-5.034630207549205538e-01 4.723372830608358885e-01 -5.603092490724759234e-01
-8.460957506693173036e-02 5.347561122022680413e-01 -6.095932498591836168e-01
-2.682221069749249343e-01 5.730326858029811954e-02 -4.671203540214658445e-01
-4.247884349686207872e-01 -8.741837435424331115e-01 -2.048200793237332507e-01
-5.468198742023947512e-01 -2.021761296095022087e-01 -3.758074150719558082e-01
1.282780910950024611e-01 -6.916360955856215575e-02 -4.639449317185125876e-01
-7.084683106500676286e-02 -8.811725128292924314e-03 -4.646908978372553678e-01
2.469528476666582040e-01 4.542195462991593935e-01 -6.137099615799377350e-01
-2.467340074266299310e-01 -4.631040390275574237e-01 -3.290374198488125179e-01
-1.947075553231604472e-01 -7.880199616490194403e-01 -2.458233457301120528e-01
4.888210127315312237e-01 -4.111165942429065856e-01 -4.001104679854619040e-01
-4.669159555609088685e-01 -9.458144748795950241e-01 -1.823132032429130023e-01
4.992424161556157092e-01 -3.781582473855174542e-01 -4.097703490762945044e-01
-7.328611494543961768e-01 2.693427754830188259e-01 -4.879850022691931133e-01
-4.996908268520978136e-01 -4.747066246284435964e-01 -3.062807852249379570e-01
5.532037974501804456e-01 -4.055436834930603585e-01 -4.066060360121264150e-01
-3.858229420202738402e-01 -6.459971374370149233e-01 -2.691233153864239225e-01
8.191358715058862094e-02 5.833808503372931442e-01 -6.355807515309270794e-01
2.923630745249218288e-01 -8.606164330190632650e-02 -4.721474844898437828e-01
-4.144824192043683464e-01 1.652919829486191594e-01 -4.847635006125750601e-01
-3.983159663448515575e-01 -3.068823432950924524e-01 -3.592199629236871861e-01
-2.522186938995109595e-01 3.441525689837765523e-01 -5.453941131047976842e-01
-5.748314804331016159e-01 5.519653730425226890e-01 -5.761513511587077474e-01
-5.213318103843828100e-01 -3.452820946250486078e-01 -3.393564314913954938e-01
-1.495209556047107646e-01 1.003920164725839170e-01 -4.879080648026942191e-01
-3.727100890202322825e-01 -9.818231317819325898e-02 -4.172529206414498648e-01
2.939291385300318304e-01 -3.609010855403891882e-01 -3.984630636762140354e-01
-1.950517321818457869e-02 -7.147685303464501594e-01 -2.790980550274020366e-01
6.914273048079730422e-02 -2.764778416705901964e-01 -4.036807203750928386e-01
-3.027984067252958988e-01 -2.832004018519459487e-01 -3.729960335590050691e-01
4.646964374192456004e-01 3.668926775599205548e-01 -6.071657186515229121e-01
1.575488689399333064e-01 -4.878371662222349969e-01 -3.537861003440784802e-01
9.474844815198746328e-02 -4.768260826993934720e-01 -3.518668991593618123e-01
5.737615566462536121e-01 -1.295166514973639660e-01 -4.823271806823387631e-01
-1.690069834215870703e-01 -4.733716785877828959e-01 -3.323152443165665049e-01
-3.231014765834090974e-01 -4.686992310739609979e-01 -3.216053167098666954e-01
3.239150291637011847e-01 -2.298729920260629556e-01 -4.359779067574411915e-01
5.442541575406996124e-01 9.732988289359802148e-02 -5.409539684161149831e-01
-5.828852034155287409e-01 -4.318036295220728515e-01 -3.113424214729340056e-01
6.456885748945897507e-01 -2.991657267934536568e-01 -4.423540048112116763e-01
6.243959849559869157e-01 -6.142094352006937097e-01 -3.560981758504548900e-01
2.675571896679660999e-01 -4.808929166529265498e-01 -3.641925287201210892e-01
4.712709500394750284e-02 -6.447646770990581588e-01 -3.030707183151375439e-01
8.885930796424877653e-02 3.639354984930689429e-01 -5.771896913836709331e-01
-1.121305982273606144e-01 -4.941784355639521759e-02 -4.505809561833050148e-01
-6.792521853120880859e-02 -4.300420007949113388e-01 -3.517995965029491190e-01
6.498015695707983763e-01 -7.012445938938751677e-01 -3.346981718694213015e-01
-5.199594035892824984e-01 -7.916966454014938703e-01 -2.195817986256504983e-01
5.441175866841703179e-01 -6.481774481164689905e-02 -4.973998662928114656e-01
-4.185163183325288361e-01 -7.288980880975538534e-01 -2.443224233813151292e-01
-1.351030760686418863e-01 5.397342543897230005e-01 -6.070095203154579622e-01
-5.599112886712350745e-01 -3.034146004646646189e-01 -3.476041187490470641e-01
3.547640963194864661e-01 6.774915607137370621e-01 -6.820389552528053345e-01
-2.692404141021422781e-01 -3.439408800907951536e-01 -3.592902580137626312e-01
-3.456708312085202683e-01 -5.560051758363511176e-01 -2.964075777800826428e-01
-1.847782122803981741e-01 -3.929615786840023883e-01 -3.526841999346816969e-01
-2.504089332649371835e-01 -5.669958042733389547e-01 -3.008527456309181281e-01
3.346734023413644454e-01 -7.122854171809921420e-01 -3.072650956482503859e-01
-2.372683987339132550e-01 -1.547214624464326171e-01 -4.125861463332822776e-01
3.634860050816739463e-01 2.117647419093857675e-01 -5.576488139533832822e-01
2.580331490377729131e-01 -2.470533947191960178e-01 -4.262488386969175980e-01
-2.070463409661597864e-01 -7.228298495633865839e-01 -2.623716029900700630e-01
2.901166165960076815e-01 -1.656413806313721537e-01 -4.506025318324923257e-01
1.343638005020895698e-01 -3.099607254135895440e-01 -3.997532439541396365e-01
-2.272417792226727115e-02 3.402529332981343302e-01 -5.621660133026549211e-01
1.401802810132586445e-02 -4.369354516679874179e-01 -3.563109022798591763e-01
2.482252770650339793e-02 -6.935312004312506329e-02 -4.558612258526467120e-01
1.774083804699513878e-01 -6.583548941320582770e-01 -3.095368693815730432e-01
-5.330931722928505812e-01 1.036861412556654427e-01 -4.590101857180812761e-01
-2.826184534966353912e-01 5.230840890131865928e-01 -5.910844049355344909e-01
-2.110259827741315375e-01 -2.159664780994239031e-01 -3.981768626971953218e-01
-2.428532941055596417e-01 -7.256059270356853830e-01 -2.588458754190199329e-01
-1.021781715154103515e-01 -5.723162018569161180e-01 -3.109333814049862199e-01
-6.650640666691040592e-02 5.941601002486425198e-01 -6.269513556194195036e-01
-1.602555035432006725e-01 2.466644189719822966e-01 -5.263549085589527277e-01
2.184879856863628789e-01 -8.352403802081389550e-01 -2.652252615718230788e-01
-7.351964842820168933e-02 4.572062667893623394e-02 -4.791276103282895993e-01
4.565992440170352218e-01 -5.343834842283321507e-01 -3.645062315011887155e-01
-2.612929625119252419e-01 3.186376865478096621e-01 -5.378377154985526376e-01
-1.851799571218341045e-01 -7.086456498177032270e-02 -4.391496816683108095e-01
-5.130807250497173566e-01 -4.598075301905736600e-02 -4.203721604333002237e-01
-2.911092010937068042e-01 -5.548417976588924105e-01 -3.009564355357844945e-01
-1.452973053517332414e-01 5.541383402609421083e-01 -6.100860951413652478e-01
5.271578027771417485e-01 -1.295031383462255659e-01 -4.787122578839274611e-01
3.653349219284235394e-01 -1.194804386688157541e-02 -4.977160255596841942e-01
1.864207873519639902e-01 -2.121604748971602228e-01 -4.300587171822558563e-01
4.169657737975654421e-01 -1.072190915071342815e-01 -4.761405996245854366e-01
2.154748411808025399e-01 -4.941316170921241646e-01 -3.565934400539248483e-01
-9.166712070595650630e-02 -2.802272397913605495e-01 -3.901877564774586249e-01
3.426827237793964032e-01 1.318185428877699794e-01 -5.345646050098239455e-01
-1.467097514211257725e-01 4.891984437017830173e-02 -4.743038850845137100e-01
-3.265699592191225742e-01 1.442590428697099192e-01 -4.859412353122171679e-01
8.380634935077502234e-02 -6.852740466781683804e-01 -2.950402019485967031e-01
-2.610241827865316666e-01 -2.768406508533661770e-01 -3.779474582361232460e-01
3.381088095406260541e-01 4.589444089110652492e-01 -6.220565979711790705e-01
-5.911906885848323689e-01 4.957488604530167486e-01 -5.597846273247267801e-01
-2.119131985128016593e-01 2.506214654053700586e-01 -5.234065776853126239e-01
-1.813155459171737760e-01 -8.182787001862836668e-03 -4.562824434255621786e-01
-6.944574237192380206e-02 1.469895916804242753e-01 -5.066389305632177376e-01
-5.166841999650602091e-01 -7.621318810201238581e-01 -2.277754920769134717e-01
5.677150171616557328e-01 6.923050280483601659e-02 -5.352297161000616477e-01
-4.018274783788758908e-01 -1.154820494379437124e-01 -4.103463878654530217e-01
2.312067981704329644e-01 -8.501914598167385761e-02 -4.676789558723929430e-01
-3.032347081700865754e-01 5.062392643572244388e-02 -4.626081122602039852e-01
-5.714329082598573750e-01 -4.528628342187714373e-01 -3.065763482927437167e-01
-3.288879628382481574e-02 -6.619754100740751213e-01 -2.922360690290261576e-01
1.969355165499445670e-01 8.116079917631956187e-02 -5.096443057733980320e-01
-4.602602756044541638e-02 4.249030117136610163e-01 -5.830888669686928871e-01
-2.838889769565334786e-01 -7.292501445526813342e-01 -2.546810304418287152e-01
-6.373282314088166700e-01 3.800876617316986117e-01 -5.251423494903738609e-01
-3.456216263477024375e-01 -7.462982402269884297e-01 -2.453096597171179616e-01
3.499530607922267111e-01 5.427764002732372584e-01 -6.454886820556300364e-01
-4.061225590137351182e-01 -6.975663476088032056e-01 -2.536986355529322612e-01
-3.609064298406827187e-01 -5.875185266362116243e-01 -2.867619407489649386e-01
-4.563575537248952263e-01 3.044011931189561926e-01 -5.188688112016458520e-01
-1.102657956407350204e-01 -5.675930838863362249e-01 -3.115737742751117367e-01
1.508214721824387983e-01 3.189028273857160700e-01 -5.699075704512874818e-01
5.366688174275069390e-01 -1.971867089263285022e-01 -4.612748390548683242e-01
5.162078252523459865e-01 -6.969392637034799165e-01 -3.254814397733346576e-01
1.896307804062739299e-01 -4.713965413745535571e-01 -3.606921058807015523e-01
-5.931448532526201189e-01 3.010672620396327888e-03 -4.273118462122666439e-01
2.062180931201662015e-01 3.255065742525813932e-01 -5.759822302869505029e-01
-1.519975501872656842e-01 -1.466238219988772462e-01 -4.213815662404480911e-01
4.672250209987302005e-01 4.105249542662934292e-01 -6.190791629563904275e-01
-5.725814225805609947e-01 2.593879283533295776e-01 -4.977566349887685426e-01
7.123597976701843137e-01 -7.094797012523220703e-01 -3.373440350305397240e-01
-5.395649100342241322e-01 -4.215606703961194968e-01 -3.174566964877953978e-01
5.212037134861081666e-01 -5.402618309815538922e-01 -3.679438651438897145e-01
-1.394894077455616221e-01 -8.958468035197463264e-01 -2.211546936623917103e-01
-5.092900839873075736e-01 -5.195379424275222702e-01 -2.934963447274597237e-01
-7.688725457807999986e-01 3.214367702837678253e-01 -4.991783365037428810e-01
3.879545632314284620e-01 5.278018373466932811e-01 -6.444180076278573921e-01
1.604962513520278300e-01 -5.701430073421771549e-01 -3.319123495727536732e-01
5.020632090116169399e-01 -7.563685438247230719e-01 -3.084239040736486137e-01
-4.781084369676064094e-01 1.952354468857966374e-01 -4.878643410137963876e-01
-4.349869209869473563e-01 -7.481943812299693408e-02 -4.186913521440954189e-01
-8.446148727177235638e-02 -2.036523154554512605e-01 -4.113108452411777249e-01
5.025591027198295091e-01 -6.969695209821031856e-01 -3.244135584209698053e-01
4.408196020064835130e-01 4.371730223205675392e-01 -6.241850460766329434e-01
-4.424525102703463775e-02 -8.709433286784791228e-01 -2.352375693079868935e-01
-5.643072347280647660e-01 2.647962650369560800e-01 -4.998514520812881168e-01
1.949961115992967509e-01 -6.653720671874491233e-01 -3.090180621228411639e-01
2.967583483727415650e-01 7.690022596797700671e-02 -5.162509122061644806e-01
-2.484357196643134646e-01 3.059394483693042011e-01 -5.354260028180203301e-01
-2.608651885461906739e-01 4.011550769854423382e-01 -5.600303404591681078e-01
-1.692057509611807342e-01 -1.801525941516289309e-01 -4.110415404810279782e-01
7.299058125723343823e-03 -2.279127482837322027e-01 -4.119206464456321992e-01
5.796043565435572004e-02 -2.377242420575829129e-01 -4.132194513866719321e-01
5.029792184015806633e-01 2.754153062193300250e-01 -5.855726434277553905e-01
3.105468145201152330e-01 9.433040665532883839e-02 -5.220022595403525090e-01
4.709375097293974632e-01 -4.497612025599669328e-01 -3.883441898910078294e-01
3.031621671729116674e-01 -1.907732204103149698e-01 -4.448664922564256607e-01
2.424543814974048639e-01 -2.183258298335687964e-01 -4.327537907855161237e-01
-1.122251049261274169e-01 -6.817896693958612753e-01 -2.807550290115029545e-01
5.104488155281926565e-01 -1.965523975449182670e-01 -4.594093246590572610e-01
6.038392331285134806e-02 2.175160881181394112e-01 -5.356589119001902155e-01
-5.160990987308478051e-01 8.562064227335687561e-02 -4.554783409406025774e-01
6.921791361915816121e-02 -4.820230620634263774e-01 -3.484889702328837213e-01
-1.626802706831664280e-01 -1.725341311716483902e-02 -4.552935337776871094e-01
2.632681075888815836e-01 -5.377049163700737822e-01 -3.486030771619457180e-01
5.647365453955244252e-01 -6.686459499921824090e-01 -3.368474073079696374e-01
5.987299829219279168e-01 -1.180574448425645434e-01 -4.873431376404113724e-01
3.564974414694782601e-01 -1.668184022659324195e-01 -4.554405954066637063e-01
-7.859111115217869425e-01 3.026648626603396508e-01 -4.928143245174949616e-01
-1.300233968359018871e-03 3.166500486940870274e-01 -5.574911038028584898e-01
2.107016224385250269e-01 -1.560749329642158456e-01 -4.470053451181640880e-01
4.724455911296311927e-01 2.896548448304791523e-01 -5.870257764071946660e-01
-1.491868976863347795e-01 1.560876925236659718e-01 -5.028906481068715628e-01
-5.948547566276692899e-01 5.069725719390743013e-01 -5.625141718904816956e-01
-4.830129990735442802e-01 -1.192855100318385569e-01 -4.030213424842268299e-01
1.595421018947316971e-01 -2.114907237850686128e-01 -4.281515763236640737e-01
3.299455491610737978e-02 -6.306742960806414056e-01 -3.057572597047207297e-01
-1.695908415037392647e-01 3.643368430866363722e-02 -4.691742190503256360e-01
6.282484172246823040e-02 4.835256276513260620e-01 -6.072832526911435824e-01
-8.010515018200805581e-01 4.122147161887750322e-01 -5.210575183117061027e-01
4.597187959951526959e-01 3.044483805431312251e-01 -5.900102937436537687e-01
-7.047240747045703524e-02 -5.969275723458099536e-01 -3.067859834017728216e-01
1.067605385962863418e-01 -1.254497429263494723e-01 -4.471589917610696019e-01
1.665264309940200638e-01 -7.386703877192453138e-01 -2.871238317103650961e-01
6.678733996880221735e-01 -7.200953032847866586e-01 -3.310391473584051725e-01
6.886832226013483993e-01 -5.021118340462273899e-01 -3.911927112654966510e-01
-5.227788940414266339e-01 -7.215815450760679206e-02 -4.125894056444843749e-01
-2.050235161148545593e-01 -1.047271944271515598e-01 -4.285153785323531639e-01
-6.195569130356499699e-01 3.369827061279949132e-01 -5.149467004842722684e-01
2.656912037703237223e-02 -8.282319628705198111e-01 -2.522057647334459141e-01
-6.037460183104473854e-01 4.123306331561116429e-03 -4.267875072515150969e-01
4.631074641684503335e-01 9.911920156031187035e-02 -5.351338356319434997e-01
-3.750189865856289884e-01 4.843215717299517720e-01 -5.735005834062525398e-01
6.760228773746967609e-03 -9.236510129034300465e-02 -4.482790868787016048e-01
-2.977647996386519336e-01 -9.385347768278873293e-01 -1.974018632052387257e-01
-4.527851796620561142e-01 4.229684147630979885e-02 -4.487600810819233899e-01
-2.725270541123679391e-01 -3.084790689429463967e-02 -4.431137760524570535e-01
4.779148442765998595e-01 -6.087124397768753914e-01 -3.462008135153246124e-01
-2.984134585408015905e-01 -3.154939145398078515e-01 -3.646643287516422305e-01
1.867046644153274593e-01 4.736605757980449360e-01 -6.142527261959724871e-01
2.463412460311895646e-01 -6.412473064577703941e-01 -3.194832775013697890e-01
1.939387213322474150e-03 1.686484606882272530e-01 -5.179979564811428849e-01
-6.447622300817755780e-01 -1.224399937442041120e-01 -3.896152000641032176e-01
-4.771549666915442800e-01 2.621509198896553872e-01 -5.059080087940974746e-01
-2.335514488449347559e-01 -7.879855246006567393e-01 -2.428165567698394034e-01
1.246631155109603484e-01 1.199041187630575517e-01 -5.144369306949955201e-01
-3.262306795757343725e-01 -3.288667622303292903e-01 -3.589132833508679732e-01
3.064327102378437973e-01 -6.398790943448968704e-01 -3.245165061803338413e-01
5.808204463100959947e-01 -2.426978361241978466e-01 -4.524813321877803607e-01
1.738600048337013704e-01 -1.367990446965251447e-02 -4.823838647060447182e-01
-6.112346817009274291e-01 1.003686675073187790e-01 -4.520520008298716252e-01
5.514491712797806588e-01 -1.964729400460303865e-01 -4.626141377809129263e-01
-2.623018980884990817e-02 -2.614611586011030830e-01 -4.003080981870095201e-01
2.282955602880017976e-01 -7.402026087555714229e-01 -2.915084337994802710e-01
-1.936119091868468978e-01 -5.310693185709169928e-01 -3.149105358077644579e-01
-5.433676299658222186e-01 -4.313478029335032771e-01 -3.145331748854638398e-01
3.632871243099580760e-01 3.523034978304028231e-01 -5.953739736246701497e-01
-8.182530203403146074e-02 -8.333019819824313279e-01 -2.424279577738905345e-01
1.409768606198399110e-01 6.617725297408617591e-01 -6.612182058936235673e-01
-8.127310210774920662e-01 4.468972170803793276e-01 -5.294643800544349688e-01
3.292505665068081178e-01 -7.174502983430476322e-01 -3.054570500853409643e-01
-4.991921863137060295e-02 6.110715218826345829e-01 -6.327807011525760084e-01
-1.942112343188896750e-01 3.975173630998095065e-01 -5.642288112059682392e-01
-1.274570431890394498e-02 2.941111496402717962e-01 -5.505497715197321673e-01
-2.932656305145716069e-01 4.325988855374103270e-01 -5.659585988296387260e-01
-1.235458071217753091e-04 4.525930753359826975e-01 -5.940889218734499710e-01
-4.056420991779837726e-01 -1.390757178029944086e-01 -4.037143032322447755e-01
4.987768507307042687e-01 -3.315495696334774811e-02 -5.023821798587587706e-01
1.821083303469933079e-01 -3.116982141424035624e-01 -4.029937820016957772e-01
-4.982773303600612214e-01 -6.967140408188720047e-01 -2.467721524714755199e-01
-6.052063535624989665e-01 4.615308004626000882e-01 -5.495073832788560653e-01
-2.453094837595992325e-02 4.820473793293472142e-01 -6.001035341892666519e-01
-3.312436572796972900e-01 4.929203307833511793e-01 -5.792086524353776689e-01
-5.198996219744194125e-01 3.565182129076689410e-01 -5.279307077183682528e-01
-7.118651706478263952e-01 3.234098561348359296e-02 -4.259702289875537118e-01
-5.096988347180134715e-01 5.581379506066421747e-01 -5.828661781035658906e-01
-5.757024573215697716e-01 1.123391603150300927e-01 -4.580254865761857475e-01
1.453515614854907767e-01 -6.174557640660405244e-01 -3.180309622378922341e-01
3.890602460454444661e-02 -1.960549009358105721e-01 -4.229299513488934403e-01
-2.844718609133825571e-01 -2.270371960060387495e-01 -3.895011963440161429e-01
2.719861503448120499e-01 -5.159599488975110670e-01 -3.551194339245828946e-01
6.547821837613773122e-01 -5.691216774659296762e-01 -3.705654848252304401e-01
-8.860720976806596427e-02 -6.142178335788970323e-01 -3.007347387935256355e-01
-1.128762849569303617e-02 -5.734810175060425230e-01 -3.176777815415988693e-01
2.581756047671166648e-02 2.817754106462234120e-01 -5.502313510359131410e-01
-6.732494483255202500e-01 2.579844149565245215e-01 -4.895633565304217671e-01
-1.427032747153974268e-01 2.606362486642677112e-01 -5.314697799477218210e-01
7.946690961492064095e-03 5.645520759598727789e-01 -6.247812643107334418e-01
5.323090955642962863e-01 -5.521663093963534719e-01 -3.656092871927015819e-01
-3.205091492215331184e-01 4.175829742329970756e-02 -4.588860406344872911e-01
-1.860183538980715867e-01 5.239887766338711117e-01 -5.988278731656246912e-01
-3.057604824811109290e-01 -4.898273358105429409e-01 -3.172779693857737948e-01
-3.936874366228186317e-01 2.766910928174363959e-02 -4.494205644209715578e-01
-2.874476068263885353e-01 5.565114295312570958e-01 -5.996861001456877949e-01
-2.375945102133907305e-01 3.272540060098332870e-01 -5.419916297542707317e-01
-4.855824488077365442e-01 -3.113825468074554736e-01 -3.512356558998376843e-01
4.305753789910590767e-01 -7.231905668557933251e-03 -5.040481079362270078e-01
3.293865262045441583e-02 -1.009926191541300616e-01 -4.479948588321466252e-01
-3.377119499173443229e-01 5.287158329469233697e-01 -5.883190281544325995e-01
-4.468652351236637177e-01 -8.647790774195595054e-01 -2.056314754085018515e-01
-5.684108217155283554e-03 2.359606885348844718e-01 -5.354822106344622190e-01
-3.510136898904955283e-01 -2.829350022404029108e-01 -3.693236256296251740e-01
-4.328280692520564688e-01 5.361955546752769086e-01 -5.829423523053276490e-01
4.240304935524373819e-01 4.555400669275462278e-01 -6.278137831417235359e-01
3.327709878011240741e-01 6.173441279631508571e-01 -6.641791684702510468e-01
4.818129081768220412e-01 -4.542694797261546125e-01 -3.879779477937836396e-01
6.189392828969045857e-01 -5.980791927447457468e-01 -3.600061423731934496e-01
3.443376642620222250e-01 6.376207341269188866e-01 -6.705223904575728922e-01
-3.627282394899559725e-01 -3.185568632087135699e-01 -3.588480718907953171e-01
3.514145998698748469e-02 -4.006123086952520507e-01 -3.677053332137722452e-01
-4.417377726858392473e-01 -4.210037064182852173e-01 -3.252020596383911610e-01
5.635386889941931821e-02 -1.689804759913414792e-02 -4.723958851770309608e-01
-1.187140122168263701e-01 -4.155071551420146392e-01 -3.517593181375661682e-01
-5.270225189298993751e-01 3.508188153265066056e-01 -5.258471205211620036e-01
1.705323325204979312e-01 -5.659056491250394894e-01 -3.338295117328827777e-01
-1.419556707848901311e-01 6.412154809680271628e-01 -6.337294528654521253e-01
4.558718567939292199e-01 3.018367357740569523e-01 -5.890102607745342223e-01
5.230601153655677349e-01 -1.077426985971987605e-01 -4.842376913634923175e-01
-1.608186059430433690e-01 6.169451784474145883e-01 -6.257472359390172656e-01
4.957222996222017675e-01 -6.584862257645057726e-01 -3.342171072685146682e-01
3.801648172880916499e-01 5.274800415315304969e-01 -6.437267564815269960e-01
3.014879633531308487e-02 3.430385813448114107e-01 -5.670194033527924393e-01
-4.796932326987387585e-01 -1.899261592404602184e-01 -3.843091030422654542e-01
6.300021489332535696e-01 -6.471359578911257682e-01 -3.476913024600601365e-01
2.154962330661168712e-01 -7.061156820862253269e-01 -2.996684111005256668e-01
8.381112998452054652e-02 -2.709191353795660784e-01 -4.063123970691793208e-01
-6.040809275503466330e-02 3.796420978869840396e-02 -4.780627318755574229e-01
-2.792436332361292184e-01 3.502071138019314245e-01 -5.449216612800031889e-01
-1.439755968547711540e-01 -8.113171172608389936e-01 -2.435061601873834136e-01
-2.217844149707970114e-01 4.098789007309916466e-01 -5.654074855490524021e-01
4.210854800134907205e-01 -9.031441011492059856e-02 -4.810000966405192924e-01
5.741610566055285192e-01 -4.520370099747926251e-01 -3.957478386619592836e-01
-6.798115439313197061e-01 3.209761942938874624e-01 -5.059697999342718244e-01
-3.296066251468940389e-01 9.684450803150151943e-02 -4.729726445931371481e-01
2.286872064964389495e-01 -3.079490833821225612e-02 -4.820448238940719943e-01
8.695839797764218226e-02 4.000484321815274691e-01 -5.867399456346272801e-01
-2.929652679512771418e-01 -2.166455846825991460e-01 -3.916323124561727487e-01
-6.768009805080861252e-01 -1.277847185055839829e-01 -3.856922643803062933e-01
-7.266911465848423235e-02 -2.326668621611881482e-01 -4.044348314998070237e-01
1.978482954721915710e-01 7.695827685784417671e-01 -5.644361419170391692e-01
-5.920642894992311778e-01 7.377452396594276207e-01 8.491996408166249677e-02
-3.334647272914034732e-01 7.770062291655136510e-01 -1.207555834404171018e-02
2.782266612033933439e-01 9.687463491241805613e-01 1.547911952777287214e-01
1.888566481410581255e-01 8.042847667001755685e-01 -4.164991282486052437e-01
-3.353099771890050707e-01 7.718276444399554403e-01 -3.101737765199273633e-02
-1.549772236807946679e-01 8.205114144136629317e-01 -1.326029703588966352e-02
4.105429812621224500e-02 9.079903366128044828e-01 1.445542103909147336e-01
2.745264944604640101e-01 7.632947945991034322e-01 -6.650612224753111867e-01
4.518872987462860258e-02 9.243062912157345989e-01 2.058852246145535525e-01
-3.721624139502596740e-01 8.209371579239188588e-01 2.020721160518439696e-01
-4.198876445734108231e-01 6.997283305745755078e-01 -2.368146039250660362e-01
3.466209158439764737e-01 9.118081727674449688e-01 -1.407020926139735950e-01
1.625054917568450052e-01 7.992655682247841176e-01 -4.106977926306915050e-01
2.846843547240673900e-01 8.509335539283866545e-01 -3.237785026806984656e-01
-8.126230944881293050e-01 5.939795391460892526e-01 -2.743781604874201974e-01
-4.091346031214122547e-01 6.381105759047744908e-01 -4.943680155677771526e-01
-3.460531251906414085e-01 7.033072924103419554e-01 -2.950939059121246988e-01
-5.557360520557441674e-01 6.589532487818767770e-01 -2.666273749030018680e-01
3.887364413773167909e-02 7.180471782312866091e-01 -6.146319874461839694e-01
-2.888726346729660888e-01 8.341943595480384444e-01 1.732848765676594238e-01
3.076074607037889708e-01 8.867092584825363444e-01 -2.029295858757831639e-01
-2.996799776963635642e-01 7.578392689558444140e-01 -1.221317469001108463e-01
2.839803448380968653e-01 9.517803329851057814e-01 8.112853282997083137e-02
-3.406108806096013186e-01 7.614075654866406806e-01 -6.756915821814735157e-02
-2.972662521445704753e-01 8.342754255643772821e-01 1.818658681237995678e-01
-7.407625022381560953e-01 7.393530163436724534e-01 2.376255997637379824e-01
-7.049852755120945835e-02 7.091113798906507615e-01 -5.428687252217476722e-01
7.394157583097850372e-02 9.075367681452796154e-01 1.103878960497408912e-01
-1.206036576111029351e-01 8.652818960520164415e-01 1.323787209208377724e-01
2.515695705420981088e-01 8.833340653131177556e-01 -1.613385142550261553e-01
-3.260108462439555432e-01 8.449436708482311875e-01 2.528999079974699193e-01
-6.901921035516781489e-01 6.843804875077983407e-01 -3.245721243632171404e-02
8.249586944975098590e-02 7.324928368097125553e-01 -5.996381682195340845e-01
6.961799339947889742e-02 7.441026019342420472e-01 -5.404370171069585727e-01
-4.771710896545346414e-01 6.288645525675777836e-01 -4.645064720918210543e-01
-6.339639715870666603e-02 8.401125392331844077e-01 -2.477496496117535113e-02
2.945743107542139194e-01 8.246456284731429331e-01 -4.388737754659459145e-01
-5.115368810463284399e-01 8.070863268551605740e-01 2.836455354910139004e-01
-5.654883271290435109e-01 6.054792580905734578e-01 -4.713696370152105630e-01
-5.729202912724751240e-01 6.210328267179578976e-01 -4.017175769880331759e-01
-5.955782884089332319e-01 6.875829339637207216e-01 -1.126844286125447542e-01
-4.280349950598389408e-01 6.076384445737079698e-01 -5.979159132708409263e-01
-4.696914983072316696e-01 8.056212761467369532e-01 2.366136939348347235e-01
-6.825809506379567626e-01 6.595038223917190079e-01 -1.396544065399263901e-01
2.421500457709373222e-01 9.446301316260009573e-01 9.361384158414505496e-02
-6.406614522870023309e-01 6.610810102930697596e-01 -1.745652331219734454e-01
-4.804662129171062834e-01 7.927246855082654697e-01 1.955196529059767818e-01
-7.955523965329878155e-01 6.759565030196106328e-01 3.741137283600060037e-02
-3.808122317627429254e-01 7.164517374719007181e-01 -2.082188034674496424e-01
-4.193633611580607767e-02 8.816984683115489663e-01 1.208015912365270061e-01
4.607731945545776725e-02 9.267143990972117606e-01 2.146633873208066978e-01
-9.247776507673738378e-02 8.675096864913851569e-01 1.136431980219804877e-01
-2.395082162312783813e-01 6.675173910457237181e-01 -5.433460114790685802e-01
-7.657595535850226787e-01 6.040811676394035601e-01 -2.799843010311510172e-01
3.346609856233010438e-01 8.039853285613299816e-01 -5.611142245966665998e-01
1.335095471112928422e-01 9.224001046010293914e-01 1.113714277394064478e-01
-6.865781659537598669e-01 6.023951515778606103e-01 -3.646259571335783711e-01
-3.114871292686686166e-01 7.142041760983008913e-01 -2.854164885698175502e-01
3.341720474106414374e-01 9.441943911101380316e-01 1.353364936854045209e-03
3.629013776759118515e-01 7.980498191955653908e-01 -6.126825495976332414e-01
1.368304902480418361e-01 7.792859534876855898e-01 -4.655259461239730778e-01
8.619210659501465310e-02 7.605863296582354716e-01 -4.906693529940953091e-01
-9.060642897737896870e-03 8.987409248670471529e-01 1.567743263271526022e-01
1.593556359169125691e-01 8.240780285000661731e-01 -3.081461297494132445e-01
-8.575945887902652887e-02 7.068962276948299595e-01 -5.367366750719650970e-01
-6.648994643493180701e-02 8.715893549544122543e-01 1.044334168616176117e-01
1.884100588998808556e-01 7.986872726508507103e-01 -4.384957613165484380e-01
3.622127752094184694e-01 8.355870559606435322e-01 -4.615482923002812710e-01
-5.197764346012716946e-02 7.424442893532432475e-01 -4.274809538891896077e-01
-7.802066106987193272e-01 7.182905897960748520e-01 1.920007725372746832e-01
-8.054131887059456929e-02 8.389640895721639513e-01 -1.251423695701935589e-02
3.323372238253557431e-01 9.145699487149293594e-01 -1.155827184986309708e-01
-1.486377132066159512e-01 8.346175981110491859e-01 3.704456066058553487e-02
1.954521324156336670e-01 8.796787735067491676e-01 -1.207918910606575746e-01
-9.475579851337392889e-02 7.853133994895572512e-01 -2.135756687683862121e-01
-1.273706943650227963e-01 8.784320631248572209e-01 1.917434243275187300e-01
1.999952678550614427e-01 8.819215861374324339e-01 -1.162709205365020093e-01
-2.589386821062182320e-01 7.125303882278071210e-01 -3.438126533965297771e-01
-6.867243766940874794e-01 7.412980646390746609e-01 1.922692066736925720e-01
4.324014524028334527e-01 9.270809813231916108e-01 -1.638603049339774076e-01
-4.438224415491240360e-01 6.430012233433347602e-01 -4.406459261349064405e-01
-6.545762959055070329e-01 5.591641520095783635e-01 -5.693820867069906422e-01
-5.803847618875218606e-02 8.739487349266903404e-01 1.055773284137767887e-01
-7.018947039530751830e-01 6.881027344648648070e-01 -6.026866154995111878e-03
-3.499929918754129954e-01 6.338668062453300944e-01 -5.695503091230319503e-01
-7.706892930976773082e-01 7.018875249253969661e-01 1.168925788741448507e-01
3.636975778582909880e-01 9.382270429761663255e-01 -5.160665384056530025e-02
-3.706467444207089401e-01 6.509774621464599065e-01 -4.806520152073525676e-01
3.397470546079406351e-01 8.111004068764514630e-01 -5.375982503627508846e-01
-4.967978933112265350e-01 6.899794904920525385e-01 -2.002401146002577015e-01
-7.724528320010848326e-01 5.449924597727049402e-01 -5.102403661692235248e-01
-3.169542798070650036e-02 8.385078852398116789e-01 -6.238819882166709435e-02
-8.206634382800603866e-02 8.406122869884473658e-01 -4.407891096219028124e-03
-2.348059354827863321e-01 7.386268494587621136e-01 -2.629499449509022369e-01
1.353824575879278846e-01 8.873628077351191079e-01 -3.090745747744505847e-02
-5.650435433800559126e-01 6.880637492754340112e-01 -1.407915620040663951e-01
-2.756983854723765726e-01 7.245995388237136403e-01 -2.789519794577828282e-01
3.351664873770623942e-01 8.641534377798268940e-01 -3.204453265822905794e-01
-2.129327652702004692e-01 6.954241003751371331e-01 -4.576301307197150336e-01
4.038870419641521492e-01 8.861244202756652921e-01 -2.999754827723789541e-01
-4.053418952378090023e-01 6.997772554338407280e-01 -2.509258757483389113e-01
4.125426529351967075e-01 1.000000000000000000e+00 1.479474217737944686e-01
-7.611195865001151306e-01 6.224414709781409538e-01 -2.109563685963909418e-01
-3.417087571609857544e-01 6.511350566818155938e-01 -5.084840937241122960e-01
2.285955431002492377e-01 8.797440122604295309e-01 -1.531306551658471737e-01
-7.015188592907631859e-01 7.023329923098829974e-01 5.064123904367124479e-02
-1.335046809109542154e-01 8.181559621186239584e-01 -4.382208207692561697e-02
-4.170899167533522744e-01 6.566569721304207352e-01 -4.122053162243069502e-01
-6.724168604888733358e-02 8.780898965753940466e-01 1.312283402790808962e-01
1.358992602889085854e-01 9.097327213188050044e-01 5.824740845561378333e-02
3.646541613213361704e-02 8.750692165062567973e-01 1.711329163213527044e-02
-5.636406726556989488e-01 7.273270227971126989e-01 1.520380643526837543e-02
-7.491626390914501998e-01 5.652518712251448640e-01 -4.519450038783783818e-01
-7.345790023431436611e-01 7.123809099663533928e-01 1.234337040937817653e-01
2.015891397986724898e-01 8.142626918165832839e-01 -3.890293898031244590e-01
-4.399260374685066699e-01 6.935257845724012160e-01 -2.419656772955645907e-01
-8.025638161011081628e-01 6.242015312569136887e-01 -1.631366472238669763e-01
3.529577436855160788e-01 8.153978032146295130e-01 -5.333675963995623270e-01
-3.688177834806857791e-01 6.341371812457340384e-01 -5.499503009510343654e-01
-3.129286299507206583e-03 7.904781244750979097e-01 -2.829993235293860598e-01
-7.347283309907026716e-01 5.850998286192033992e-01 -3.865880797809499447e-01
1.250039322699630917e-01 7.260585612192095306e-01 -6.672395017802561501e-01
2.859538081673688725e-01 9.266164156230795035e-01 -2.167472838313904207e-02
-8.442002220029232173e-02 8.417666439673630041e-01 2.534114450573357342e-03
-2.504790353287000282e-01 6.677983693837982182e-01 -5.314287640726638173e-01
1.641033508486748893e-01 8.873685839719437363e-01 -5.913451860688206940e-02
-2.700980199196688636e-01 7.953834317077683735e-01 -7.442132417054277789e-04
-3.654684944057370877e-01 7.739138410113680644e-01 7.008803410093735094e-03
3.997598979402250396e-02 7.972945610239875469e-01 -2.980765126845023594e-01
-1.107938175250592072e-01 7.566304710162734537e-01 -3.127675388304860804e-01
3.652559944502775102e-01 9.503395490863503214e-01 -4.590123578961041208e-03
2.632656409438184353e-01 7.906148021025768413e-01 -5.444807221418641596e-01
-6.162809607770104448e-01 6.054208883843339439e-01 -4.216433539631317950e-01
-3.604934497575137953e-01 6.775858683403924720e-01 -3.839869705771799535e-01
-3.961261930712960400e-01 7.289673539549466064e-01 -1.429906518788586767e-01
-3.065577757479118204e-01 8.028936055642823533e-01 6.522035415719809603e-02
-2.759923712371644550e-02 6.987714784438001647e-01 -6.265094239715628399e-01
-7.788067071960547150e-01 7.208200675200487906e-01 2.007624759743952547e-01
-5.461175016726338427e-01 6.305061655626731376e-01 -3.901100367763452037e-01
-5.074450526504917791e-01 6.171834562174062233e-01 -4.815488693623141137e-01
-7.855725565632426521e-01 6.359369689742297993e-01 -1.328114129290618728e-01
1.707472337689643904e-01 8.377911503568267193e-01 -2.643860379385177262e-01
-3.195422448274297667e-01 7.983216232533228984e-01 5.966659063726055534e-02
-4.924950033056325616e-01 7.950549864853959647e-01 2.166916387307897818e-01
-1.149742162846978111e-01 7.764354727000879475e-01 -2.292731421418049698e-01
-3.313120449920790578e-01 7.109367134667564647e-01 -2.790131248242598283e-01
3.818346001742833201e-02 8.791171403178856814e-01 3.164831157576927095e-02
-2.821077440591258090e-01 7.560995550734181947e-01 -1.463891355402529015e-01
1.071129506841113355e-01 9.339696170246966078e-01 1.837084125197724349e-01
-7.026262393871982592e-01 6.437403441434946805e-01 -1.831208733981423420e-01
1.253120046560649570e-01 7.774064546001575593e-01 -4.617296430108832617e-01
4.093080622114546319e-02 9.199662487798075938e-01 1.926775894036410475e-01
4.274351188786361666e-01 9.920384472958029276e-01 1.013874792185291002e-01
8.756486379408026655e-02 8.728200538498529504e-01 -4.216384007593430849e-02
-3.894089303212587838e-01 7.077013611250496661e-01 -2.348362902738765357e-01
5.784372658425906977e-02 7.489962440494850604e-01 -5.092409869678763412e-01
-3.338801365566677060e-01 7.891440618791359940e-01 3.698396481182632950e-02
-3.852464597701811266e-01 8.242947026390832210e-01 2.283994671923702813e-01
-3.637363279565191676e-01 8.079671145630290541e-01 1.417975247687135731e-01
-2.585964680611033684e-01 6.640693400453794304e-01 -5.383910743341184801e-01
-6.141188022348177400e-01 7.536669714944408405e-01 1.704306110684131459e-01
9.555975161160454312e-03 7.129234827959782805e-01 -6.063315998654128514e-01
-2.467150580752041356e-01 7.588525966883227225e-01 -1.701670488419080307e-01
2.267785347271537300e-01 9.135084581999961539e-01 -1.600860335914158425e-02
-2.396888983239893745e-01 6.957993836923702657e-01 -4.298082663785821600e-01
-1.499290883310859177e-02 9.031187433572418488e-01 1.801565678335818044e-01
1.034978239531438998e-01 7.862144651341497203e-01 -4.049686426925911409e-01
-8.186415337737433517e-02 6.998037404846577658e-01 -5.689962866873575775e-01
-3.494601627165687396e-02 8.060259820603385972e-01 -1.893850077643607077e-01
1.741308100391127101e-01 8.024323273514399890e-01 -4.094395747401198271e-01
-5.931372958493430492e-01 6.202651470194784356e-01 -3.849089075408110849e-01
-8.510892227090159634e-02 8.603580615023048717e-01 7.772993730790357658e-02
-2.013021808941602708e-01 6.894057696599421581e-01 -4.931928155542688041e-01
4.038962301437794000e-01 8.341286460275376680e-01 -5.083942421459254346e-01
1.846607245787595386e-01 8.427227273324238155e-01 -2.583047421538285371e-01
-7.744222186086835436e-02 7.689543957523511386e-01 -2.961757498483781892e-01
-6.018767388768808679e-01 7.666687749049834188e-01 2.105030647099758456e-01
-2.096071782607880074e-01 7.925186658098916093e-01 -7.172629618013372232e-02
-5.894598038587376548e-02 7.530414764868377242e-01 -3.781511161608425153e-01
1.511098003154740244e-01 8.864731783005496135e-01 -4.994287666985505747e-02
-1.101008815590284878e-01 7.534993832485837872e-01 -3.259991605314701557e-01
1.096254095323185018e-01 8.796499592217815744e-01 -3.648719542565326962e-02
3.342098119408597467e-01 8.293011740088837014e-01 -4.591993467422662567e-01
2.149096138562160141e-01 7.746689601445579942e-01 -5.608313599388088377e-01
7.318854706141436628e-02 7.315751297809931497e-01 -5.941617327023293038e-01
7.295062089395774885e-02 7.643054294190559927e-01 -4.627379553690737501e-01
-7.270627219863757817e-01 5.520160724945311070e-01 -5.267345406746613001e-01
-1.156828183080279016e-01 7.617576645546327851e-01 -2.874078165750691971e-01
2.309937037525154613e-01 7.668842333517585930e-01 -6.078546435389514668e-01
-4.554941965679681348e-01 8.118982644037077145e-01 2.478085141121000312e-01
2.877670023032647961e-01 9.432262169855252232e-01 4.311728091387047324e-02
-2.427618392367563438e-01 6.697410718351942682e-01 -5.312327406150844089e-01
1.992663438570755896e-01 7.693599632345550221e-01 -5.667240007275866631e-01
-4.369926385475973452e-01 6.158661865634753596e-01 -5.561265917081487098e-01
1.195736191017694044e-01 9.363794528279277829e-01 1.811110662035089747e-01
-3.020729669151629437e-01 6.741735270971286331e-01 -4.551274180999561048e-01
-3.144223473179510453e-01 7.181293577146977691e-01 -2.667964405177506437e-01
-7.963682910808541626e-01 5.730858702247667580e-01 -3.741126871805074416e-01
1.172924985308234358e-01 9.375125837654770811e-01 1.878966247058235228e-01
-5.808148053652957277e-01 7.766253460928980168e-01 2.296942737913577615e-01
3.830530066553086699e-01 9.968909656907261052e-01 1.644921430604823487e-01
-4.682196346860513780e-01 6.024829633805501850e-01 -5.790540474664016557e-01
2.425657155666049447e-01 8.270658516859655807e-01 -3.780167496228356572e-01
-1.585363900981326402e-01 8.664696219303300584e-01 1.744504582135709136e-01
-6.850735383115302835e-01 5.596518572815522008e-01 -5.374298123071047373e-01
4.233294508408549928e-01 8.793654912104847954e-01 -3.461904414420353127e-01
6.490884017628424651e-02 8.045590699032646453e-01 -2.934831212240196496e-01
-1.370584331414726464e-01 8.555512182042891434e-01 1.095612830637969215e-01
-7.402311187760597377e-01 6.323445511366420080e-01 -1.918089395066095437e-01
-1.482641559595875291e-01 6.754503672736184017e-01 -6.012977635025877898e-01
