-8.341935356297439652e-01 3.528996768376885806e-01 2.227439220554025545e-01
-7.245231922412739278e-01 2.330166443118401598e-01 3.170995139890454007e-01
-4.327038063860905726e-01 -2.390848762698185304e-01 1.832097830464065880e-01
-5.850583718521606968e-01 1.898746720008249178e-01 7.119275614895068660e-01
-1.810270372594282862e-01 -6.206713029390972247e-01 1.320359220521627464e-01
-1.853037590671593737e-01 -7.381887983969075417e-01 -1.788724823204944081e-01
-7.373451121424952071e-01 7.187042671961751950e-02 -1.343425902737924726e-01
-6.365785310483750292e-01 -6.332382260517008254e-02 -1.106158950388446138e-01
5.662375382342439006e-02 -9.749586695277228099e-01 9.888328068444500463e-02
-5.232062346798734831e-01 -6.278073863098468377e-02 2.998870325834961936e-01
-1.216679215924741930e-01 -6.528248316278794094e-01 2.654071273818596199e-01
-3.857224586850267478e-01 -5.026852711163011245e-01 -3.100153926691150419e-01
-5.961312169408968797e-01 -1.574224796299341367e-01 -2.012423378326632373e-01
-5.753436775960553140e-01 -7.934930895372022119e-02 7.007524960795138980e-02
-6.925457225735596190e-01 2.780747656623493991e-01 5.457894363182564934e-01
-3.726774107394539293e-01 -2.094509909148292159e-01 4.743413448706638724e-01
-6.054408045491736778e-02 -7.091803080429949224e-01 3.442958369645325312e-01
5.528475993800401056e-03 -7.507544944146913313e-01 4.782080904755107720e-01
-5.192809006912225689e-01 -1.886187097686928271e-01 -2.342025327190916037e-03
-8.081999655880475197e-01 1.945068912041383324e-01 -8.169804876281910877e-02
-3.858034639446548675e-01 -5.234191585692923310e-01 -3.624389991579954340e-01
-5.792070425051564220e-01 -5.359634989640478520e-02 1.208838968936449820e-01
-6.508588442410435937e-02 -7.501499966569064037e-01 2.248951842863754491e-01
-1.676538457547166738e-01 -7.320530189546469169e-01 -9.975034338431640335e-02
-2.013117952878622774e-01 -4.456342915994511156e-01 4.989284551635531639e-01
-1.439262625880367852e-01 -7.277191779213832978e-01 -3.225755031854142009e-03
-4.396006156451520153e-01 -3.854698384799519206e-01 -2.097355392736601765e-01
-3.913726037285002457e-01 -1.397370614264397681e-01 5.821561545648666902e-01
-3.130663783070885553e-01 -2.853523640575992837e-01 4.986263305422435899e-01
-3.914805574733891125e-01 -3.839054492727335122e-01 -3.214673421577202844e-02
-1.088208236001873691e-01 -5.533547712349852210e-01 5.618675482394659415e-01
-4.687692370209282644e-01 -4.084584888632986077e-01 -3.727995654321213381e-01
-2.950237035602763513e-01 -5.166695922956739961e-01 -1.786294016203316196e-02
3.589801219433458312e-02 -9.209554149222320962e-01 1.598688585653526006e-01
-4.677014668839373779e-01 -6.422904529267611795e-02 4.965509154013528215e-01
-7.276933316009618347e-01 6.082291587494582930e-02 -1.272880761057750554e-01
-6.225001878121133592e-01 1.709308918550327960e-01 5.291772960057826714e-01
-8.193316894756148550e-01 2.222492019883499370e-01 -5.211759076130224877e-02
-5.447326846706939119e-01 -2.594969708944509512e-01 -2.724017359748572842e-01
-5.449485199287067427e-01 -1.712137536964953299e-01 -5.120988501625642342e-02
-5.035307976596766627e-02 -7.077835601267178367e-01 3.845849233716577276e-01
-3.888043061059427430e-01 -4.492184434018412498e-01 -1.867053458524769172e-01
-7.581864841624363915e-01 9.057180221468090486e-02 -1.625339187769293814e-01
-4.268794444908017849e-01 -3.471494226160681817e-02 7.180766495129256022e-01
-4.410080984373319080e-01 -6.875917234211570417e-02 5.814917153844204600e-01
-7.199825339964699422e-01 -6.018947278370209882e-03 -2.675220791297566736e-01
-7.045599866384681942e-01 1.493040438039734408e-01 1.786638024052866758e-01
-7.581089052693937846e-01 2.440453438865099189e-01 2.236250311435229177e-01
-8.027792860629129335e-01 3.376954720218404149e-01 2.978835517266459343e-01
-3.458436887868533427e-01 -2.303040464108319363e-01 5.187478643005376533e-01
-1.983611744743465563e-02 -8.724933572129156545e-01 8.058407018997457150e-02
-3.067642354498830715e-01 -7.295192516516016967e-01 -5.954006539006704291e-01
-2.241683365923800575e-01 -6.275653197556261276e-01 -4.098585835907280622e-02
-5.790686533396662838e-01 -1.204524928769115655e-01 -4.671328457720240468e-02
-2.457011188849093364e-01 -3.600504937984819742e-01 5.539200553178045272e-01
-8.548866986379788369e-01 3.847792096889441904e-01 2.282213299325349665e-01
-3.424258503108804086e-01 -2.930754875597386677e-01 3.732557232332964769e-01
-6.852434241016083227e-01 -4.019705823251566723e-02 -2.280898567615848305e-01
1.970176139021374007e-01 -9.970952936201987749e-01 5.498778522481559961e-01
-3.868154817527322265e-01 -1.951893599316313344e-01 4.591779970136967703e-01
-4.137404124517970461e-01 -4.967096649550875043e-01 -3.961019779518958894e-01
-3.025629940065912016e-01 -5.087053446491760500e-01 -2.504616711850327082e-02
-4.838378018383445167e-01 -2.299938354659710749e-01 2.153527369711543543e-02
-2.304399528707737066e-01 -7.431032199168100538e-01 -3.541161268613857160e-01
2.438514796141574500e-02 -8.366470055664048111e-01 3.302981692892441035e-01
-3.454672930051114199e-01 -4.070306690380475767e-01 7.576192541497946131e-02
-2.914397471834340725e-01 -2.330871664286131018e-01 7.080829651412255954e-01
-8.063285934271282596e-01 2.653226674292766818e-01 1.031076683166179259e-01
-8.439393032687037000e-01 2.563379962897179842e-01 -5.521188319575760783e-02
-6.644563523368746116e-01 7.755405749830818207e-02 1.429884188652461030e-01
-5.948453930769418418e-01 -1.244843964900173572e-01 -1.137857415917082338e-01
-9.305320607193696691e-01 3.216752750198683120e-01 -2.034297348314196563e-01
-9.207967667651743016e-01 3.325250174021996408e-01 -1.410175087275152284e-01
4.238576534775946592e-02 -7.606229065840383052e-01 5.864063378180712771e-01
-6.943515045359270610e-02 -7.074800523450918144e-01 3.164847402014965283e-01
-3.662990721630138280e-01 -5.659313241318406629e-01 -3.989400996035433189e-01
-2.033590361245593836e-01 -5.973716262075693395e-01 1.100267483872438279e-01
-1.364721677142548273e-01 -4.812234608541506309e-01 6.434394667003867641e-01
-4.623217048141645691e-01 -2.266219849723230817e-01 1.076603247956462728e-01
-9.503577544720133441e-02 -6.794029027042924884e-01 2.946917771668505770e-01
-5.774984499146988970e-01 -2.295644362332810440e-01 -3.153872258865851319e-01
-1.545028596541460908e-01 -7.618046998523843039e-01 -1.270958619645484455e-01
-6.056554037799397605e-01 -1.069638244894029339e-01 -1.087448347583280378e-01
-7.829051425355918470e-01 9.398209405745178158e-02 -2.431639986368503703e-01
-2.697493467852972726e-01 -7.558482160488008139e-01 -5.280204784103157412e-01
-1.625539556445403933e-01 -6.617714150036690945e-01 9.536336428432953816e-02
-8.667043240034587592e-01 2.158234763471813811e-01 -2.392319693187491547e-01
-1.116300392323081037e-01 -6.467600061308793613e-01 3.168806024135338850e-01
-8.109708907442407799e-01 8.737087871479810863e-02 -3.610701471399938578e-01
-7.625715666155888917e-01 1.912546927878140679e-01 7.478850678833004473e-02
-6.338685977101147229e-01 2.832757277848354724e-02 1.296030773605607866e-01
-2.562738180059239701e-01 -4.577288937603715691e-01 2.701722523784005348e-01
-7.047467191114900054e-01 1.444650103802752258e-02 -1.610827989099073154e-01
-1.609220109975587065e-01 -5.975055038596984724e-01 2.628366910849183058e-01
1.740792799722187811e-01 -9.950824527243979922e-01 4.721589844108370904e-01
-8.372200603434357680e-01 3.627246533004062634e-01 2.365247804564423184e-01
-4.904197623258413352e-01 -3.807686408772331665e-01 -3.813112195986904651e-01
-2.071589503875592708e-01 -8.433178031728527646e-01 -5.220695719351613473e-01
-9.364865963679176453e-01 3.482892019168176700e-01 -1.580029614067079979e-01
-4.653542307887681417e-01 1.708757019210061998e-02 7.094762196451749325e-01
1.202883066760183361e-01 -9.180774036770518176e-01 4.716523784511583717e-01
-3.857316423532715088e-01 -9.559857384586915863e-02 7.134907624011977978e-01
-3.814893177075289743e-01 -4.881512071692268306e-01 -2.581958115947650123e-01
1.283123001163732624e-01 -9.778836612962188424e-01 3.502382791749128477e-01
-5.059026116472431500e-01 2.828411536134641663e-02 5.912969061000290516e-01
-3.219199629470193003e-01 -3.554698902771213365e-01 2.903788475127002666e-01
-6.151438131580629909e-01 -1.451683559279463021e-01 -2.390443325856708989e-01
-4.910735113992409917e-01 -2.825596611909764536e-02 5.026532030757913105e-01
-8.969836250453528947e-01 3.396955862794017733e-01 -3.705176376231407442e-02
-6.200922061419840148e-01 6.467870957929711118e-02 2.707170309972726230e-01
-8.467752932970560309e-01 2.987859141952102782e-01 4.128053491393462310e-02
-6.018563764985411790e-01 1.000393766335605783e-01 4.254338443239089607e-01
-4.433076933525988417e-01 -1.994932556581708039e-01 2.444878516713487326e-01
-2.432482234698888357e-01 -4.306468352972998570e-01 3.852714616427352357e-01
-3.752332360557284474e-01 -3.797755448180658577e-01 3.687035972810127904e-02
-4.898124195259338509e-01 -3.056108864044423945e-01 -1.901500773210643702e-01
-4.159512736125304255e-01 -4.386921809750495838e-01 -2.582069910877609620e-01
-3.079327697557478483e-01 -4.140804003177031567e-01 1.934911892607689143e-01
-8.229659714879833388e-01 9.365691280859463064e-02 -3.885529480798818880e-01
-5.574148586103583325e-01 -2.191570313379750945e-01 -2.167422797833286341e-01
-3.740292755215698928e-01 -3.720794769149657899e-01 6.056545374826136086e-02
-3.523500911408280478e-01 -2.453897099033895413e-01 4.573376590771083827e-01
-5.636197430480400783e-01 -2.646322614543547558e-01 -3.534729464588989845e-01
-7.463168295704316613e-01 1.064555141015092743e-01 -7.976229674915498447e-02
-3.113461103182912360e-01 -4.593632641770131197e-01 6.731830103247969654e-02
-6.345164836152994425e-01 -1.642656645096955692e-01 -3.569727613842016978e-01
-5.304052034522679371e-01 6.053181496537211881e-03 4.469767560617063373e-01
-8.057404820404101553e-01 1.641345643165032508e-01 -1.491875073115809525e-01
-8.030522830790634559e-02 -8.942111644999262143e-01 -1.922417416767409348e-01
-4.559480772251868763e-01 -2.996528924975758179e-01 -5.296038428636470896e-02
-5.652482428595455577e-01 -2.826713871311728465e-01 -4.047056969842535712e-01
-1.788688301921327606e-01 -8.902680545055406958e-01 -5.380234661869848223e-01
-2.363632004520857810e-01 -3.164695284567492495e-01 6.971944458739810502e-01
-1.940418046716842759e-01 -8.556888955877435254e-01 -5.058371480897657646e-01
-4.848024893474534025e-01 3.606700651323395401e-02 6.870114821052722975e-01
-1.622573860942849722e-01 -5.709463105002482441e-01 3.247954543191713950e-01
-4.967011395975687860e-01 -1.951752597227789376e-01 6.265856518188832325e-02
-1.375436936805556065e-01 -6.828693837855046578e-01 1.325736030343134531e-01
-5.422840908019743722e-01 -2.334866081520096948e-01 -1.981673284555209580e-01
-2.707663688746418384e-01 -4.225686971155930283e-01 3.062749851324100270e-01
-1.241880517877580747e-01 -6.239426461083654729e-01 3.289310576863068158e-01
-5.593345875336596107e-01 4.393318645742035587e-03 3.384031225151294953e-01
-7.202969253337902777e-02 -6.487632030279384399e-01 4.547535173868744174e-01
-6.967885347756586079e-01 3.283694161942903311e-01 6.569339839319595642e-01
-8.352414106002733485e-01 3.702334388962665312e-01 2.625446850605177018e-01
-4.659252560019441214e-01 -1.093602151884823792e-01 3.894874624364655369e-01
-4.410058490577330459e-01 -3.744221740917999530e-02 6.602401461240616776e-01
-3.597706507621762362e-01 -4.575691755551023476e-01 -1.029250875023621919e-01
-2.291845076698875716e-01 -5.519212460626351513e-01 1.311039253657242387e-01
-4.681460798582681715e-01 -3.216583977631767288e-01 -1.523089906464989429e-01
1.636659144452723424e-02 -7.307436103058804200e-01 5.676340599641354068e-01
3.116225678910372263e-02 -9.494367980892384207e-01 7.116765841906776136e-02
-2.725679643532122332e-01 -7.828668974008146098e-01 -6.061254443329912034e-01
-6.115127580279071662e-01 4.054796373841802748e-02 2.410064997949965815e-01
-1.922305438843499859e-01 -9.012368505819527975e-01 -6.138220371246703166e-01
-3.174397355099015106e-01 -7.077890375057785954e-01 -5.792900098433880762e-01
-3.689648849045856216e-01 -6.163333386377638501e-01 -5.352864084215075424e-01
-9.348989475914933900e-01 2.987831012201594416e-01 -2.767467980384125670e-01
9.872295833378504082e-02 -9.460637134031277817e-01 3.234613811514235326e-01
-2.754897810868256469e-01 -3.125575486298156069e-01 5.658305144255930674e-01
-5.030354862989385722e-01 -2.178354775610167604e-01 -1.717545093273982471e-02
-2.712601924543279752e-01 -5.608315657686898659e-01 -4.314186626686154075e-02
-9.235259378172159250e-01 2.539401143805392058e-01 -3.484527853891463689e-01
-6.007484593697430819e-01 -1.958991817778424904e-01 -3.146471091892658056e-01
-8.736009267528002109e-01 2.821530408082649211e-01 -9.734777757301213419e-02
3.372035085374856800e-02 -9.360050560937980269e-01 1.141707661101653143e-01
-5.121488987111193492e-01 4.297267782162297878e-02 6.056868289165954211e-01
-3.872698194106141689e-01 -3.561322779798180571e-01 5.287912640166294448e-02
-6.961939389048993343e-02 -7.875173676941320533e-01 1.145817826005487983e-01
-6.526848478288443944e-01 -3.092921332788171537e-02 -8.729043825353413610e-02
-1.167215152199671535e-01 -4.967644341996185764e-01 6.756408198743522053e-01
-6.855748634712788281e-01 1.658579317106809448e-01 2.887987220405047184e-01
-5.906343267935993957e-01 -9.154237836288363350e-02 -1.576264948234763069e-02
-1.609522521660802785e-01 -5.040857397126971007e-01 4.976131484996911269e-01
1.700327368354486238e-02 -9.237005503976680743e-01 8.477950610648293805e-02
-4.272055831561021311e-01 -3.679468349035283636e-01 -1.209462597922044830e-01
-2.495253599387141086e-01 -3.147231070766278171e-01 6.540859344585024937e-01
-5.882256356974373546e-01 2.480197135175476464e-01 8.466918048009199893e-01
-3.584789936693182910e-01 -6.413784002852463972e-01 -5.604158429404599850e-01
-2.457885837438094079e-01 -5.957179680241508901e-01 -3.893502079053589443e-02
-2.329279781830767837e-01 -3.516996732981557683e-01 6.210122028092091018e-01
-1.731867613516407944e-01 -7.110769300312014263e-01 -6.697726218255371788e-02
-1.528625451389064582e-01 -4.830209184505061537e-01 5.797705909529773383e-01
-6.647429457618778681e-01 6.020064135065536504e-02 9.832241578447808994e-02
-4.315534227399384637e-01 -2.557015041965648439e-01 1.455820453904295986e-01
9.506924058228471974e-02 -9.495193931173039337e-01 3.015872346117869363e-01
-5.099490013047243420e-02 -8.251456824397419565e-01 8.718479067685717954e-02
-5.280338103086466006e-01 5.037534649876070775e-02 5.669739809754661408e-01
-1.559094891827104423e-01 -9.090471139551158375e-01 -5.023841414062663047e-01
-2.977159880742181741e-01 -2.489898620994926426e-01 6.454490991622672258e-01
-2.438007130145638524e-01 -3.756936114876680000e-01 5.214466942956258455e-01
-7.611447290316925018e-01 3.221333054615732050e-01 4.090061582355601355e-01
-6.611932160906149880e-01 3.087383875259013255e-01 7.360318612342914291e-01
-4.166575639533681152e-01 -2.610036420881325925e-01 1.860069746685800440e-01
-1.491646221886111234e-01 -5.525944252301963067e-01 4.181867636161811230e-01
6.080589047029173744e-02 -8.754710206684438445e-01 3.641178494646801767e-01
-3.064624095859178055e-01 -7.013010914645577687e-01 -5.233624217189194461e-01
-1.943801200756714864e-01 -4.727513888878448478e-01 4.557628559296926785e-01
-1.123259494414082099e-01 -6.893287042711268020e-01 2.073385999861894202e-01
-5.994055073552819746e-01 -1.947609094814957420e-02 1.337804336403127237e-01
-2.657854130680001870e-01 -2.864142209315894694e-01 6.665838423201777552e-01
9.864307737702786988e-03 -7.271140031422886896e-01 5.532945789242612600e-01
-2.873548141652583210e-01 -7.457110075554752582e-01 -5.660669989592931328e-01
-5.183285348747467686e-02 -9.333101985899833197e-01 -1.877975773018430716e-01
-5.831979946147268778e-01 -2.091457762984639257e-01 -2.846170204358667299e-01
-5.949702616664620525e-01 2.197131589651627262e-02 2.539976676321523130e-01
-8.302769617955847448e-01 2.475648652487156265e-01 -2.796559426020123890e-02
-5.596126672627198539e-01 -5.174844308771493068e-02 1.962421906335532762e-01
-9.727312932204204565e-02 -6.302177731009394046e-01 4.102839422884297926e-01
-3.471508423693550061e-01 -3.128792845962501956e-01 3.064114464941120053e-01
-1.791685831580277777e-01 -5.615885451893862790e-01 2.872946571489941037e-01
-2.393762565837192768e-01 -3.605605070339519269e-01 5.754628630782361309e-01
-3.324513197889320537e-01 -2.689193898944346461e-01 4.699875139954073910e-01
-5.265651334128446104e-01 1.337467281082704851e-01 7.818950491979359541e-01
-1.558059677129625120e-01 -6.200953519167115013e-01 2.245017234933729400e-01
-4.096140435548976666e-01 -1.452020035475967141e-01 5.025860055954354255e-01
-1.469427337226049401e-01 -6.003984329915934559e-01 3.060113457607950282e-01
-8.286835034084664986e-02 -6.893294377750169843e-01 3.136432112290278296e-01
-2.181274660444334212e-01 -8.079029117299966201e-01 -4.726089363477520844e-01
-2.307623173231519997e-01 -5.189091744788852933e-01 2.084122827915073084e-01
-6.692611582622970401e-02 -8.744758091149400503e-01 -9.433859584819120903e-02
-4.712985791707436367e-01 -7.357789859184599157e-02 4.600638224957771527e-01
-7.558994051514544843e-01 3.193374455457945182e-01 4.209058213127761516e-01
-2.824421723308996879e-01 -4.225264086827744126e-01 2.642457223418481216e-01
-5.451818842010779376e-01 -8.165481438590364849e-02 1.731262592241245568e-01
-2.059193743722447789e-01 -8.857103365082757973e-01 -6.241838684010148075e-01
-4.480674221667360069e-01 9.397390160687765434e-03 7.525253368145656818e-01
-7.787739741580596009e-01 2.771258853194819571e-01 2.322235244160737178e-01
-6.328792654796571160e-01 2.170259108173084039e-01 6.076181693197869604e-01
-6.493898923927541311e-01 -2.853666840934173873e-02 -6.938403458452455097e-02
-2.244609809515397403e-01 -7.561729413820293955e-01 -3.654004786671765648e-01
-6.133652708750308991e-01 6.192810854835294893e-02 2.880773213509920105e-01
-7.628817706980017821e-01 2.415670584803985554e-01 2.001695747587922958e-01
-2.741147253340523587e-02 -7.291222263623933220e-01 4.137246235994594401e-01
-5.836494324303498349e-01 2.078120150404861866e-01 7.621120510474546084e-01
-3.995415753821571769e-01 -4.356091676187425210e-01 -1.912361138193894305e-01
-6.552881957597936902e-01 -2.259450931919894205e-03 -2.460091984464351372e-02
-5.421312898870638275e-01 -3.185511078464916546e-01 -4.114938264587450489e-01
-2.313128028194286756e-01 -4.309264217182119938e-01 4.276409907952156697e-01
-3.472325895831048781e-01 -2.023155095855568297e-01 5.841072667622121406e-01
-1.917252304589160961e-01 -6.864156641034283579e-01 -7.187291438218139372e-02
-1.290189631962116064e-02 -8.453389655494439880e-01 1.738826251776239007e-01
2.852298843826594002e-02 -9.524105447672780445e-01 5.416617813378472174e-02
-1.677372287382920546e-01 -7.787691350909656807e-01 -2.175097256615567132e-01
-2.995081000773884838e-01 -5.868349887850989877e-01 -2.104632764622576258e-01
-1.810931158949448394e-01 -8.528888165659483933e-01 -4.520677293234068306e-01
-1.953783468540512824e-01 -4.217722593934772890e-01 5.803374368032373498e-01
-4.766158675121534016e-01 -4.363231806893986264e-01 -4.711767291787923861e-01
3.016567427060889289e-02 -7.948499274415988802e-01 4.562494256744540344e-01
-4.375339933415489657e-01 -2.639217761675106272e-02 7.005525119361023512e-01
-9.003158612396311433e-01 3.607750110962525958e-01 3.922937439765172667e-03
-3.663286125510871738e-01 -5.160691657233487106e-01 -2.736781312309355951e-01
-3.993158843989880885e-02 -9.125266148137606281e-01 -9.259211709450709815e-02
-6.457445733767859242e-01 3.467412530737680187e-01 8.873335740461957277e-01
-5.676055401349378027e-01 -5.597291392144914529e-02 1.567759461647842134e-01
-5.502779565449529287e-01 4.170774233999525321e-02 4.649064198128306513e-01
-1.169525172695678877e-01 -7.803938622113393286e-01 -3.832313607057209054e-02
-1.095243974015986527e-01 -8.490882896775608923e-01 -1.842351732575426282e-01
1.823311345105278758e-01 -9.954731387815998200e-01 5.009559380543913143e-01
-3.094873355913205226e-01 -3.429779337426996366e-01 3.666542226029587126e-01
-4.295823686561685562e-01 -1.108455832792783063e-01 5.169068507780328892e-01
-5.849632823054718989e-01 -1.495766106033275672e-02 1.972601743193521107e-01
-2.725291182976939397e-01 -4.187469564435389313e-01 3.095225966522395233e-01
-5.788702280827191515e-01 -1.221835574764256610e-02 2.261362054111671072e-01
-3.255225023157640729e-01 -5.914717242162259581e-01 -3.160020958209238118e-01
-2.012217365115634149e-01 -5.215041450329956918e-01 3.084936601196464068e-01
-6.871978766590073340e-01 1.335512430486908153e-01 2.017127954536235279e-01
4.004686641488022225e-01 8.000389925168163718e-02 -6.744669587604485983e-01
2.864565990156711650e-01 3.528758142763132044e-01 -3.998305336953210110e-01
4.671300580506935751e-01 2.912326451799656102e-01 9.719345543756729988e-02
1.852275805754220461e-01 6.074146808111463569e-01 -1.251575438258718809e-01
7.920240694633636780e-01 -2.652094362550690976e-01 -1.293944343604757075e-01
7.217559304800374997e-01 -9.383060152793108732e-02 4.792052662102251614e-02
1.441838511355439945e-01 9.266344080451247578e-01 5.293391361443712251e-01
1.758659400488134239e-01 7.850984199717864209e-01 2.878089638646490478e-01
1.116814014810625783e-01 6.309566188215128824e-01 -3.313791100649694510e-01
1.759907812847971709e-01 4.521232565582916640e-01 -5.489409560697757762e-01
6.331590721079755069e-01 -3.059943648184728082e-01 -8.052514132804463598e-01
2.306327830762143760e-01 4.776522105636059612e-01 -2.875616125033121917e-01
5.519512209297149363e-01 -8.858915211266726875e-02 -5.516913786584394241e-01
4.467986095993650153e-01 4.248242569098714672e-01 3.597112005073794805e-01
4.620881560774859897e-01 -3.056896522367099842e-02 -7.301084872579454155e-01
7.018549161726523877e-01 -2.215808253176581588e-01 -3.451009359221529627e-01
2.698330631537949609e-01 2.645096945018943768e-01 -6.820006760955407143e-01
6.657112349471414614e-01 3.557869933576311705e-02 1.710408642907850496e-01
3.868116001273902982e-01 1.845702459225581626e-01 -4.608410346970303606e-01
3.136496596725799613e-01 2.171756784131055884e-01 -6.428875910024517415e-01
2.437525397509378855e-01 3.233503916602530892e-01 -6.281766151485767002e-01
4.765219011317826103e-01 2.972139331875182644e-01 1.461254681703099967e-01
1.535277267416094993e-01 8.222598984574003289e-01 3.006301330402844085e-01
1.543061729330214293e-01 5.363570310149663456e-01 -4.154070460245658514e-01
7.196981163841291718e-01 -2.618449186133364748e-01 -3.819446024746469548e-01
3.698601748358595898e-02 8.207456330989781890e-01 -1.237524022817120539e-01
6.807040012769330906e-01 -2.018001431452754457e-01 -3.716956374111552441e-01
6.562613083846960960e-01 1.194336453478409416e-01 3.477747512685144815e-01
4.055966165753290276e-01 5.643497914548123440e-01 5.618310949411755573e-01
6.802427750997651623e-01 -2.957698991401844779e-01 -6.096285461886776780e-01
1.919526928905168073e-01 6.592681131522647453e-01 2.948725182688670052e-02
-8.779953322184041661e-03 8.378941006811329029e-01 -2.457959954582595308e-01
-5.381104074253789671e-02 7.968158762681285534e-01 -5.115870900103848262e-01
2.938101523607293819e-01 4.307881582885867977e-01 -1.773978234538241827e-01
5.462165419495467189e-01 3.437227302274697416e-01 5.145763918890142730e-01
4.404010800823103255e-01 5.013714709505293632e-01 5.290867123741206379e-01
3.882697092624062818e-01 3.671238500873399979e-01 3.416054610480704582e-03
2.257459440198467671e-01 5.846519875664748511e-01 -3.616735759517908377e-02
8.742473435125904802e-01 -2.332470690126285107e-01 2.476956346409984744e-01
5.342755500720266504e-01 4.018930621758813604e-02 -2.916912009089094870e-01
2.474841085373398197e-01 6.249920791997187752e-01 1.437084486594970290e-01
5.376568785638912162e-01 1.732391780736175155e-02 -3.369791916303357393e-01
2.080282725599697791e-01 4.730322340506900036e-01 -3.807526924501055676e-01
8.644822683573391009e-01 -2.355834624600686433e-01 2.065810728856871115e-01
7.615163988976860754e-01 -3.501615203483012806e-01 -4.530856615886219019e-01
6.356547044660851853e-01 4.293414676681830272e-02 8.106681124931131022e-02
4.570634366659575565e-01 -3.592564881955439410e-02 -7.617099983538255792e-01
6.692746770285895597e-01 1.812334665092428521e-02 1.400125532586197208e-01
5.142387451109483587e-01 5.476449749024620700e-02 -3.273534886063068639e-01
4.497745578116617571e-01 1.965228545616230782e-01 -2.035681073452901557e-01
7.280177161002995279e-01 -9.973745393446604990e-02 5.566641470623057142e-02
4.431613507739691760e-01 1.094112667620284474e-01 -4.464587451437741494e-01
5.019705405934345999e-01 -5.628835719093652074e-02 -6.508474554341837637e-01
4.819848478834192207e-01 1.093970014641822835e-01 -3.063885449379189496e-01
1.294455354796734403e-01 4.804927986898690495e-01 -6.455836122685330025e-01
-1.065889619198275295e-01 8.985698747516986939e-01 -4.462114405107365234e-01
1.984593446562330499e-01 7.396567138645051553e-01 2.550897269388422983e-01
1.119225166163914514e-01 9.351269720494962412e-01 4.342674514727437596e-01
9.184025407359078796e-01 -3.991282474566468230e-01 -1.003282338400241641e-02
6.269696921750084195e-01 5.433879756399360994e-02 7.839912418583272480e-02
9.423650509817509402e-01 -3.912594170605762089e-01 9.622760308755701208e-02
1.400872545691706286e-02 7.966725132622585193e-01 -2.671998707982964349e-01
2.945725926162887087e-01 4.845232369781016235e-01 -3.954006376631463704e-02
1.252182146138198365e-02 6.851437248203327002e-01 -5.529829688750749206e-01
2.575827706388845728e-01 4.066718570739616401e-01 -3.687707290918604275e-01
5.936997769328770103e-01 5.406409841596942351e-02 -4.235587810333321657e-02
7.296462830605330296e-01 -3.425848201013039773e-01 -5.490482769591068513e-01
1.795560450255407059e-01 4.025678513387872526e-01 -6.606719509296873349e-01
6.837390797792378128e-02 8.378831889854658765e-01 3.260908827411747313e-02
4.909297974600844439e-02 9.544221675985877784e-01 2.560424598382783912e-01
9.235219993759591350e-02 7.633920293882453523e-01 -6.815150074667768176e-02
2.508857702032616377e-01 6.468517619785334460e-01 2.109462160879070070e-01
5.051422796377249558e-01 1.971003694748767743e-01 -2.305266199618196364e-03
5.866125201995736616e-01 -9.445750335793670627e-02 -4.413606456675586709e-01
1.593483143835434379e-01 5.839326767964060361e-01 -2.775913998121468662e-01
1.740840144394150690e-01 5.206030117721811568e-01 -3.836432351970026633e-01
2.379483404874917774e-01 5.249685916045085943e-01 -1.421935427714243472e-01
4.410353538526804451e-01 1.455508152693492652e-01 -3.632652589898306972e-01
2.779305241556302430e-01 2.578895049448933774e-01 -6.694237564033707066e-01
-1.800701612150604758e-01 9.916733936448483000e-01 -4.772996176576740357e-01
1.602758499342108456e-01 6.892526513944273736e-01 -9.437787311006482285e-03
1.316885725928695905e-01 6.654738646845658190e-01 -1.723905037691177700e-01
-7.037687897167828333e-02 8.165333744579428288e-01 -5.217940504458858930e-01
2.653107448056913897e-01 6.181300703718409784e-01 1.907879668176868659e-01
2.769291663994983832e-01 6.046010497244644899e-01 1.987004191624251737e-01
6.452092586945682440e-01 -1.713689001316222316e-01 -4.232755449725247310e-01
4.310804112334449822e-01 3.073530709930401006e-01 7.629281518832456942e-03
3.885884704638253861e-01 4.815189234717453526e-01 2.921902728326168375e-01
-1.233294366205675979e-01 9.724076912313235344e-01 -3.209737505994543216e-01
5.350484942483856310e-01 1.438231392094329042e-01 -2.833494795610237357e-02
1.671172853641516298e-01 6.922732784230480885e-01 2.284632665524336317e-02
4.007267253162088427e-01 5.262472706342785633e-02 -7.423752030313111039e-01
5.545837197640273164e-01 -1.291805750322187751e-01 -6.442503640239918283e-01
2.065482176359065003e-01 4.501099417191929408e-01 -4.437274961949271845e-01
4.182044603112017311e-01 5.297841972833341323e-02 -6.784123384871122431e-01
3.167165396701643321e-01 6.306491360986989925e-01 4.077777000041301614e-01
1.722065657170910313e-01 6.171761205106959247e-01 -1.476045086560044961e-01
3.508343659596721009e-01 5.430129239887936388e-01 3.105579736292086168e-01
-1.027567170925447332e-01 8.828489007386686183e-01 -4.719089438958409821e-01
4.407541547207487476e-01 4.234814941324142046e-01 3.345218855786958878e-01
5.013275919801114533e-01 2.318564479426296898e-01 7.131561732428366718e-02
3.209863955417627257e-01 2.387496190060980628e-01 -5.621673873368630003e-01
2.175720643129372411e-01 6.297730601637664405e-01 4.778282827637289620e-02
2.421209287518508446e-01 7.985698936748055754e-01 5.607810453968119502e-01
1.593472553962385352e-01 7.300226531395019869e-01 8.971924174082228365e-02
9.136283916835277186e-01 -2.489711372211976248e-01 3.502787183804783044e-01
4.299180653998730950e-01 3.436763567952381970e-02 -6.829334812363530016e-01
6.214775916267993860e-01 8.488328020836224952e-02 1.353773394273811437e-01
5.238125990488385897e-01 -8.046693441836552663e-02 -6.328161987267508781e-01
5.208476652668718732e-01 1.410076273334770758e-01 -8.666188771789813672e-02
6.119891531540521123e-01 -5.527254513688387161e-02 -2.512587057281592817e-01
1.875607621356760180e-01 5.919316161011836108e-01 -1.556666841378715471e-01
2.245957708650512530e-01 6.465509114430324500e-01 1.153145514387223652e-01
3.242523253648175313e-02 9.296114863918286675e-01 1.335103964589309244e-01
4.928047061151541453e-02 6.371075207627497905e-01 -5.411060868481398778e-01
6.006104638679150565e-01 -1.823386600384915568e-01 -6.118047817889773476e-01
3.825320129698767113e-01 4.956672188542348145e-01 3.059068566503957420e-01
6.238197522812193307e-01 -2.988190321910612068e-01 -8.209141498203124110e-01
6.281598222888794547e-01 3.113572329797547472e-02 2.435450173525398332e-02
5.452965442361329407e-01 1.481647438351993140e-01 1.956427971984116623e-02
-1.083242239323852808e-02 9.368018321775797297e-01 -4.518932627318975222e-03
6.635421322413986855e-01 3.831140622732068235e-02 1.700838689694095518e-01
-2.513046184984548195e-02 7.466575472875653929e-01 -5.341979778119073652e-01
2.876072493058912105e-01 6.925887831395272087e-01 4.584632588477170478e-01
-2.685604229604507051e-02 7.783652157433609275e-01 -4.607025596557663971e-01
2.736709697311083267e-01 7.130800408358920484e-01 4.596913040805075679e-01
7.203164039218825643e-01 -2.578051022188013186e-01 -3.695560066887200179e-01
4.820524026338871004e-01 3.938861065557164309e-01 4.091470517505854110e-01
5.115704290916465169e-01 1.179891778361857047e-01 -1.780168934929944047e-01
4.878064032384221149e-01 4.242093411741059139e-01 5.061538633401585496e-01
4.923290997076517073e-01 -8.089898775099117756e-02 -7.475200271791191398e-01
4.134567249525791799e-01 3.831580277057110018e-01 1.346256278765124437e-01
8.649920221753549798e-01 -3.866817484717203768e-01 -1.714862009115846186e-01
4.974865777854400317e-01 1.929030837405774357e-01 -4.048637778175675356e-02
6.259787319299877639e-01 -3.131353078478985030e-01 -8.491182880365710783e-01
4.362388324582106569e-01 4.379201357993753319e-01 3.545301300446500603e-01
2.945847982713358792e-01 5.982651879979717924e-01 2.464857106245488816e-01
5.009301337957359213e-01 2.557154910022334596e-02 -4.487814644311193257e-01
6.646477757830058231e-01 -2.948289718858655428e-01 -6.635419356831361304e-01
4.974678498531746179e-02 7.630448127424451776e-01 -2.227787447414319999e-01
2.670656096969886706e-01 6.621641934503902371e-01 3.078360425885936502e-01
4.653840808745842161e-01 2.040641900582839119e-01 -1.282753260863613021e-01
8.659052421743574923e-01 -1.738152429175534586e-01 3.670203132214098773e-01
2.232625840000267148e-01 3.665159459918163054e-01 -5.935893963375211690e-01
8.085542819470422637e-01 -2.055338867276364223e-01 8.030213669900689022e-02
4.313611774819950950e-01 4.268003025324216271e-01 3.089690400370685430e-01
-1.312436901985779558e-01 8.951768541342450813e-01 -5.437163985331708860e-01
-2.463855882208935977e-02 7.693759599128723314e-01 -4.753018276853578916e-01
3.416849470515260449e-03 9.409215128291430474e-01 5.726190303927339298e-02
4.077719032526790077e-02 8.283156495142226516e-01 -9.103751937236212455e-02
6.554309433298390886e-01 1.118123274333886891e-01 3.256158311083142687e-01
8.026330956895484370e-01 -2.858912099423395192e-01 -1.431088719283034605e-01
2.795362472671570897e-01 3.436539141945113562e-01 -4.479913198611943370e-01
5.702194463848551109e-01 1.351978352202435896e-01 7.690320357637828175e-02
4.422520715122358892e-01 3.646349905065751629e-01 1.919696216081998030e-01
4.704403869559908302e-01 1.460211465300217115e-01 -2.559659481467554953e-01
5.756417534640838607e-01 -1.260744803200417874e-01 -5.604465604109357679e-01
7.197310704509383150e-01 -2.009072990143182247e-01 -2.286100392820443195e-01
5.684173059974895192e-01 -4.152199303178216033e-02 -3.739275440418424745e-01
6.138176229236965709e-01 -1.274642927585924457e-01 -4.261720583289789199e-01
6.618496399265650920e-01 -1.626460391589719945e-01 -3.412918942091721086e-01
8.292183355224010954e-01 -3.491224216722198515e-01 -2.061505982997648423e-01
8.040055940634091014e-01 -2.849827333106200733e-01 -1.358716202624736247e-01
2.314296604662306467e-01 8.181985503747037924e-01 5.715508329961093148e-01
3.633317586325126025e-01 2.730315569281822619e-01 -3.231564464560702787e-01
5.318953602107329148e-01 5.379091190034783476e-02 -2.660822619926226373e-01
6.961215758426024802e-01 -2.777807285946938820e-01 -5.070949739866769113e-01
1.279158835078248180e-01 5.141062354121379574e-01 -5.665894494502378143e-01
2.848168959029856451e-01 7.096512912496676373e-01 4.912937586542853730e-01
2.746074323829027497e-01 2.676141729990829110e-01 -6.569653536456393494e-01
2.201419375511113885e-01 4.640743938591390672e-01 -3.595596752340872171e-01
5.274563027043179808e-01 4.944621806508969764e-02 -2.930257900796293669e-01
3.640759928794498057e-01 1.517334308324066738e-01 -6.254508973482280076e-01
7.395779070103687403e-01 -3.091901021651217718e-01 -4.292426367472380044e-01
4.567717141163052386e-01 3.130469127099442250e-01 1.146599868158626467e-01
1.229373961712364738e-01 5.030400733061728413e-01 -6.123794772811692599e-01
5.174397215498441893e-01 3.542320750982781430e-01 4.371504047614366284e-01
6.218202249652215324e-02 5.983045258602431860e-01 -5.921095083375129686e-01
1.127016358886800129e-01 5.215101620914044389e-01 -6.028788451450576291e-01
8.564373283079831367e-01 -1.601179766920015624e-01 3.672916241677298688e-01
6.520370796173963202e-01 -8.049232668305456462e-05 3.203562007150439345e-02
3.309223140398992458e-01 3.018117922634671602e-01 -3.677532775827657141e-01
1.271753354249929302e-01 8.522548151905106062e-01 2.809460464891354037e-01
4.225712186711131912e-01 7.636055091456615818e-03 -7.766580425498890161e-01
3.944066313961313575e-01 4.241904678221082858e-01 1.690457196785187521e-01
7.447812906839953451e-01 -2.517651786215115428e-01 -2.660810318493295190e-01
9.398219388425304022e-01 -3.274722794257009517e-01 2.474302214577293879e-01
9.160990468600502812e-01 -2.680128218652521044e-01 3.113182435432586548e-01
-3.476828607657676817e-02 8.482412620093042754e-01 -3.135666790662878234e-01
2.717228422968726020e-01 7.520809680575022416e-01 5.507210579007810747e-01
3.374935863887253418e-01 2.813980066522901446e-01 -3.953653405600416337e-01
3.425547111979976855e-01 2.307240765482356792e-01 -5.045103889559672261e-01
3.777472697863520357e-01 8.706295468950078775e-02 -7.387152237574227120e-01
8.193764870971289582e-01 -1.880310654301648732e-01 1.633646593572332106e-01
1.653086585907899697e-01 5.782928040902127753e-01 -2.702620843301464237e-01
8.123437112832868623e-01 -2.924122643866958748e-01 -1.244611512526938302e-01
2.528463568844218495e-02 6.949134556652349914e-01 -4.823605170097483574e-01
2.250398900807363753e-02 7.677992458547482357e-01 -3.091383430042294878e-01
1.552024509795735807e-01 6.598064797973226536e-01 -1.017832444568487343e-01
7.437490279294042272e-01 -2.261315066972891807e-01 -2.053554394182061926e-01
7.596534399500600721e-01 -1.512927785347422116e-01 4.020757091784713660e-02
-5.919135781788402439e-02 9.432133895623362463e-01 -1.629158505724359329e-01
8.385538327768533584e-01 -3.623786785545832778e-01 -2.057909426323232815e-01
7.529866999819277984e-01 -3.639206524879500804e-01 -5.184622289059984679e-01
7.232994900112810210e-01 -2.522068150174099910e-01 -3.447148683787663037e-01
-1.294268569912288558e-01 9.651628661537504650e-01 -3.611937800090661566e-01
1.449943364480402730e-01 5.502283727576254835e-01 -4.141348051113792339e-01
3.133059331813831672e-01 2.768750755361298888e-01 -4.940256574333203865e-01
4.033249687367119751e-01 5.683552981332254950e-01 5.637042394904734355e-01
4.117201628637111033e-01 2.630654758346420707e-01 -1.735903311721471165e-01
4.127774564000186719e-01 1.681005151369533435e-01 -4.085454587655459324e-01
6.262219832612428982e-01 -1.471289991376079354e-01 -4.308502865989373709e-01
3.571659303349278836e-01 3.724196085435592662e-01 -9.551598620121784511e-02
2.933650599158842132e-02 8.399216238990810934e-01 -1.031436752190964395e-01
2.779558536872807628e-01 3.999936763271976226e-01 -3.120394053782648003e-01
8.749230975302980939e-02 5.562432693165456632e-01 -6.065245965580483567e-01
3.614085150344577002e-01 1.025405822936234917e-01 -7.587630055867465861e-01
6.945918498805667696e-01 -7.634060925548472043e-02 -6.133949549689060414e-03
5.032891154845147152e-01 2.700109760438164710e-02 -4.366740635066748699e-01
-5.777565301473703424e-02 8.382441141249322714e-01 -4.217314235323278981e-01
5.127560065932750683e-02 6.286856152715776247e-01 -5.550812923045409519e-01
6.535391453915133653e-01 -2.832390806654939142e-01 -6.744902146561729817e-01
5.092713285433084769e-01 1.180196075495760777e-01 -1.862373680316415370e-01
6.580434734334833502e-01 -5.091404970329779745e-04 5.263371657412715954e-02
-5.463527508189965076e-02 7.898947014125904387e-01 -5.319635138900224991e-01
2.299845512371490319e-01 7.674398459460505251e-01 4.387129671674507847e-01
3.761676100979168269e-01 2.198214912549281419e-01 -4.106207083407981684e-01
6.031204935183133165e-01 9.366170563567557950e-02 9.120194485954571939e-02
1.846243695388426476e-01 5.369196744778262920e-01 -3.045802138606076848e-01
5.053557047859928014e-02 7.951063992398739178e-01 -1.393196365327434294e-01
2.320399821014000885e-01 4.934668300800420515e-01 -2.427205737664416829e-01
3.826082318605540378e-01 1.343917346620814302e-01 -6.021741123296114884e-01
8.415617443923816277e-01 -1.320164795272712466e-01 3.842643597736131178e-01
2.200780865183260548e-01 5.521335652384903314e-01 -1.383826633345318358e-01
4.988464006687425845e-01 1.311695608677834191e-01 -1.907958355503376890e-01
3.244735323941153743e-04 8.425042137357720007e-01 -2.013487584270272357e-01
1.851260159693150498e-01 8.859357790238105990e-01 5.747623581696211792e-01
2.754001756204447759e-01 6.077597547362476593e-01 2.011245453217958001e-01
8.485230968081344249e-01 -3.554268140163668321e-01 -1.523348122205828714e-01
6.170284850856972980e-01 1.078131806993049419e-01 1.769741402864896118e-01
8.101330112123099614e-01 -1.452169562206924447e-01 2.376544862683404313e-01
3.593078275319187553e-01 3.070084573978102416e-01 -2.522497693235140059e-01
3.983925122034467359e-01 8.641713147696203356e-02 -6.658345579586055774e-01
4.147151585974872545e-01 3.951339898268114714e-01 1.692782550185676083e-01
1.457856997946064825e-01 6.617227883762060170e-01 -1.309481947952566283e-01
6.656757402489521525e-01 -1.106098626173922655e-01 -1.966495661367843040e-01
5.820147187252581178e-01 2.271730839444492944e-01 3.507235732656041050e-01
1.526635221872477965e-01 6.061611607450539951e-01 -2.458263053245050289e-01
8.229509765816502842e-01 -3.459632971787913736e-01 -2.208252198465234795e-01
1.777647805698594208e-01 4.818799577860098937e-01 -4.677215925227590221e-01
2.220336059776318316e-01 7.227486544524178713e-01 2.976524344408960077e-01
2.637439962898912027e-01 4.401233523132426217e-01 -2.624289305170972031e-01
9.260705614597128932e-01 -3.713270493056027299e-01 8.754013187439486920e-02
6.794250167674384944e-01 6.334216732660438720e-02 2.903368708408802790e-01
4.664944450616386740e-01 -3.528773964963253379e-02 -7.260715193518291199e-01
4.106425013449822026e-01 6.763575754793804684e-02 -6.688489149157297309e-01
7.385668258998887570e-01 -2.282053281822865043e-01 -2.292711631045410703e-01
7.236286387483770177e-01 -2.498068225288257171e-01 -3.374927295762846224e-01
7.021315397358842691e-01 5.348125127774097654e-02 3.474867415251756686e-01
4.418422082305618059e-01 2.379271053051952856e-01 -1.280915048783162480e-01
3.888600964332040721e-01 1.299153096862456502e-01 -5.908674993227203132e-01
2.183250777831137190e-01 4.699186049606067783e-01 -3.514222334591784458e-01
8.640994570785476281e-01 -3.048382425636504967e-01 3.107208504643172928e-02
1.768671546078230405e-01 5.338703738904380103e-01 -3.402412829210462175e-01
7.994546741090592379e-01 -3.393437928596503839e-01 -2.889751345491517465e-01
2.029140712629835253e-01 4.262302388568389722e-01 -5.168831959432564904e-01
7.174371878053961149e-01 3.445225834825767219e-02 3.548770440238880886e-01
6.318555257286128102e-01 1.653718585865374124e-01 3.752018555374421194e-01
8.807481192817457893e-01 -2.098098879335442424e-01 3.300837802451803138e-01
5.677990514324414706e-01 -5.733473722896203356e-02 -4.159167283220696065e-01
2.526330547500468260e-01 6.577690226274706120e-01 2.447011099692026903e-01
2.574875744923982301e-01 3.190049507002680751e-01 -5.895354366864918871e-01
-7.182606448394361631e-02 9.551000490086422046e-01 -1.786252617311600843e-01
6.534469467200011428e-01 -6.090391613900883808e-03 2.201283463655545267e-02
5.942145456225126354e-01 1.739440044482190861e-01 2.609162221742218901e-01
9.033616114368744343e-01 -2.432474930860397677e-01 3.276189820061062852e-01
-1.202185284152077760e-01 9.802265148021667152e-01 -2.900882271771496601e-01
7.827728748327943131e-02 6.478903149955607121e-01 -4.093512885587448635e-01
5.597890377371668169e-01 1.187153243557120298e-02 -2.708177006821006483e-01
6.238612696103649213e-01 -2.266289420153816958e-01 -6.392565632332981584e-01
2.301499745484033854e-01 6.632692250634809605e-01 1.773934433274749756e-01
3.966331307369970194e-01 4.162340241367588622e-01 1.570757907270203535e-01
-1.744093947158890379e-01 9.543552549124773021e-01 -5.507001756530655046e-01
2.902585416727371803e-01 3.626445342376589664e-01 -3.615485778396324568e-01
3.471909660800101549e-01 6.573499057935622281e-01 5.848875023453643518e-01
7.107553476313306362e-01 4.310994461986970838e-02 3.525316946832646736e-01
6.304002985301770945e-01 1.487893433490416750e-01 3.282567704362174821e-01
7.437329391382230259e-01 -2.680607975562645517e-01 -3.108364416354950088e-01
9.591152780973923875e-01 -4.117529821707864857e-01 1.051487179620612944e-01
1.641789930399359942e-01 6.331388796318974110e-01 -1.364391651473059464e-01
3.085675088009096623e-01 6.510462142936277452e-01 4.296539473896152095e-01
1.782754357332609618e-01 9.250265953963545673e-01 6.483261702045913788e-01
2.448158608552347126e-01 3.209427095969329957e-01 -6.303929487653615604e-01
-1.692414544262546561e-01 9.576431882852455280e-01 -5.237832745311551408e-01
5.690100193956461050e-01 -1.373872368811936973e-01 -6.128228310302847870e-01
2.455103444902334286e-01 4.849076374082062491e-01 -2.156291922354972301e-01
4.763214370550993837e-01 7.416635180266409333e-02 -4.154071648160842511e-01
6.716212044955043037e-02 6.735630868681133920e-01 -3.849145281129464080e-01
3.604408096004098061e-01 4.226810122668556713e-01 4.267478112868121343e-02
8.069933853003528057e-01 -3.076033657784350561e-01 -1.819644159216039780e-01
4.123845407951456377e-01 1.811366763367532884e-01 -3.771865519072110651e-01
7.172281153899068284e-02 6.497803200243705835e-01 -4.282530075538584224e-01
-1.037634943257254028e-01 9.059625247218354716e-01 -4.174275434799614160e-01
3.781364696933121050e-01 3.327988369820936154e-01 -1.194562190892554943e-01
6.997490417040893584e-01 -2.979240714665544743e-01 -5.446506580238975603e-01
-7.857636022499507600e-02 8.778342001025528640e-01 -3.972554539818795583e-01
7.274641560492722814e-01 -3.351188887236163788e-02 2.201798653504505876e-01
8.221136818251482126e-01 -2.505805622886014827e-01 1.597424928463130056e-02
5.903670905464400986e-01 -1.804388828016293134e-01 -6.439944073003650571e-01
5.377577446265792149e-01 5.497860582850407768e-02 -2.419398922282571529e-01
-3.325044314817053592e-02 7.370484569900892513e-01 -5.876614953927976615e-01
8.715726854560400527e-01 -3.475857791419164622e-01 -4.943881960336781595e-02
1.197877307878406905e-01 5.019986597255323701e-01 -6.263644052874978163e-01
4.202481049967984328e-01 2.042958945929801429e-01 -2.905792640904614754e-01
6.265322833719537687e-01 -1.286898200555148253e-01 -3.833687939496425723e-01
3.509570761116679316e-01 4.416089919070398939e-01 5.604060062923379992e-02
4.578154138208811452e-01 1.750915827905515365e-01 -2.284350116880109749e-01
1.724105137175391267e-01 5.874329577886788778e-01 -2.216518247378597151e-01
2.056629772307789761e-01 5.301509867510135754e-01 -2.456747096782966322e-01
2.990346065230393147e-01 3.644801051523101076e-01 -3.252623717584939844e-01
7.901577881730506014e-01 -3.026418721833651349e-01 -2.302459474565767272e-01
-2.675612960017079850e-02 7.844821144214501052e-01 -4.449622585640072292e-01
6.909835172074203502e-01 -1.151220734179454613e-01 -1.166640358107888104e-01
2.104406588180515736e-01 5.443048592238958205e-01 -1.928459093775905242e-01
8.308860724599470560e-01 -2.731838480827834537e-01 -9.199494437216390597e-03
9.746409730064323762e-01 -3.495268067982983395e-01 3.176332365371010713e-01
7.311415212018154142e-01 -6.848820655028854329e-03 3.004897566558721866e-01
4.432871515167549070e-01 4.551655549474759033e-01 4.233262820002369753e-01
6.177075250529323602e-01 1.026435138922623946e-01 1.664265480953436294e-01
2.139025301272048374e-01 8.047924522598473018e-01 4.745920087986101321e-01
3.260399249940827415e-01 3.143206742763871020e-01 -3.539217025810876271e-01
2.226922772044973853e-01 7.104388679870426992e-01 2.690789114762959233e-01
1.120411211691499376e-01 6.069260393103541595e-01 -3.905011129536685166e-01
8.965079547353830280e-01 -2.224717661231777055e-01 3.551220077798568631e-01
3.359016983450752170e-01 3.000441872159722023e-01 -3.542279918051813303e-01
-1.868659980465125700e-02 9.285711375083847141e-01 -5.355751405821645300e-02
4.568889261939724777e-01 1.691483278970385140e-01 -2.467216597098553232e-01
1.079007113236818693e-01 7.452225733212232139e-01 -5.772361807077526497e-02
6.647160904345822408e-01 3.187183748406514916e-02 1.581294172935700237e-01
2.378622474213413496e-01 3.561771381207767817e-01 -5.668970899559319099e-01
3.716708851955504156e-01 4.783006096639296212e-01 2.230463487024172686e-01
5.062868436049735577e-01 1.077516167051962709e-01 -2.228246042981564257e-01
8.547488219768833995e-01 -3.792947244748087754e-01 -1.898786007633387618e-01
3.010290321994142371e-01 5.996498408282987524e-01 2.732230707327613639e-01
5.846371335500836208e-01 2.169948981447338554e-01 3.345962895660636871e-01
6.975271743563330462e-01 -2.414724268131842599e-01 -4.107323847286522001e-01
6.447886885717087901e-01 1.594367198515495576e-01 4.069522603240008363e-01
1.846605343108730785e-02 7.936464873567358191e-01 -2.587226309535901603e-01
7.744212169361170961e-01 -2.579763182324904536e-01 -1.747332817721809484e-01
3.713394684536922008e-01 1.239557996863369510e-01 -6.690798791271916901e-01
3.471124729085062199e-01 5.695044446846622144e-01 3.637341316709362671e-01
2.005529960753603402e-01 6.445330005871487966e-01 2.347545108029109109e-02
4.664617652511316992e-01 2.037962555022369560e-01 -1.250598520495558030e-01
6.811873092923974582e-01 -1.647370599354993359e-01 -2.767636568951502563e-01
9.374427967180392063e-01 -3.959014373130004261e-01 6.679274794728499998e-02
1.657442399669529498e-01 6.328848668434909897e-01 -1.314291739573592854e-01
3.162825071425900414e-01 7.070645660037764291e-01 5.983429086202317615e-01
9.013749181234451680e-01 -2.799948451598968102e-01 2.280554349032011818e-01
7.485383242068756326e-02 8.737235963496868818e-01 1.461074545427240579e-01
4.710853242151806508e-02 6.812606347679961427e-01 -4.379298617135809479e-01
