3.769904457401468401e-01 5.873079707900260571e-01 1.452139887175325494e-01
6.047558662930253570e-01 6.395928365960301676e-02 1.766987317002489954e-01
-2.034176680439976626e-01 2.682281797739156093e-01 -5.746517801182658008e-02
5.220452639036645692e-01 2.223572999113068993e-01 1.629204336298983868e-01
6.411752763371473263e-01 2.833463183892580561e-01 2.041871617989403087e-01
2.917405470780581322e-01 5.949869251515683966e-02 7.981216812415416195e-02
8.300221890326623386e-01 2.105724863447385464e-01 2.570491984535985819e-01
2.579093969497076588e-01 -2.191128882665128175e-01 4.873426948972521544e-02
-6.678649803658296413e-01 -2.226192427213870839e-01 -2.370998691117117696e-01
4.883631527100720793e-01 3.237492737833057022e-01 1.600424881512834130e-01
-2.526202100644742710e-01 -2.783806597427050389e-01 -1.131402774088121066e-01
-4.164749829567109263e-01 3.480466010621902778e-02 -1.404811881599037915e-01
-4.226742691863401014e-01 -3.971723528921948798e-01 -1.743981131842941013e-01
-5.332492621229844021e-01 -8.949492248636211622e-01 -2.453869230150232950e-01
-4.563297177414978867e-01 -8.211835846617564494e-01 -2.161942878246793376e-01
8.059244080839453872e-01 4.134534749114904262e-01 2.646469306728942428e-01
-2.883544563822233453e-01 -2.106037064663944247e-01 -1.191417406675932128e-01
4.196929978462423660e-01 3.452918208098823549e-01 1.404558108040726006e-01
4.471638154305004886e-01 7.183208436126207186e-01 1.765670005395574005e-01
-6.263365432393831478e-01 -6.586302203343085138e-01 -2.565930567113408056e-01
3.269780812073267984e-01 -1.724350740683283298e-02 8.499618648321403958e-02
-9.713965743182775836e-02 -4.491198987142329679e-01 -7.782892046563416599e-02
-4.344832220252580202e-01 -6.500284175611680260e-01 -1.967746137745958468e-01
-3.847537192568794562e-01 -7.356207758822101983e-01 -1.877759432973134801e-01
5.784711893293970064e-01 4.182780204236081212e-01 1.948417001049546626e-01
2.868861553778807583e-01 7.353549718705817417e-01 1.283880603270897425e-01
5.741603934890471272e-01 2.803695582469927228e-01 1.832944833098726078e-01
8.781818049095029277e-01 4.459193125468244312e-01 2.893415797748944973e-01
-4.047955787446138043e-01 -2.570641511097812582e-01 -1.585026212645997412e-01
-2.938258628022134555e-01 -3.075391609918894376e-01 -1.280113340186307958e-01
-5.103821207829615236e-01 -7.670717720181616794e-01 -2.288588002846789760e-01
-3.411279429823328435e-01 -2.356757635407586565e-02 -1.215635515065687650e-01
5.027530999989432425e-01 8.459729180571371465e-01 2.031722507756998641e-01
3.224857880125496234e-01 -2.156618859201051008e-01 6.890988048196043658e-02
-7.739309409053010680e-02 8.369237356368673664e-02 -3.226230028202298206e-02
4.267800335551009128e-01 7.081319411910578232e-01 1.695243163657352281e-01
-5.563729740690939174e-01 2.638990181224400502e-02 -1.842590712786863483e-01
6.157554915159707543e-01 1.344816837724072955e-01 1.853167095606921833e-01
3.984487164804324522e-01 -1.625651717592405954e-01 9.627609321687080612e-02
-6.510430386653932866e-02 1.632239025008421218e-01 -2.257917779884620682e-02
5.415027971789205391e-02 -1.737486535873293270e-01 -1.075848887056061499e-02
-3.264746265356158195e-01 -4.534988962475886010e-01 -1.488964948310343983e-01
5.074917032014794049e-01 7.496122809808144494e-01 1.974947346921686053e-01
-7.985519357175542288e-01 -2.903085517303068963e-01 -2.824279926243724037e-01
-7.316638624307252314e-01 -2.662120664459740049e-01 -2.600096976655927317e-01
-3.664774653779690472e-01 -4.332960933389219949e-01 -1.597394023762108706e-01
5.615866467216880098e-01 5.247443960519939665e-01 1.975212699040151398e-01
-3.265463039712843824e-02 -3.514057889118012423e-01 -5.069765912764147286e-02
-6.372689954317000138e-01 -4.888342141396922469e-01 -2.182031664966253282e-01
4.911441721143273154e-01 4.346668045581481565e-01 1.983003526432902397e-01
-6.830806109609366406e-01 -7.194720607669542467e-01 -2.494223759918440808e-01
2.403678070172865586e-03 -1.062475839167062730e-01 7.462526795685557948e-03
6.997571947798798542e-01 3.230862853699011938e-01 2.543845189494243209e-01
-1.364944762882648426e-02 6.519377641873004559e-02 1.521247822610291914e-02
5.496857133934724970e-01 6.371941378722700833e-01 2.313637003419712623e-01
-4.046721698478779605e-01 -7.113751376081599298e-02 -1.155072228994784983e-01
-9.449237318983984280e-02 -8.592218339161915297e-02 -2.092119205812296295e-02
2.577828064093056620e-02 5.226262078645986797e-01 6.126536665753343214e-02
-6.057238352676700410e-01 -1.444755828685176102e-01 -1.829593138345805003e-01
2.953242054079888712e-01 2.015760287090225256e-01 1.206262135489077764e-01
3.520736354827977976e-01 4.657832207759319831e-01 1.577065293968791526e-01
-2.779580533584314894e-01 -3.021339615585988403e-01 -9.353385115079569656e-02
3.906569261198201276e-02 4.321588042408280317e-01 5.866153055765207375e-02
-3.225035940600387008e-01 -3.947491780903261138e-01 -1.141365928037560012e-01
8.115949199558490923e-01 3.453401229962451691e-01 2.905319493018417298e-01
-4.711758684245420103e-01 -7.721077721574920449e-02 -1.364716319539516221e-01
5.422115592779884752e-01 -1.444090222720815359e-02 1.807793325651205485e-01
-2.559285153787805855e-01 -4.595544055356101110e-01 -9.840146211810973931e-02
3.041962919597723247e-01 3.549014345709404772e-01 1.347226770181969568e-01
3.283983880458121729e-01 3.615080745435813592e-01 1.426777943497040124e-01
-2.064434501950991596e-01 -2.105654977611871592e-01 -6.468949396170040056e-02
4.837889839605907238e-01 3.044210986168855437e-01 1.863817535761749522e-01
-2.708465313124936991e-01 -1.525465711000691393e-01 -8.025741520919732475e-02
-5.572625373848899555e-01 -3.403137774874213650e-01 -1.825198210131207532e-01
-5.509822901633812942e-01 -7.999603819392239190e-01 -2.146371792066980588e-01
2.786105346100571367e-01 3.023297560142198526e-01 1.229352494781031091e-01
1.445907307196563629e-01 1.442704228679899114e-01 6.988363963105960475e-02
-5.239150926034393807e-01 6.223388776241421672e-02 -1.424088648265433021e-01
2.719029893857320412e-01 -2.099700302023481124e-01 8.291052951277978755e-02
-2.292972103413173646e-01 6.182447589618642048e-02 -5.155818555109912410e-02
6.902930583590869418e-01 2.402531779750096130e-01 2.453281099281824362e-01
3.101949307731349803e-01 2.059354767683640730e-01 1.255363839601915665e-01
5.589135951322360407e-01 6.015871735904578799e-01 2.315721577515582053e-01
-9.493528590288513591e-02 3.612087509916182548e-01 1.206954330390732320e-02
8.828476612708108240e-02 -1.850655835727463838e-01 2.811480909123450361e-02
4.778719232687251850e-01 4.905569549393332673e-01 1.983470815052615355e-01
-2.065302420208305761e-02 -9.470579789745059429e-02 1.205323752464655153e-03
6.216991781653891103e-01 3.280038405017204339e-01 2.306702359750479603e-01
-5.144905430905150068e-01 -4.047914809670881131e-01 -1.741029808356770459e-01
4.313481543837894283e-01 2.443882274583342173e-01 1.657575303327341598e-01
-1.178603565074441278e-01 6.146853559363912173e-02 -1.720954192735088192e-02
4.346030736323118204e-01 7.279945640947218521e-01 2.025913549161600657e-01
4.545506963936580269e-01 2.766031242356637443e-01 1.753015975300808715e-01
3.602182994120042836e-01 5.682724012320358384e-03 1.261306610027069508e-01
-1.315636291319569884e-01 -4.374607763508222558e-01 -5.840163808236934623e-02
-3.300931949962599421e-01 -4.823874592573250582e-03 -8.758869430848713333e-02
8.524922916327114519e-01 4.307099657015014404e-01 3.094725368473860705e-01
-4.156865589403708344e-02 5.714344544611705407e-02 6.003779123159825974e-03
2.446833388709636348e-01 1.374697063439811635e-02 9.108896973886508597e-02
8.188601288641580989e-02 4.314082684662543521e-01 7.181474251472903803e-02
-5.849252431618230386e-01 -6.886097651069170156e-02 -1.709413658090575272e-01
2.257531783659464941e-01 4.894759138116496211e-01 1.204957191143913586e-01
1.176074633087595134e-01 -3.832463087621830189e-01 2.247704745358515555e-02
-5.205533918640630198e-01 -1.430254544040948927e-01 -1.565792813598855249e-01
-1.821839440000323773e-01 -7.574735345871420888e-02 -4.721764035575200247e-02
3.624496045121334831e-01 1.924888009180133475e-01 1.406591775864742822e-01
-4.367278698182820440e-01 -3.192046386461444007e-01 -1.437744472096818826e-01
-1.477408595520331436e-01 2.770555498862130039e-01 -1.045423733422030238e-02
-2.868147878631683856e-01 4.150771698445947927e-02 -7.080592113157692380e-02
3.859244199505474926e-01 5.193003128672398772e-01 1.721135208985241083e-01
2.752152610017186141e-01 7.031859262278395972e-01 1.515868294367321290e-01
-6.370187652818759538e-01 -5.600422987619649851e-01 -2.234016940287410213e-01
-6.964674008343744172e-01 -3.668847846764373144e-01 -2.274290678293466039e-01
-2.265340748149861916e-01 2.305313823691980124e-01 -3.820655928093293768e-02
-4.389413923558747599e-01 -2.950750006611185805e-01 -1.426695201427171655e-01
4.759321360430102676e-01 6.908942277057309456e-01 2.125914469812173191e-01
6.240345516993674874e-03 2.112466368581224496e-01 3.216876877642507043e-02
5.715112798866646138e-01 4.674908887397444257e-01 2.255231527504283351e-01
4.254608483297477317e-01 1.746755595728742561e-01 1.587765456542992726e-01
-3.381172848727647673e-01 -5.028422817517828047e-01 -1.269614406772835713e-01
4.258918930165709327e-01 2.070693963665550252e-01 1.613095284287328623e-01
6.046145023430442578e-01 2.743312136178319705e-01 2.214235759456222308e-01
6.110336239816251958e-01 6.264326039031477000e-01 2.494904306988708353e-01
-2.296414250305838511e-01 -2.676812205121344990e-01 -7.607702277598125951e-02
3.144581124837982911e-01 2.375976947293476083e-01 1.291972643784606856e-01
2.885335470743129460e-01 -1.880165139766286353e-01 8.966707888262136217e-02
7.319188990644586168e-01 2.799857958728632634e-01 2.611122050783488691e-01
2.994103805958573949e-01 3.571826420723084317e-01 1.334153748956438679e-01
9.062878394393937276e-01 4.009313732342438819e-01 3.238606342359746093e-01
-7.209047863384459021e-01 -5.471357055420313920e-01 -2.483218485121982955e-01
-2.563779622418277393e-01 -6.621294808462681036e-01 -1.135486324686808962e-01
-2.959070736764558146e-02 -3.218980179060804137e-01 -1.838407246303446277e-02
-1.159142528788719151e-01 -3.581185911013472500e-01 -4.769590119084529678e-02
-9.686751811940610413e-01 -3.173643178367994144e-01 -3.077283097123504341e-01
1.035861031925559318e-02 -2.225975814955098442e-01 1.296168046597757873e-03
1.551523808192858400e-01 4.400260876692814183e-01 9.505376044730609597e-02
6.214153626740943626e-01 3.096004380991097538e-01 2.292192025587575233e-01
-7.296938220319811874e-01 -1.437816995873949788e-01 -2.211490251606188506e-01
2.729579933061863084e-01 1.099432888726840224e-01 1.069379374463856475e-01
1.584621755097086748e-01 -3.371013923210864904e-01 3.849835100739678467e-02
-7.014264040678436229e-01 -6.630397659718679781e-01 -2.509005205681490436e-01
-1.771426195415069516e-01 -2.002314064668350990e-01 -5.488540381228491916e-02
-3.817883381051955793e-01 -3.999752389729812618e-01 -1.328113970630780960e-01
1.854491572025712409e-01 1.286019343073972754e-01 8.132641254552676335e-02
-5.209804724653654268e-02 -3.419261071612806346e-01 -2.681078507147765730e-02
-3.658906932153321301e-01 -3.102347719711899821e-01 -1.212586811070500009e-01
-1.440208290293304716e-01 -1.281570307700404532e-01 -3.932840016645441222e-02
3.938919673866137505e-01 7.221650471757173895e-01 1.896012661684390865e-01
-2.830886732340483491e-01 -3.182611283709367300e-01 -9.631133877055111925e-02
-7.026152438172570402e-01 -3.387620470686983354e-01 -2.272419200528448813e-01
-3.658773802699511468e-01 -7.885430091430913890e-01 -1.566918220743625523e-01
-6.972880115022861425e-01 -1.916977587372347691e-01 -2.147028188019013129e-01
-5.662853913965508745e-01 -7.996530267258200597e-01 -2.193349674393210158e-01
7.120741390918493563e-01 2.285308828618355936e-01 2.511784472935409962e-01
-3.919334681463798042e-01 -7.794586817458332151e-01 -1.640563179534576810e-01
-6.905588412829594125e-02 -1.196342772668334067e-02 -7.595268143242251031e-03
1.839829433885595000e-01 5.282901458917644844e-01 1.104865185445390585e-01
-3.073676345663918785e-01 -1.802079487823495668e-02 -8.155626564042708915e-02
1.429957743408831194e-01 1.466472109553791370e-01 6.956773537029567467e-02
8.631396167741554049e-01 4.112881614651263673e-01 3.113179889680318668e-01
2.681648181202418435e-01 -1.339698990745569196e-01 8.738816569686183588e-02
-1.447371783583371596e-01 -4.683657006870913797e-01 -6.475499972398925108e-02
-9.186479401838198999e-02 -1.720155143789459662e-01 -2.648920577971738619e-02
-2.040403345588960027e-01 -5.190027263603768093e-01 -8.679992409429826417e-02
8.355836378092452998e-02 4.334646638494328852e-01 7.248296963584557884e-02
2.458706943734223840e-02 -4.649030518757303332e-01 -1.226687132000644706e-02
-6.036228378295883656e-01 -4.956823394511058467e-01 -2.083316784202642602e-01
-6.110317322088566483e-01 -7.028257118861740427e-01 -2.259640943832416371e-01
4.840043416924817432e-01 4.510484990235066882e-01 1.973116223459831786e-01
3.260000589388965808e-02 -1.347111706020722721e-01 1.466838115970956272e-02
7.569558669524754091e-01 4.394464902039912912e-01 2.806496180313434730e-01
-8.313386237047821758e-01 -4.697779919817922090e-01 -2.766561276185081630e-01
-4.459062638693716552e-01 -2.870889188187450425e-01 -1.442263009645110838e-01
6.300856135164232263e-01 5.325200479280456367e-01 2.484095514709761254e-01
1.567279214817187127e-01 -1.008291262060235366e-01 5.546849532514522979e-02
9.297244848177078635e-01 3.364956702092376517e-01 3.263161957404578373e-01
8.049993524172205372e-02 -1.160531438963546408e-01 3.082645981632384583e-02
2.933529008465729851e-02 1.336373092597979151e-01 3.354290850749117037e-02
6.817556089312148959e-01 2.694850253583724875e-01 2.448603064367257942e-01
1.813651112268737930e-01 -1.989776586628198563e-01 5.579664914280080962e-02
-2.021744764315119847e-02 -2.589349438938456927e-01 -1.082784169467792580e-02
-4.054564501939723065e-01 1.083568557908841240e-01 -1.024506414308690716e-01
7.393717233352844476e-01 5.218741571386129596e-01 2.813323840650342467e-01
-6.922520237020800549e-01 -3.740300335699888179e-01 -2.266581294811007563e-01
-2.823460008600143134e-04 2.184191364387518819e-01 3.068811029624465836e-02
-1.440729246549936615e-01 -4.376370562891743199e-01 -6.227345076113759148e-02
-1.012708587514887515e-01 8.226365662332163486e-02 -1.055148237106908610e-02
7.977026859744303922e-01 3.491578302172329007e-01 2.865294499164597886e-01
-4.581254810723491833e-01 -3.749087560942399033e-01 -1.545020324028460457e-01
-3.065346889735552638e-02 4.076559439985538158e-01 3.533981976423491989e-02
4.319145833697399794e-01 8.086882521941316515e-01 2.077405266861378774e-01
-8.075045586218030369e-01 -3.754532287611607178e-01 -2.623156131601669938e-01
-8.640790435743280762e-01 -2.449776061579154451e-01 -2.701004168862110588e-01
2.791218711783292616e-01 4.935902817575981705e-01 1.372632304397043701e-01
5.846902795236335049e-01 5.031865206049461747e-01 2.322331330989305387e-01
2.633939508020425868e-01 3.748465707105439471e-01 1.236140561564742224e-01
6.240710489407673700e-01 4.715938373496625924e-01 2.420402886776587548e-01
5.062889593094392904e-01 -1.946776562184333870e-02 1.693258257274883605e-01
8.029406234070445014e-02 -3.554962872482474445e-01 1.302291675149708575e-02
5.038604503514305666e-01 4.244388391322652665e-01 2.014651761668302399e-01
-5.521156815013601449e-01 -1.901356497078901253e-01 -1.698056602275204163e-01
-4.303419569953271240e-01 -2.887349556146668328e-01 -1.395471196325547281e-01
-2.544909689948621819e-03 2.451583530637520547e-01 3.197124995543421111e-02
4.932465799460476474e-01 5.962756062079469510e-01 2.109222741780211741e-01
3.671347260233023269e-01 5.958192134104071114e-01 1.719866369004175166e-01
-5.202715260337307246e-01 -4.133275400313704551e-02 -1.489580514320785198e-01
5.114496053377262097e-01 1.766474783894481371e-01 1.854476627584026593e-01
-1.695024981334390668e-01 7.771238744536844434e-02 -3.193614808180752357e-02
3.718110203189941565e-01 4.181879871222055067e-01 1.602686659748008835e-01
-2.289594056090020202e-01 -1.233689723882241407e-01 -6.517472918585233421e-02
7.224124472214642489e-01 1.738441191654680751e-01 2.503158407948485875e-01
-2.535284713652375954e-01 1.535811901151004355e-01 -5.223468387978254246e-02
-1.510782005709923326e-01 -1.840916003915533256e-02 -3.337431331609208573e-02
-1.850060265173565366e-01 -4.866219077479267963e-01 -7.852934240161842105e-02
5.666785537996551492e-01 5.378282829649717878e-02 1.933812950268392339e-01
-1.212641208289936129e-01 -4.914942902416016279e-01 -5.922781474895858628e-02
-2.048383393331023872e-01 1.757582015157213295e-01 -3.557213368307827334e-02
6.376140576522157932e-01 2.461350627550885073e-01 2.295139580971637672e-01
6.538155447026302580e-01 5.594287339561526684e-02 2.204205467887526138e-01
6.732981257451493562e-01 4.522137588355686355e-01 2.557895588330821868e-01
1.745714156727252997e-01 3.261399749736959008e-01 9.260628862193658051e-02
8.388329044290110392e-01 3.176589497201905421e-01 2.968832091556892205e-01
-8.561673609594714351e-01 -2.487045885166510872e-01 -2.679360212402459029e-01
-7.611426279035472808e-02 1.753024423064404869e-01 4.101717800796071331e-03
-3.582619493220978724e-01 -8.921763584072787967e-02 -1.025305585217676368e-01
7.882392791406994670e-01 5.311045426687664994e-01 2.970904653054832756e-01
3.905555029038731973e-01 4.712514339355862170e-01 1.699821945392729627e-01
-1.668577535356119690e-01 -2.844182504720096927e-01 -5.795011899346832335e-02
-6.063947523489205960e-01 -5.657187338356283596e-02 -1.766535983690468714e-01
1.543174892402882081e-01 -9.099767356208149360e-02 5.545334717250505890e-02
6.259151249574630704e-02 -2.804134020700426722e-01 1.312499240369560845e-02
4.880780627321994469e-01 5.103481567290455434e-01 2.029616823635863321e-01
-5.254759071311816410e-01 -3.425117536832198439e-01 -1.728774191937358096e-01
8.290341432082551920e-01 3.689780705558417528e-01 2.976627457507530217e-01
6.980943530157305288e-01 3.678211804749715874e-01 2.571859321876112658e-01
-7.581480346013937111e-02 -1.738148731085907561e-01 -2.167156464268540916e-02
-2.346081413867847631e-01 -6.555698465872108679e-03 -5.826265262627452340e-02
1.700562508113028226e-01 3.353465632032230637e-02 6.953473703879789469e-02
-2.172082673376564965e-01 1.183112495249147994e-01 -4.364406664574085187e-02
-4.076841644249098451e-01 -2.844103175028097619e-01 -1.322374454418840661e-01
2.542314405018344381e-01 5.553203337066712209e-01 1.341587603904428050e-01
1.231912585526137582e-01 -3.239425452651578108e-01 2.859322545285024331e-02
-2.146116443335636670e-01 2.778685340045956575e-01 -3.102168845655529222e-02
-1.276984522844661074e-01 3.951706949526643808e-01 4.479260493914609398e-03
-2.080606084912944576e-01 -1.266348279854297432e-01 -5.897002372295735012e-02
-5.204601556527932438e-01 -4.396290477497015459e-02 -1.492111026786441252e-01
-4.519907443781827072e-01 -2.597296729662439407e-01 -1.440761738462902619e-01
4.521584708545983156e-01 1.256024341988820903e-01 1.633762171649458805e-01
-8.002356960545480014e-02 -4.003753174731532471e-01 -3.975542061783238906e-02
7.106463887994027839e-01 1.931385111953380362e-01 2.481158523228401136e-01
5.928781382134429290e-01 3.580549588161341390e-01 2.240062359477256460e-01
-4.892113913831061534e-02 -4.631865973955524574e-01 -3.481483686296375779e-02
-5.336121285398245373e-01 -3.467150224864842256e-01 -1.756986207001041134e-01
3.191645563671067221e-01 8.830005737578075498e-02 1.195877932091700263e-01
-6.501060056192271563e-01 -1.476444448263465326e-01 -1.968846941072936174e-01
-4.811589383599451653e-01 -4.397807550240591112e-01 -1.664134649741438876e-01
1.193027903552690422e-01 -3.765065243390111616e-02 4.860474800173197885e-02
1.910495792868688869e-01 5.057682336232389719e-01 1.109977495585709323e-01
-3.307560312193288388e-01 -3.308379176441063052e-01 -1.119471248242885075e-01
-2.355125398497930067e-01 -5.102281563257737851e-01 -9.585808354100022743e-02
2.828217330906175331e-01 -2.481693277850439971e-01 8.344850578568692445e-02
5.160984881569412597e-01 6.931383463543291379e-01 2.251478574015882972e-01
3.223620357950122139e-01 3.478190819979182780e-01 1.398015559686192899e-01
-8.396954635697070346e-01 -4.543099312662215450e-01 -2.780879597450411356e-01
1.357520028659745803e-01 2.542255315844361707e-01 7.530358408358789335e-02
3.680684911955901528e-01 4.485836971009931479e-02 1.314546895505051272e-01
9.115847684018151265e-01 3.425443666503148465e-01 3.211687632234699330e-01
-5.033823845797062990e-01 -8.612528794278183630e-01 -2.044950815484124773e-01
6.504464175975358531e-01 6.476990612087625276e-01 2.632237311555046255e-01
-3.794668079859116888e-02 -8.042155607310846888e-02 -3.070962960129372272e-03
-4.978911497744874515e-01 -5.071129434294009419e-01 -1.765634195299515263e-01
-2.506555206476214770e-01 -3.929532627476052808e-01 -9.184050346963196221e-02
-3.209312520503260768e-01 -7.137716972725546283e-01 -1.372875430234643257e-01
-8.358844945928717296e-01 -3.042175413749102497e-01 -2.657922332651453945e-01
2.078853518609815546e-03 -2.696915956256467073e-01 -4.747030587202240130e-03
-5.686252543381233870e-01 -8.065250774903111319e-02 -1.667869148333372686e-01
4.303779977861362238e-01 -3.848363841850525185e-02 1.445006493731697816e-01
3.871915889923892573e-01 3.674444288035927375e-01 1.612535966500653062e-01
-6.475544853650948562e-01 -3.578621074615983555e-01 -2.116723833016967704e-01
-2.759469443459197091e-01 1.239391934620393682e-01 -6.134626579042617295e-02
4.233290542081570296e-01 8.461425803301694248e-01 2.078670851193244462e-01
7.997529959654494647e-01 1.755895172655402015e-01 2.743024555976108503e-01
8.624910245953025523e-02 -3.200795792368990034e-01 1.748385145854478365e-02
4.180861926685346952e-01 2.999444078948483861e-01 1.657826890664622632e-01
-5.993770677755395626e-01 -5.528407452510046838e-01 -2.112567757898258514e-01
-6.518572963503709294e-01 -2.082523797074591065e-01 -2.019152807918747350e-01
-2.344115988639641213e-01 -3.087638664514898434e-01 -8.059224295819587824e-02
-1.868654382274795855e-01 -5.873666232596018721e-01 -8.656696416748427270e-02
-8.443573692202270553e-02 -3.688391376773246244e-01 -3.877997000954073320e-02
5.122756448343125379e-01 7.451417384743100891e-01 2.278214869230422712e-01
-2.906898269222693565e-01 -5.409635379872915761e-01 -1.151558103478413642e-01
-4.699757778043593959e-01 -2.221623896854261204e-01 -1.468407192544529949e-01
2.650341570095292587e-01 5.298128479610108021e-01 1.356012658232412793e-01
-3.206042570893117838e-01 -3.032868824417430109e-01 -1.067743779169796903e-01
5.468245618935998476e-01 3.404575674702937926e-02 1.857946239053073489e-01
2.485095049339182405e-01 8.191985141694753392e-02 9.732007206384558906e-02
-4.741009536620482967e-01 -3.222421837937295558e-02 -1.340409385171862366e-01
2.211400808648208149e-01 1.175659647362892607e-01 9.151837918886279732e-02
3.767512075442472352e-01 -1.342417191388813047e-01 1.208637566619523152e-01
-5.494254921085073295e-01 1.410715496930211275e-02 -1.538437263065336180e-01
5.258789178270579789e-01 7.089094660269266157e-01 2.293332964620199421e-01
-2.233859059536778269e-01 -4.106697494801106636e-03 -5.461947739100241062e-02
6.147118406517472211e-01 2.596553007423031967e-01 2.234509902328937481e-01
-5.759232298670978467e-02 -3.852707783329626379e-01 -3.171696011004355303e-02
-7.804041048854629681e-01 -2.621487578435847121e-01 -2.455613308492842484e-01
-5.071797364555310494e-01 -2.237619375524393661e-01 -1.584355623835048410e-01
-5.610563576691230958e-01 -1.458541226607399932e-01 -1.692828358082136830e-01
6.459084680954578772e-01 3.219734296331849266e-01 2.376913094081789801e-01
-5.589233234992060373e-01 -5.892628300757166704e-01 -2.014764430108386128e-01
-4.896102136336454858e-01 -2.292049394402906597e-03 -1.366074560081316780e-01
3.327790952746330633e-01 -1.065013098316754531e-01 1.093548958412677019e-01
-4.402199677266573907e-01 -2.104753944508733557e-02 -1.227615779869353080e-01
-5.978342612382431254e-01 -3.000909379170546565e-01 -1.920549539713927722e-01
2.530446314312873590e-01 -4.464612809697301142e-03 9.231891128992576745e-02
-2.197989890713337169e-01 2.988006029569900690e-01 -3.107100249888698762e-02
3.970685581274948639e-01 5.901685299588694811e-01 1.808016979238065147e-01
-4.516131577526983354e-01 -3.483765254242966042e-02 -1.272977362628553988e-01
4.510446559873115269e-01 4.056035409985994655e-01 1.837775629111257636e-01
5.824341003434281294e-01 3.395506658630331187e-01 2.194135958143967335e-01
-7.441809657740794393e-01 -6.540942253962671593e-01 -2.634262904674368189e-01
5.298724662483867559e-02 -1.506198125856471892e-01 1.977859848939826637e-02
4.834351352794782342e-01 2.888697763888646297e-01 1.851204239509777194e-01
7.847777350557638698e-01 2.796530957299447895e-01 2.773929628589175689e-01
-2.338754021317889231e-01 2.364138199326519252e-01 -4.003532204653219989e-02
5.569187195560532100e-01 3.698174573534750986e-01 2.137852740450905120e-01
-7.250637055625442917e-01 -6.222713289655332769e-01 -2.551714561963057681e-01
-5.852614923007704029e-01 -4.269403449899139003e-01 -1.975747328369486244e-01
4.064502564923940658e-02 -4.061309586690751150e-01 -2.959111344188901718e-03
-5.179799914796087146e-01 -1.841259127201333445e-01 -1.588305430683425445e-01
-5.658041227072886648e-02 3.343771180556318057e-01 2.191298014478519629e-02
-4.702954275613800694e-02 -4.578738052495957001e-01 -3.383771662675186254e-02
3.006033781428870122e-01 7.238658848675286750e-01 1.609504738665116508e-01
5.413108897546318188e-01 7.650449136717999421e-01 2.382526128596944293e-01
-4.065496237322803741e-01 -1.773442639575228130e-01 -1.239550853368667632e-01
-1.458636127858028986e-02 -1.021985548198059146e-01 2.521583271806030358e-03
5.014128654780316552e-01 3.061868155637294531e-01 1.919490260198074005e-01
-7.128156876397806485e-01 -4.431277592972739376e-01 -2.381207816488019047e-01
8.362782092570842929e-01 2.311662355153566162e-01 2.896870253589597377e-01
-1.855703736064959197e-01 2.638591767284279577e-01 -2.310124003927671935e-02
2.177393067155171391e-01 3.351372260436062400e-01 1.065889171123197976e-01
5.169277007818266767e-03 -3.226090078514722848e-01 -7.714308820836537212e-03
5.618262834824794272e-01 5.510657145051909289e-01 2.287275665326899410e-01
-1.774099648396909243e-02 -4.197049673086918897e-01 -2.197517495041490659e-02
-4.166265860797664367e-01 -2.975269236563066744e-01 -1.359677139813533775e-01
3.835413098443719582e-01 2.175926731756846477e-01 1.490252665751125027e-01
2.993415424444958312e-02 -4.359294821935060238e-01 -8.470836976838229046e-03
-6.353014050651465405e-01 -4.894984052478668080e-01 -2.176454314065172368e-01
-2.522257614149026606e-01 -2.861565081016192447e-01 -8.441244146143915550e-02
2.690837829178436835e-01 6.367039218376664422e-01 1.447698805588119864e-01
-7.058843632999332041e-01 -2.585523520507831963e-01 -2.223077138699252608e-01
2.285402621501688436e-01 4.856001170468276507e-01 1.210683002202894848e-01
-1.207166734660718027e-01 -5.322997010496974823e-01 -6.208216410086384029e-02
-4.402991917696516544e-01 -4.596817113120479914e-01 -1.552838629841634399e-01
-4.409089140412733032e-01 -5.888933171232193509e-01 -1.650450676739413092e-01
-7.207638352242622393e-01 -1.838159722959580855e-01 -2.213604732750724391e-01
-3.557903517912616165e-01 -4.444675068206394020e-01 -1.280881529947592856e-01
2.428264437172953649e-01 -1.208374317570617001e-01 8.054498498959927755e-02
3.189661515637523537e-01 3.082449460286581511e-01 1.358220275720869175e-01
-2.067553207517308644e-01 -5.692724494218373010e-01 -9.136183774691766790e-02
-1.426624342531056799e-01 -5.367856522330717306e-01 -6.918414876178788364e-02
1.944422098596733928e-01 -2.938558198108591757e-01 5.280115011761913474e-02
-2.101967650781093044e-01 -4.353246272618202517e-01 -8.249939940207519362e-02
5.883077110510130936e-01 3.766719578386171219e-01 2.239757023794834989e-01
-5.057567889514147244e-04 -3.126298783700912076e-01 -8.725550018813794592e-03
-2.422559731600612276e-01 -2.494295313376681533e-01 -7.861599806725620698e-02
-3.263031578053352533e-01 1.351136719239361961e-01 -7.605178407510015948e-02
4.798235443103271991e-01 -7.656424562882779838e-02 1.569318127218392311e-01
4.814632611699984910e-01 4.017643650692165336e-01 1.928763745542653729e-01
-6.658435993220661597e-01 -4.584459469127177278e-01 -2.247661692631640062e-01
-4.617330955106724311e-01 -8.065377082266320663e-01 -1.875937149859782382e-01
-4.693062589453477207e-01 -8.380936135208347793e-01 -1.922677515249281432e-01
4.951733222636021114e-01 4.848823332608976355e-01 2.032636323040881987e-01
1.691374526140511370e-01 6.246782601086978692e-01 1.130483907398304594e-01
-9.212632981471276239e-02 -4.676171546630258358e-01 -4.847063067800353592e-02
3.471659862317145739e-01 7.972847007436936195e-01 1.807531850419268338e-01
-6.281559997041110677e-01 -3.848461648629575294e-01 -2.076877314447046208e-01
4.839158306941223064e-01 8.705882933653949496e-02 1.703167886160458222e-01
-1.123177943965557452e-01 -2.645966933830507517e-01 -3.965758059171479999e-02
-2.123306867056985181e-01 -4.307668548342474257e-01 -8.281997235130107715e-02
-2.943907109476228690e-01 1.842596478568416518e-01 -6.256656353971898343e-02
2.980063874777020283e-01 7.667129028348490527e-02 1.121995555200979572e-01
-5.882566469277102916e-01 -9.683415086354021928e-02 -1.740415034061047472e-01
-3.906306762254017073e-01 -1.847571287113274896e-01 -1.195937646600831322e-01
-4.134147034334222093e-02 -3.127086341897291621e-01 -2.132800992227727732e-02
5.525082286705027546e-01 1.907547216813514634e-01 1.991582365737783189e-01
-7.573588210420395539e-01 -5.527456440699752838e-01 -2.599824867379451621e-01
5.548141170337880235e-01 3.682770653555771934e-01 2.130219399542342407e-01
2.685882364108444290e-02 -3.609700005903725972e-01 -3.865834204221089108e-03
5.445392433420775946e-01 1.367335861268513704e-02 1.835803048667548898e-01
2.833647049541431762e-01 1.775579305477809067e-01 1.151575866692471500e-01
5.413180891174604881e-01 2.487191760427892584e-01 2.000009178804063592e-01
3.522908368089671116e-01 7.550813504525822895e-01 1.792072593397419644e-01
-5.328127994711405746e-01 -7.206247374371562708e-01 -2.031545452087029913e-01
4.126712546470727716e-01 6.428980495871530199e-01 1.895213370065147174e-01
5.384994368133001474e-01 7.590818557187435367e-01 2.369435663754846100e-01
3.580877104628635288e-01 5.895357867202762892e-01 1.687303657524515388e-01
3.493300811358979741e-01 7.503459723148453442e-01 1.779431145559907945e-01
8.321853586528147328e-01 4.163216091209297476e-01 3.021424261075238427e-01
6.940006517078926018e-01 4.568628276757668583e-01 2.625201270398615505e-01
-6.602695718356768051e-01 -5.722631607922911146e-01 -2.314793168790320321e-01
2.149529011581077231e-01 3.021061853620971571e-01 1.032821646760490597e-01
4.983844425867189343e-01 5.124993336383568687e-01 2.063002774961908981e-01
-1.759705099962082242e-01 -5.610696748211381202e-01 -8.125788961430049917e-02
-2.883545947752865768e-01 -7.222818140969093914e-01 -1.278690993949735677e-01
1.378126144254034346e-01 2.922540775461656692e-01 7.875670906519530168e-02
-9.256524356092713512e-01 -3.248372212807749126e-01 -2.950107071110947832e-01
1.231780205798578831e-01 2.238323013532890204e-01 6.917308209613277914e-02
-1.660515563674229700e-01 -4.532139741550285095e-01 -7.020729072705490792e-02
-9.830070238396854121e-01 -3.394104290882574704e-01 -3.137826328750593086e-01
-1.866383137662781244e-01 -2.109721648452199949e-01 -5.861031724740256577e-02
-2.726885194036846038e-01 1.359575687162952740e-01 -5.945071075767807689e-02
-2.881633960673949391e-01 7.657623283504842726e-02 -6.862374573547651291e-02
5.122035531643421603e-03 2.507584394145936368e-01 3.475118189542358155e-02
-6.151430382549628595e-01 -5.201792420794865146e-01 -2.137002680839900359e-01
-5.051135100574387637e-01 -9.027140455171468736e-02 -1.479080484479268209e-01
-2.259623964487586512e-01 -3.125194149264812205e-01 -7.826415457974876533e-02
-6.598627067449965855e-01 -1.750153306906910289e-01 -2.019222254964511964e-01
4.539861340071647544e-01 1.838094856386745246e-01 1.682524841170959240e-01
-8.540371197618234003e-03 -3.477375856477734062e-01 -1.380507918781351782e-02
2.822637712931843623e-01 -2.183954855476735735e-01 8.548229688748260058e-02
3.750871948524494570e-01 6.669195437888941758e-01 1.797074741252447649e-01
-4.234113512606912932e-01 -1.795553291027179033e-01 -1.293202508146830410e-01
1.765524651173841497e-01 3.012535088554454399e-01 9.137357796369381668e-02
4.648326582119241546e-01 7.179524024219974265e-01 2.111722879166179068e-01
-7.376066070763169780e-01 -2.136525955094044360e-01 -2.287665338650385904e-01
5.129046410246188570e-01 8.513424336990222940e-01 2.358837880190544911e-01
-8.474518124379740169e-02 3.752687126350852109e-01 1.625457761621270855e-02
-6.451091784112319982e-02 1.527442519251207276e-01 6.009703258943228758e-03
5.370354341072498539e-01 4.369746684983222274e-01 2.126274533672221079e-01
-3.166055801129877278e-01 -3.669321115877525186e-01 -1.102562967577887798e-01
-5.054542185878764249e-01 -4.949476478739580632e-01 -1.779950941308175438e-01
-9.766173459387966424e-03 3.770383556169639161e-01 3.951452227641447101e-02
-3.472721206381245151e-01 -8.010212535404184764e-02 -9.846516078831558938e-02
-3.164269553105644173e-01 1.084974173444731432e-01 -7.497722842517173802e-02
2.524820715497452794e-01 2.885438220104529772e-01 1.138539994526724247e-01
-9.080544412784496977e-01 -3.273759736972990386e-01 -2.897703327569651766e-01
-6.722559686588830408e-01 -7.070762138102004712e-01 -2.451648974849614526e-01
-1.375670115326916264e-02 1.217232523876277672e-01 1.936759046616448945e-02
3.215909177759334603e-01 7.674066190704607049e-01 1.706503943804057177e-01
4.367230754999116837e-01 5.322156441380138103e-01 1.887403029433031010e-01
9.049478390770486769e-01 3.179320826703374014e-01 3.172979716163741304e-01
4.273763534166470368e-01 5.050176728598029241e-01 1.838420491362083853e-01
-5.511547963709360065e-01 1.272723580251077999e-02 -1.544794026176656843e-01
1.006899459997518953e-01 3.246223556851173669e-02 4.805780362764477259e-02
5.275899697085624229e-01 4.420197415163550914e-01 2.100875864933786918e-01
-4.378228011502532380e-01 -3.007643520583812013e-01 -1.427459842184757022e-01
-5.547419678813689803e-01 -7.768995438980865753e-01 -2.140883818814430239e-01
-4.624010874901600676e-01 -5.057562307656628953e-01 -1.655152547247601136e-01
5.792054866380296207e-01 8.659207768433548058e-02 1.996762834135594189e-01
-4.533640372168936117e-01 8.654265092205580545e-02 -1.188449194737182663e-01
-6.459638504833555006e-02 1.377525724125715223e-01 4.872624695552042057e-03
-2.518736816901099851e-01 -6.550948383574209943e-01 -1.116380057749541133e-01
6.210907953894583000e-02 -3.233827093538641645e-02 3.135574618618532095e-02
-8.165033291818891703e-01 -3.665787037625462541e-01 -2.644339688148500955e-01
-3.018600081223832277e-01 -2.535837368466767328e-01 -9.730988185091911380e-02
-7.102054525683179076e-01 -1.355256328725372161e-01 -2.145257508982787997e-01
1.138929154757874068e-01 3.899036715681202248e-01 7.861291449028209866e-02
-1.463133699719314966e-03 -1.873251671244935412e-01 2.627935033518403411e-04
3.941840003783821933e-01 6.237437283174958047e-01 1.823994397546557511e-01
1.858349248368738049e-01 2.687048928166217987e-01 9.182546020936790954e-02
-6.823648229459633452e-01 -2.122208550935849314e-01 -2.116199810278960036e-01
-6.625840187181984975e-01 -5.707169273500789508e-01 -2.320786976817934832e-01
-8.238498624791340541e-01 -5.285011031545059357e-01 -2.786967839529516655e-01
2.238587589104311937e-01 -9.907265522385670653e-02 7.630653274732196456e-02
1.372106765280411422e-01 -2.622513016953022594e-02 5.497531025012379613e-02
7.345339123851630792e-01 4.002055427491081341e-01 2.708257881231893038e-01
2.067159420945537951e-01 4.140994930637935112e-01 1.090387447899455603e-01
-9.109992165907674355e-01 -4.270689930505733867e-01 -2.980648386671745365e-01
-6.777635112655350236e-01 -4.958255819418437849e-01 -2.312125234790110562e-01
-5.873801133139576747e-01 -8.086447338163114951e-02 -1.725879453371960970e-01
7.877455525665774116e-01 2.545814136522770998e-01 2.764509189152216106e-01
-6.678388909618453440e-01 -3.205843401132323356e-01 -2.151676677355091882e-01
-2.600130586728757742e-01 5.994199257319299950e-02 -6.117259846535645640e-02
-2.467846202724581495e-01 -4.625407511263394666e-01 -9.580209207238277180e-02
-4.500684215774730101e-01 -3.548865134892359441e-01 -1.505332424293712723e-01
4.276683618600912729e-01 3.578858567325849532e-02 1.491675402402621031e-01
-3.696741684197225597e-01 1.566322958059982451e-01 -8.783618674252417768e-02
2.972265664795578632e-01 -8.135611409759042900e-02 1.002509545547567299e-01
-3.184254910321042131e-01 -4.801678415229347907e-01 -1.192071770204020664e-01
-7.694883530931818927e-02 -4.077136851410729235e-01 -3.935064519480459266e-02
-5.163016630491339409e-01 -7.295833054701343912e-01 -1.987250707327918864e-01
-8.315522101889852857e-01 -5.262569521691459196e-01 -2.809064669809301362e-01
-6.253111105259379077e-01 -5.817940319167806962e-01 -2.214017826537227340e-01
1.911061326630404331e-02 -2.117250958689422535e-01 4.801433946671501522e-03
-6.081010839441814975e-01 -3.869579197364233503e-01 -2.016578328827549615e-01
-7.340133626760244612e-01 -1.727877271152556959e-01 -2.246304969003102558e-01
-6.076375482284401830e-01 -3.428910004441576564e-02 -1.753860623266029206e-01
7.008831139812822242e-01 6.500348825513704298e-01 2.789550369635256932e-01
-4.099164898634983789e-01 -3.447393190880669867e-01 -1.373957514722788931e-01
2.507028662037689704e-01 3.807179709189985606e-01 1.201342317707936314e-01
-1.615797158995120608e-01 -2.512021437482828135e-01 -5.386105952426134547e-02
1.089613540497860744e-01 -3.258373444362114291e-01 2.406333225639875617e-02
-1.824287857255172951e-01 1.036207914508231742e-01 -3.400400965035629830e-02
-4.301114262996756921e-01 -5.977912000850222896e-01 -1.623735908637498893e-01
3.040475231554203711e-02 -2.341985815888216749e-01 6.620314075725180006e-03
-1.657354884055277089e-01 1.606281435006810115e-02 -3.534167388962904804e-02
9.643680433822668374e-02 -1.931760991672451522e-02 4.290953089072889470e-02
-5.567106285851239900e-01 -1.377325820924841723e-02 -1.581566024151009608e-01
-2.961768004071778093e-01 -2.399089845996184647e-02 -7.854653750605150586e-02
1.413911639339844595e-01 6.182624563071359436e-01 1.040141323132936224e-01
-6.461614650829466955e-01 -4.544061534584065143e-01 -2.183955025383339521e-01
2.814524230483722578e-01 1.265176185602794601e-01 1.107861918941265705e-01
6.049097820047747431e-01 2.163535149550600556e-01 2.172191673040001769e-01
-2.038905521987828262e-01 2.253758861550664294e-02 -4.663168894211722204e-02
6.659859688114146969e-01 4.871697768021024944e-01 2.561238187924800846e-01
9.234033203100424636e-01 2.993282289589123679e-01 3.216126127583441852e-01
2.362565595090140858e-01 1.594129684149779014e-01 9.928176252204069796e-02
4.215416404198740752e-01 -5.388286662541968974e-02 1.406339820106015104e-01
-6.420203245046463003e-02 1.914588930234087383e-01 8.973303792480067861e-03
1.159252238303873882e-02 3.059680822027695535e-01 4.083755017413615018e-02
-7.946024795644210936e-01 -5.691216174941291506e-01 -2.726843426527253422e-01
-3.184815675309565774e-01 -6.027207090207126194e-01 -1.283042607248813249e-01
9.087402141948744960e-01 3.403404611370601240e-01 3.201280167782799557e-01
-3.916442330513388304e-01 1.264027407894441624e-01 -9.685297922390573300e-02
9.711767895284863228e-02 -1.431569258367723918e-01 3.394446375753941425e-02
3.875378919621982887e-01 4.183874313917650412e-01 1.651347231300032137e-01
-4.211752464698588772e-01 -5.873019548530387102e-01 -1.588399055667472914e-01
-5.939693597783287649e-01 -7.145421925168229382e-01 -2.215689099271012652e-01
1.601212418050200759e-01 6.352461604866664890e-01 1.110501153011226178e-01
6.024800144558725146e-01 2.567443749235662209e-02 2.023424851764787369e-01
-5.783655108235810083e-01 -4.326660203145547001e-01 -1.958717319416572733e-01
4.357665079043424733e-02 -3.055761895436953091e-01 5.395184064488627897e-03
-5.102991275118020503e-02 1.757843303938358137e-01 1.187520964943296863e-02
2.135953034116123694e-01 -1.073228805881828139e-02 7.968558168129917518e-02
8.061971710793067181e-02 -3.657563245019517240e-01 1.236321865383297781e-02
-1.819565846358531525e-01 -9.629627737028136070e-02 -4.866995021231788204e-02
-1.982583526973440979e-01 -8.423849602348125465e-02 -5.280522389976907011e-02
4.419789099962153633e-01 8.450307495224966825e-01 2.135376468155752716e-01
4.189475475897764256e-01 5.371062217702596842e-01 1.836194083975012936e-01
7.490222777653576802e-01 4.761276756115041531e-01 2.809199997468383447e-01
-3.795276564666421049e-01 -5.455367308762734124e-01 -1.428985081998555007e-01
8.087482121156589487e-01 4.141383600199998183e-01 2.947509967622214400e-01
-5.242810696145097094e-01 -3.430285808709928053e-01 -1.725471377837978493e-01
-8.612168139322687876e-01 -2.925368009874445008e-01 -2.727411027599662141e-01
5.298006955424656717e-01 2.337341656461258410e-01 1.953379180192733322e-01
5.514305934229050132e-01 3.065341912110024908e-02 1.869641161378073069e-01
-2.874015260749090972e-01 -4.487452386956185535e-01 -1.073091293248663730e-01
4.077304850815339776e-01 2.743955701555363391e-01 1.606953749017072663e-01
5.457049345649280792e-01 7.678221425645934684e-01 2.398138087000639129e-01
8.496212991660474501e-01 4.122210999297957201e-01 3.072171030231089506e-01
-4.555346117944384932e-01 -3.390452680678962267e-04 -1.259514324651718475e-01
-3.221501360008763304e-01 2.384349906144542786e-01 -6.711575333694044798e-02
-8.418819375514887682e-01 -4.283976961754459856e-01 -2.768426186411891421e-01
4.647786119238840330e-01 8.986307512317212032e-01 2.245418447790296923e-01
9.139389250067833093e-01 3.052213852680323858e-01 3.191297396633729910e-01
8.017884724465262902e-01 1.816837677941949558e-01 2.753818558976751651e-01
-2.352170288942283527e-01 -6.661899407929543493e-01 -1.073219368582254418e-01
2.870633880011526085e-01 2.524172252283206630e-01 1.218447520900168418e-01
5.912356175864510455e-01 2.018724183629267421e-01 2.119282009597405203e-01
-3.695179513838208196e-01 -5.466391343726915153e-01 -1.398924821947701014e-01
7.921767517740482267e-01 2.013681770857032038e-01 2.738753135836874963e-01
5.579420460432863438e-01 7.091655242819634442e-01 2.392428061119094562e-01
7.330033433895788431e-01 5.918006418847662209e-01 2.845486889703341959e-01
-3.808425813847903241e-01 4.891002689156830757e-02 -9.926232155494443821e-02
4.112031044100141197e-01 1.348527713182839927e-01 1.514280284440714663e-01
-9.346933173315616350e-02 2.694651444477728086e-01 5.724580481731147974e-03
5.664545999580630764e-02 2.117290771819912432e-01 4.775301785186577413e-02
3.822178474518169410e-03 -3.734814259700520722e-01 -1.189892198953033768e-02
2.570200375872062071e-01 6.572593452242883605e-02 9.874553616774844889e-02
6.598621756267264438e-02 2.800699301235365923e-01 5.569765544000138818e-02
-3.824156886580635240e-01 4.641270325681197406e-02 -9.993260272955084567e-02
1.039955854760182263e-01 -2.056911871706929573e-01 3.143301333037491763e-02
-3.704029462472614997e-01 -5.019533987317625900e-01 -1.368547680675203659e-01
6.901947970612737349e-02 2.664498228306835109e-02 3.785739686151729649e-02
-2.552372358282789522e-01 1.352073034360183612e-01 -5.412308565451481174e-02
-7.423907265370984776e-01 -2.298886437036174735e-01 -2.314452031094944573e-01
-6.534532112568858242e-01 -6.991502560604258010e-01 -2.387775718721381890e-01
-7.114770196864000917e-01 -6.506771429224003089e-01 -2.530849109646969852e-01
5.357895630666744680e-01 5.584093437281097971e-01 2.212400788405753382e-01
4.209473712637687437e-01 1.608335150848877737e-01 1.563587303673739104e-01
-5.411284039973531801e-01 -6.256317580795264788e-02 -1.569647240290538426e-01
-2.105257046419143907e-01 1.248899818660420850e-03 -5.025569150238719945e-02
6.726306190623661252e-02 -3.797481782267546624e-01 7.206442010173850880e-03
-3.651265823582974801e-01 -7.589944505604970804e-01 -1.542710078047290212e-01
4.192659504065359699e-01 4.059751316713865882e-02 1.469319290157413416e-01
4.665476840850624196e-02 3.693149240053158477e-01 5.634651581116683489e-02
-3.616933005124015610e-01 -5.372976462162133426e-01 -1.367867069769083121e-01
4.559194481105524055e-01 8.354615836139552831e-01 2.171289283720615193e-01
7.239341488749577724e-01 4.051877857960619056e-01 2.679251986933885998e-01
-2.120817714746266458e-01 2.619901425258632233e-01 -3.141770635240342252e-02
7.103320470720582147e-01 2.516466587360462470e-01 2.523536811551820858e-01
5.900810236318951851e-01 4.591602022314206222e-01 2.306341664037837580e-01
-2.592019520079826278e-01 -5.025564437947496188e-01 -1.025971879169296497e-01
-3.949415126008705146e-01 1.131912570318032579e-01 -9.884891565645277656e-02
2.335847139521035343e-01 -3.085749338819218993e-02 8.436068021254783389e-02
4.498065677966600062e-01 6.211532594332286328e-01 1.993654527547980559e-01
-2.799971285118707520e-01 -3.087759853714302019e-02 -7.406580809992319159e-02
2.127561647977471715e-01 -5.565069369055055531e-02 7.609878450823134854e-02
-6.072450593212642689e-01 -1.872499932977267911e-01 -1.865976685731054463e-01
-5.824354062656295072e-01 -3.598500808039739041e-01 -1.917323356759463304e-01
2.112707856213089097e-02 -2.292433885770606417e-01 4.125546620361839056e-03
-6.688112827435682695e-01 -3.267662012460774701e-01 -2.159256284122284264e-01
-5.681508263651573465e-01 -1.927451251170855528e-01 -1.749453668030773457e-01
5.099451690441281215e-01 3.514983448076766104e-01 1.979380659216827820e-01
4.853979063076209743e-01 3.039090097007964841e-01 1.868401191150415308e-01
-5.433378433307231026e-01 -3.844467330275976313e-01 -1.814942140039393914e-01
-3.687972735879491704e-01 -4.610922407976497106e-01 -1.333321138391914129e-01
6.853285291108456301e-01 5.551730064022244449e-01 2.671287063283082630e-01
-3.825501030702938565e-01 -1.844247908441672135e-01 -1.170765213536892613e-01
5.867557503165455879e-01 3.963921277939017052e-01 2.249580100753151013e-01
3.936030571273159695e-01 1.403961833475068366e-01 1.464096322150976182e-01
-6.298194089529246531e-01 -1.458276091612006886e-01 -1.904922644867176051e-01
-3.966332776781620328e-01 -5.361257396585528134e-01 -1.474778444137487821e-01
-3.018817141090923140e-01 -3.297310409930512831e-01 -1.029582342178214788e-01
4.875906451646069839e-01 -6.354866905302194134e-03 1.645294598677950193e-01
-3.161097505950539177e-01 -1.274616143677510527e-01 -9.236128393188386410e-02
2.514598225849437596e-01 6.256463146388296925e-01 1.385141594979398816e-01
-1.187444964208086706e-01 -1.942801936985774636e-01 -3.643037063464196756e-02
2.938172535440202737e-01 2.268273745264407504e-01 1.220322029361386451e-01
-1.158347091132225642e-01 -1.664849257293916640e-01 -3.347347025846508090e-02
-8.800431267761885668e-01 -4.254626398615841687e-01 -2.883967764015518132e-01
-1.602433469916867692e-01 -5.884264518253446985e-01 -7.843334789260400508e-02
-1.396781969832644466e-01 -1.677610942524475693e-02 -2.973675451893021890e-02
-7.521358278459674418e-01 -4.407636993251223267e-01 -2.500747463298167994e-01
-9.374328776248647133e-01 -3.206079637896241952e-01 -2.983312891169997427e-01
8.340453956647254641e-01 3.086717482116024258e-01 2.947405522213715767e-01
1.604389439135084916e-01 -2.410205732874297346e-01 4.622663174047059176e-02
3.721880835316824787e-01 -1.645638755089899319e-01 1.172096362588248564e-01
-3.684924766474688140e-01 1.304011914517073656e-01 -8.941509842967400312e-02
-1.091907567871634177e-01 2.181061615088693562e-01 -2.930141569889397647e-03
-2.718612105593937733e-01 2.776436383877634029e-01 -4.869816983807522676e-02
9.196363049460917205e-01 3.358340361383526096e-01 3.231552672601090692e-01
-3.268272945699295939e-01 -1.512886194908409920e-01 -9.743264567069559456e-02
-5.937058770806022956e-01 -1.733306817020459356e-01 -1.813899622226844144e-01
5.986060671864003035e-01 3.604728967539512219e-01 2.259522766860156129e-01
-5.043368153503872131e-01 -3.914147607064283885e-01 -1.699797882236145086e-01
6.516553426565958596e-01 1.859745050581235737e-01 2.293880653949313397e-01
