3.501734376416987260e-01 -2.546655071664808978e-01 3.436365751746329189e-01
1.292553206331260862e-01 -6.526776687988468384e-02 6.362906503413694459e-01
-1.276934521076658613e-01 -5.261942539034413224e-01 -3.427209916105096368e-03
1.704410475132412950e-01 -5.948902509346012391e-01 -1.294658551873764107e-01
-3.667264422304646887e-01 -1.152672577761981315e-01 6.096067111135136107e-01
7.439728823723277262e-01 -5.689684808578636677e-01 -1.444995836117880239e-01
8.729011355859657428e-02 -2.097352264823994783e-01 4.322657916898938191e-01
-3.904362889881035636e-02 -5.162078534417618991e-01 2.852420465189687161e-03
2.171671363989951253e-01 -4.926117361783994841e-01 1.342492843265249633e-02
-2.228818599878699125e-01 -3.903008116353820500e-01 2.007755691131613840e-01
-1.185962475287123535e-01 -6.883433013139504675e-02 6.537731380422769911e-01
1.663458089657453287e-01 -6.756413324480446958e-01 -2.452734933773823567e-01
6.194615883637196729e-01 -6.482403659133623153e-01 -2.471922873058665093e-01
-1.837777931133367237e-01 -6.209404050435706202e-01 -1.346268986680008994e-01
1.232527602295426239e-01 -7.607293321998364055e-01 -3.637627589047000010e-01
-2.757224174751884971e-01 -4.767417760038006880e-01 8.122907461330453049e-02
-1.768585904218062665e-01 -3.842093163382984816e-02 7.028465071839814504e-01
5.393271878536007868e-01 -4.644254108975074957e-01 2.458444112019144909e-02
-4.130023849935639535e-01 -1.979823558509539450e-01 4.948218838977374023e-01
-5.590537538734885459e-01 -1.329076681924955539e-01 6.017743166041439329e-01
1.468903254788696822e-01 -3.224036737752547510e-01 2.647252237212391335e-01
-3.415949789765012068e-01 -3.124704689786811929e-01 3.235859714554888966e-01
3.739240945464771260e-01 -3.097569928364109493e-01 2.622062408329208227e-01
4.009547072803568701e-01 -4.756401132309202584e-01 2.107426307674392998e-02
-4.730745573058260378e-01 -2.438073821743540481e-01 4.343717168915398608e-01
-3.252664735645204308e-01 -5.026244572180530445e-01 4.851053915389495069e-02
2.569090074240606425e-01 -6.938027567178906008e-01 -2.796663545594889055e-01
3.090227609560782795e-01 -1.909352905298579706e-01 4.390835282718801302e-01
-3.276314868341209663e-01 -2.899233630434025488e-01 3.547517814218661414e-01
3.118056806245619317e-01 -5.323914366866725478e-01 -5.244323999972809458e-02
-4.324094837332964625e-01 -5.510202057243463077e-03 7.735134860938657209e-01
-4.612990729896248449e-02 -6.239393704323620282e-01 -1.515006408313946951e-01
-2.274428166297935705e-02 -1.801975871502443927e-01 4.848028231476463890e-01
-9.427282675836125281e-02 -7.148865095548082582e-01 -2.779590427658924501e-01
-2.296225491130648166e-01 2.951843249537797892e-02 8.054089987732374611e-01
4.575615990243622755e-01 -4.460927719060814867e-01 5.842094737489105655e-02
-1.821299217965585138e-01 -2.055294652954310630e-01 4.628986766006073506e-01
-4.434440472882130169e-01 -4.309823881278765922e-01 1.623686486964390774e-01
-5.447049593131767509e-01 -2.807297577800577093e-01 3.877848820177937084e-01
1.267646738453093447e-01 -1.788269308078212771e-01 4.731337096105594497e-01
4.154805837933732149e-01 -4.445389822275226388e-01 6.449593558645488889e-02
4.367490806434972533e-02 -6.506277578930668160e-01 -1.980925461863865256e-01
4.996567767064142851e-01 -5.763603359331217479e-01 -1.328433408146522110e-01
-5.434681134582036721e-01 -1.781596428544959254e-01 5.352456340331402940e-01
-1.228712855885109451e-01 -3.143629961051530031e-01 3.009067917271681658e-01
9.014284670383788944e-02 -8.275665088063425268e-01 -4.569043601858279735e-01
-9.284196624769928269e-03 -5.520143542496361855e-01 -5.137972138615291839e-02
-2.646852866007997074e-01 -3.962384849095896278e-01 1.960468259078579911e-01
-5.292680403568335024e-01 -2.453291645346256378e-01 4.373093181349654301e-01
-2.091990614548063995e-02 -4.878770126364772967e-03 7.368777661697381021e-01
4.661670494052527758e-01 -5.706401757307658640e-01 -1.215578193287422254e-01
-2.784972890587019134e-01 -4.779613303572477490e-01 7.972760923016650181e-02
-4.472125838860871450e-01 -2.545112838106977082e-01 4.166117503853124515e-01
-1.493396412267165296e-01 3.718251326985080180e-02 8.091107675826467727e-01
1.673655010605560461e-02 -4.289818610886905192e-01 1.232601702004328947e-01
6.236105482264436839e-01 -5.271274873471811784e-01 -7.331868117786582983e-02
9.861610298139712738e-02 -3.297045606438209209e-01 2.586255393455916263e-01
3.808202320741780333e-01 -6.490462982789961810e-01 -2.265782563187458409e-01
-2.788066764430634503e-01 -2.204582328559466856e-02 7.357080456182579775e-01
5.132461901642794144e-01 -6.721602388683924900e-01 -2.719161382057500020e-01
-1.508374965973485705e-03 -9.867652364838291890e-02 6.001543693651186784e-01
3.145559787936100249e-01 -7.559922503333604826e-01 -3.744016971306080022e-01
4.584360555451887920e-01 -3.235233271067220473e-01 2.346889650221191670e-01
1.822761432770125811e-01 -7.612897221283742022e-01 -3.699543020669828763e-01
4.414957222975714468e-01 -2.538545145927775248e-01 3.364711768812411186e-01
9.017341521544736116e-02 2.843184934867401537e-02 7.746675709319070791e-01
6.357715619142978447e-01 -4.740342823251831872e-01 1.960039229767069312e-03
-9.574117493450670993e-03 -3.761152417385681401e-01 2.017230344002065301e-01
7.693066998372966037e-03 -4.024006114800506018e-02 6.833907762030955180e-01
-1.382935544889545010e-01 -5.916260763364701303e-01 -9.660063533719982776e-02
-6.512282244137802545e-01 -1.956899878577156859e-01 5.198557085141475298e-01
-9.156126046598406232e-02 -6.800047125129848880e-01 -2.280199712415249547e-01
3.987653305180119401e-01 -2.016233985074562529e-01 4.155178366968946824e-01
5.130479165332431368e-02 -2.490418069220863284e-01 3.789964149106185287e-01
1.655820714035257935e-01 -3.830086825391390559e-02 6.717750559373597552e-01
-4.567877996317741551e-02 -6.630375764692540974e-01 -2.077946689950687376e-01
-3.108375371849910265e-02 -4.671864569581546389e-01 7.265610339067826717e-02
-1.551266260710088274e-01 -3.620553891057872176e-01 2.352319352461915147e-01
-2.688170009117167303e-01 -1.747986002503831016e-01 5.150222686142458262e-01
1.097618341553178722e-01 1.907785011992548310e-02 7.594221850985564126e-01
3.122784068874869257e-01 -6.186744552256699947e-01 -1.766267782302002043e-01
2.293278889172838952e-01 -6.073709068259218746e-01 -1.527953216072270026e-01
-1.847855639644898629e-01 -2.085686536619631437e-01 4.587683192661491383e-01
1.142315193888332990e-02 -5.452118030244671454e-01 -4.348182741381932670e-02
1.287515254800136733e-01 -3.165841411868346444e-01 2.747531035918753251e-01
-6.860044229179240727e-02 -4.192666735721209958e-01 1.450241007426514850e-01
-6.229723215352660493e-01 -2.396665042674444579e-01 4.540060707339801938e-01
5.508649886748129276e-01 -5.287959889902901223e-01 -6.908196653043893742e-02
-2.163972938615746910e-01 -2.353409310826850842e-01 4.231337293093985763e-01
4.140733612109931405e-01 -7.090494432524218071e-01 -3.159422841196576348e-01
-1.161961977884723995e-01 -1.054090237601172514e-01 6.009320150815551376e-01
4.134358094267664985e-01 -6.981243506622463180e-01 -3.001655467107120501e-01
-4.524726672756839152e-01 -2.679357166602559515e-01 3.977771651382718820e-01
-3.522946015017112686e-01 -2.812695651331615920e-01 3.694527606814428378e-01
1.597625501952393001e-01 -7.699393021204417042e-01 -3.803448226980638558e-01
2.789553871229032977e-01 -2.754451306411814793e-01 3.202376356533924162e-01
-4.145967176984843849e-02 -1.996664992452172604e-01 4.584993519233678816e-01
-2.563778285614241037e-01 -2.221651572490035143e-01 4.457382961065373128e-01
2.369325839820846796e-02 -2.661392072197750758e-01 3.569166576025068482e-01
-2.358832918440370852e-01 -5.815946400437147501e-01 -7.326376211350860146e-02
-4.673965512893286656e-01 -3.430606404520294972e-02 7.352754119939013400e-01
1.302494797087119793e-01 -5.457488531879955973e-01 -5.509619480862629898e-02
2.660469353803859849e-01 -4.508466914789273083e-01 6.905495240338725693e-02
5.042658849953750577e-01 -3.695478530980910170e-01 1.642892962010791547e-01
2.249213948087678272e-01 -5.148777825934529595e-01 -1.931802651392595591e-02
2.953042449107274800e-02 -1.556536798882490469e-01 5.153460427326108650e-01
-4.579589509729545260e-02 -1.555469713990917657e-01 5.223723234938300042e-01
-2.303598128321789340e-01 -1.981581565551435442e-01 4.779046902618540038e-01
-4.254635225921837849e-01 2.272358136513209434e-02 8.135013279772187467e-01
-4.131659692391883611e-03 -6.109059024093396184e-01 -1.365805396366364943e-01
1.914400817532107280e-01 -3.449162577740557123e-01 2.282703495063963250e-01
1.094867890607938571e-01 4.722218132290583598e-02 7.999401695183411265e-01
4.489014361998697189e-01 -5.963925379458475673e-01 -1.570339336541621555e-01
2.010310691124862492e-01 -3.690990398425170183e-01 1.926020926268225131e-01
2.239310420996862838e-01 -3.888158018635764490e-01 1.621450507900862592e-01
4.884438404873506223e-01 -4.444456833370567517e-01 5.797302231727573252e-02
-2.418309051303624002e-01 -1.089273910979942500e-01 6.073328117043215180e-01
2.845808173733304497e-02 -6.679472846824572319e-01 -2.216227795322687488e-01
5.663293122230579624e-02 -5.004516375061380390e-02 6.648183437238318616e-01
5.814301954764339309e-01 -6.085283109558962122e-01 -1.865862656573539780e-01
-2.606813897686908743e-01 3.277875077441320256e-02 8.129336088991530040e-01
-4.904221240264916015e-01 -8.721573256753881176e-02 6.612520356748228245e-01
2.551586522680194744e-02 1.252425428893623460e-01 9.198540946437002708e-01
6.845742822962598562e-02 -6.181437637008574404e-01 -1.536170812167973188e-01
1.996845177253489187e-02 -6.382127414952294409e-01 -1.780673679597317149e-01
6.154614940926154965e-02 -7.287154249595853561e-02 6.315284217429871783e-01
2.628062596122367478e-01 -1.063539730763284757e-01 5.649923796605083037e-01
-3.530140610153642000e-01 -3.584629347729557658e-01 2.584558047189326468e-01
-7.928103270370463751e-02 1.143682485029637458e-01 9.137702542651996440e-01
4.499126457988957273e-01 -6.868269065495250514e-01 -2.872393922117987830e-01
2.435278820078670692e-01 -7.182746311607605127e-01 -3.136545761240621122e-01
1.507899568631164700e-01 -7.252494350375567889e-01 -3.152282496857455873e-01
4.146424923983759170e-01 -3.899879400354972492e-01 1.430581661186386966e-01
6.795145477493130803e-01 -6.315025801527363036e-01 -2.285898753400091299e-01
5.064054131717568019e-01 -5.542609349926087559e-01 -1.016633886318340646e-01
-4.823480637694681911e-02 -5.080568872032297234e-01 1.541829112944150156e-02
4.743396315880839542e-01 -7.213423908809821761e-01 -3.391275424500556634e-01
1.720569596886880048e-01 -8.092863489120240006e-01 -4.380774504194009378e-01
-1.694390250538619080e-01 -5.051755521585112874e-01 3.062247591692585785e-02
2.825152878291262160e-01 -1.201324520322312323e-01 5.433702326544850303e-01
-1.135531871883712629e-01 -4.306447600109733487e-01 1.327552610326434568e-01
1.604476988354587574e-01 -2.845566772114509480e-01 3.179409320863491040e-01
7.538523569047722583e-01 -5.760469680496257405e-01 -1.555852162111873715e-01
2.546394726818049792e-01 -1.771980035162021294e-01 4.638100801458323597e-01
2.665166454275276764e-01 -5.813746506549085646e-01 -1.187860850449522776e-01
5.015141648100513994e-01 -4.719644363918649721e-01 1.718765581571310430e-02
-6.686807137443365190e-02 2.894985568594097766e-02 7.897412796258154177e-01
5.925836085876461795e-02 -8.525137049118195476e-01 -4.899794528505986846e-01
-2.732633177052301021e-01 5.493261715639170817e-02 8.459556391577547352e-01
4.238396827093979247e-01 -5.754602438584842661e-01 -1.246307947311068864e-01
5.321838813772632459e-01 -3.120963411786019104e-01 2.444009038752638641e-01
-7.244083885850969295e-01 -1.807361862814940712e-01 5.480475526565306010e-01
-1.443002368091176046e-01 -6.507598922809643138e-01 -1.811318542191180103e-01
-2.103714008742597619e-01 -6.132724175688825108e-01 -1.211681246609546680e-01
2.774258634657530420e-01 -4.233900950710651756e-01 1.075201473334730096e-01
-1.581873659717356051e-01 -5.821129735390379034e-01 -8.109847399493796960e-02
2.097238264709009037e-01 -1.441644260904591246e-01 5.154355044015164200e-01
6.004002827449159696e-01 -4.639317820060621100e-01 1.972236110130863931e-02
2.391790088447295626e-01 -2.905746085638459264e-01 3.020991601165128326e-01
2.711678236258362185e-02 -6.399100020891835827e-01 -1.811615274330679870e-01
-4.831477144682119196e-01 -3.037620566892363372e-01 3.490305050153229005e-01
-1.295926124115145961e-01 -1.574453088010438206e-01 5.272866646888796360e-01
2.765319683937908501e-01 -2.222567250868558997e-01 3.969840062863336239e-01
3.558849136773679922e-02 -1.854991840238342290e-03 7.360724412814805273e-01
-3.818519102895289175e-01 -1.763278924595322247e-02 7.514591541399030517e-01
4.999468833080128460e-02 -1.065304770785981126e-01 5.841553033105049142e-01
-4.731994705396181944e-01 -2.586772541382464374e-01 4.129889626223849364e-01
5.204270713075569432e-01 -5.634033052603335534e-01 -1.160963817953866856e-01
2.342450905365776603e-01 -5.165316467501563924e-01 -2.254822873131046360e-02
-1.954738366887897594e-01 -2.736843994791582357e-01 3.660576963295144037e-01
5.826414961929520658e-02 -4.623157875037832709e-01 7.151174081623692946e-02
-1.199576699830133403e-01 -3.929735740049121184e-01 1.875393348629930401e-01
6.642040827242325085e-02 -7.547146648994507157e-01 -3.499237381303841321e-01
3.666955313479574041e-01 -2.488169995738726825e-01 3.505436924989954184e-01
-4.386912531403559801e-02 -1.623512322034602884e-01 5.124068390100025017e-01
5.129426601328915813e-01 -5.994445176312026557e-01 -1.672680986401993142e-01
5.990214364993474705e-01 -5.219642895548129991e-01 -6.364658372679947440e-02
4.365992485180762994e-01 -4.651235240193315468e-01 3.295289450909716367e-02
-2.632071747535469908e-01 -3.990414572667620730e-02 7.085909421316101131e-01
-2.823106462158652130e-01 -9.871127826767241153e-02 6.257246892008426764e-01
4.610205327903727501e-01 -4.961156665794943521e-01 -1.386549839931879718e-02
7.355276290585429644e-01 -4.912196503808515247e-01 -3.186726785266453393e-02
4.401472135027353905e-02 5.575204327915831565e-02 8.181862327442203098e-01
4.515272292318679992e-01 -5.650598172128880048e-01 -1.121932991045331424e-01
2.678077429604185378e-01 -7.776063903466743366e-01 -4.012339235044805053e-01
3.115411292859376208e-02 -1.750478687924263699e-01 4.872943480883242251e-01
3.025186564677764811e-01 -4.472844943741554613e-01 7.085242298669090777e-02
7.609711694454267539e-01 -6.129098011750382380e-01 -2.092714408992819297e-01
8.286522820053536520e-02 -6.163046356063206499e-01 -1.522855842292613893e-01
-6.198332911243205068e-01 -7.943667137183396676e-02 6.842516642406895055e-01
1.401961192714650251e-01 -4.876291456146552572e-01 2.761648662983719540e-02
-4.628713933891918098e-01 -1.542913620753533221e-02 7.620218739211191972e-01
1.814314797824439496e-01 -1.500382801419032283e-02 7.038477696014022733e-01
-5.036878275164736740e-01 -3.166575692379032247e-01 3.323510540034575467e-01
4.066055825489159337e-01 -5.667571215608298019e-01 -1.105366708767035744e-01
2.691437652015125637e-01 -4.433913394474436886e-01 7.949884790715165683e-02
6.456416959388351362e-01 -5.208213290907769411e-01 -6.625575977293975127e-02
-7.035701969367889053e-01 -1.612754916607278266e-01 5.741455170829280474e-01
-1.556756687175113729e-01 -6.626395336662123103e-01 -1.971858952195811032e-01
-3.270083338519841898e-01 -2.861657394594189774e-01 3.601012371336011486e-01
-6.910264861714093820e-01 -1.805441075346664315e-01 5.452781517892082430e-01
4.051382416169409945e-02 -6.890803702533213615e-01 -2.531281439292025204e-01
-4.409506594153460579e-01 -3.109867747644686764e-01 3.347858342107631890e-01
3.702839807049839171e-01 -4.165709767260566410e-01 1.088588607539673347e-01
1.007323491964537271e-01 -4.713919086761962918e-01 5.457860933430419559e-02
-3.194129430087828125e-01 -1.678768260346037988e-01 5.295973886183187318e-01
1.379114866160900676e-01 -5.431316641624372998e-01 -5.202977188321910446e-02
-3.713791060428949797e-01 -1.764545192390650635e-02 7.504853997784233233e-01
7.196246539326869862e-02 1.039076844593315964e-03 7.369175549881186171e-01
1.204167654074626663e-02 -7.012108986502963992e-01 -2.679832509729820900e-01
2.737940128443079324e-01 -7.687385879223086471e-01 -3.890214850419321801e-01
-2.269520562165363575e-01 -3.843218783667028404e-01 2.097491724259359092e-01
-1.182734564712625575e-03 -4.547899424898984022e-01 8.776353024278585324e-02
-2.909943946864016473e-01 -5.094499787124686652e-01 3.556328841703987331e-02
-2.827656391175647349e-02 6.237539986084450483e-01 1.539059869368300248e-01
-1.289276810094061310e-01 1.594171444450631359e-01 -5.049791231156025573e-01
7.389809299906691109e-02 4.393047774059600230e-01 -1.207942442498697727e-01
-6.821231939594810667e-01 6.226424511525892047e-01 2.119635286376082284e-01
-1.824740878653064169e-01 1.589654430827050491e-01 -5.007434524993333858e-01
3.832526493325610906e-02 1.415818284181553088e-01 -5.458999451972872397e-01
2.696077652038910144e-01 4.701369225347828418e-01 -9.429073794013541343e-02
3.517245288272898840e-01 -4.122518635107112056e-02 -8.375095143407901288e-01
-1.504550078768897015e-01 3.556299220685086304e-01 -2.207122183938501625e-01
1.170106558999761681e-01 -4.235416164818531226e-02 -8.177186065645630775e-01
-5.756323942302235541e-02 7.433352836329638613e-01 3.286266585189415723e-01
2.840483470874964333e-01 3.927785693569145198e-01 -2.069082634126268583e-01
6.072449835137361251e-01 2.233225715813256795e-01 -4.802028560142291846e-01
-6.552697970902915392e-01 5.775832922234817035e-01 1.446841942442969320e-01
-6.692343573061632078e-01 4.877415594292982548e-01 1.669778055110069520e-02
-4.549460570532508352e-02 6.546271017477598431e-01 1.998958889967687724e-01
4.908546405291426273e-01 1.447107766517368999e-01 -5.826868029546292682e-01
2.895714375574235389e-01 1.175339295539547246e-01 -6.034226915381678547e-01
-5.408637941338999798e-03 7.111486107222840802e-01 2.775592448191346318e-01
1.154220782924351152e-01 5.384026951324804022e-01 1.799506760369655109e-02
2.374749054962486117e-01 -2.289871461141256698e-02 -8.007180467426491255e-01
-5.536535924589236490e-01 3.419306485937351758e-01 -2.036344315730052035e-01
-3.163427680347875581e-01 7.413605331977833890e-01 3.493964442375038226e-01
-1.131880911698868591e-01 3.586530518078135943e-01 -2.197628888761664068e-01
-1.834700531831058301e-01 3.053156926275694683e-01 -2.900899484831666042e-01
3.135283337770500833e-01 5.529521355474690258e-01 2.085303417538646870e-02
1.175372933438560558e-01 4.223105355669513616e-01 -1.492264791475848007e-01
3.449269118451065985e-01 4.747895354206517204e-01 -9.446885123746003032e-02
1.832706368973482935e-01 6.185712614169879275e-01 1.271477714980611962e-01
1.907974813465309061e-01 3.483580950731324233e-02 -7.133931869180482055e-01
-4.413792077311272100e-01 6.334312836492634879e-01 2.055206344235363247e-01
5.397734469431797466e-01 2.411886281491109063e-01 -4.483418345465595145e-01
2.324886728464579666e-01 -5.109954032132207891e-02 -8.408372755423649814e-01
3.021685033895543104e-01 2.300341927052393098e-01 -4.427113600029057294e-01
-1.463535713592426790e-01 4.279663181890440704e-01 -1.170118439356887252e-01
-3.693403938114746543e-01 2.295132348460605098e-01 -3.821926021522749628e-01
2.713234535955570403e-01 1.400956996815321265e-01 -5.692968169703668257e-01
-7.200928065800412670e-01 5.411637783905127730e-01 9.819975125330612786e-02
3.555165115215214427e-03 5.654263753554557015e-01 6.708231803601447107e-02
5.232935752856392453e-01 3.446555130884391693e-01 -2.979743787369313890e-01
-8.384445611103981193e-05 8.258895855891926763e-01 4.421579390378532759e-01
-1.312155039700211578e-01 7.334723748205471683e-01 3.211563295711019617e-01
9.633378398212705598e-03 7.860443955487302903e-01 3.839437454080123491e-01
5.411351004768625295e-01 1.850911358205217516e-01 -5.291768026758117971e-01
-2.245889399792267566e-02 2.079139551790183393e-01 -4.449181187676075622e-01
-2.186817726322440314e-01 4.102826445198075045e-01 -1.358551702042002929e-01
-4.279321822304729128e-01 4.725524148308121175e-01 -2.717207214556103395e-02
2.323747669904861063e-02 -1.489735411571451729e-01 -9.625622814590362175e-01
-1.732936792542168758e-01 2.113574061557142447e-01 -4.262017001461781973e-01
-3.982657469444956799e-01 7.029153092266405833e-01 3.015576906128202839e-01
5.381342220024939449e-01 2.396121892038489132e-01 -4.504603866817152857e-01
6.610906168279497008e-02 -7.148456711545199405e-02 -8.549859707522547980e-01
-3.344849981930106964e-01 5.641023830941019890e-01 9.602010634805908940e-02
8.347883595719335359e-02 3.455061123458119110e-01 -2.566219940773260544e-01
4.768760039301709330e-01 -6.738656376198688507e-03 -7.993105207653887767e-01
-5.513145277693493052e-01 3.507942301165475341e-01 -1.910952959513511074e-01
2.674540809069134717e-01 1.137501664746440322e-01 -6.068486303319688968e-01
-3.044541677804279978e-01 4.305623684021633868e-01 -9.885169952727097809e-02
5.562559066206248515e-01 2.300087838474644819e-01 -4.659307832016690298e-01
3.004798058100678348e-01 -7.092261664674281985e-02 -8.755613832128439356e-01
3.046815762889032997e-01 1.267094033779638251e-01 -5.916000476313576506e-01
2.884280198114008709e-01 1.290838588725679199e-02 -7.538492330165003086e-01
2.281483791775640035e-01 5.996958444887803275e-01 9.589597614481115695e-02
-4.738098122130111611e-01 4.529445722791057283e-01 -5.119715528928229370e-02
4.885447057270015936e-01 5.569939795852529157e-02 -7.105419026875043897e-01
3.170040102088573231e-01 3.450353467498366578e-01 -2.786060857535927471e-01
-9.822701494260692445e-02 6.742908639882927435e-01 2.329985803809145883e-01
3.419499307742127625e-01 5.293463484709911571e-01 -1.570316611921417430e-02
-2.102408568007729239e-01 4.493180004226698943e-01 -8.046287580605415712e-02
-2.867061418483418233e-03 7.923743435355873332e-01 3.941915471971923490e-01
6.215442472197695301e-01 1.558959335582061068e-01 -5.785181503021774585e-01
4.682768290145609691e-01 -6.493192121178161316e-03 -7.981727706424889268e-01
1.657608131910495997e-01 6.032488848060534314e-01 1.067001669566329941e-01
-2.557787768902630154e-01 7.687650824639460367e-01 3.832991240523808130e-01
-1.591404347548837361e-02 4.364373888810229585e-01 -1.167252881574768059e-01
-4.236916390730394721e-01 4.870219182140897440e-01 -6.740860446181171431e-03
6.696882601545346425e-01 1.948361733247673810e-01 -5.268852048806030863e-01
-9.539024147504199247e-02 7.079502107534348943e-01 2.811674175865385150e-01
-3.841656612770487089e-01 7.109029942826584625e-01 3.117635505706793930e-01
-3.006196323497442036e-01 1.171591708995102510e-01 -5.501130049552801493e-01
-1.193323745322524415e-01 1.744012703544884912e-01 -4.842960611567993512e-01
4.249535769329232937e-01 1.796728846304167238e-01 -5.263719855994117847e-01
-4.582478060718790935e-01 5.717561816598568658e-01 1.183241575002210166e-01
-4.403954046631887442e-02 3.036841863133212804e-01 -3.051588939856932359e-01
4.119175182167540417e-01 3.938598265914286523e-01 -2.170193442328554045e-01
-2.547060189921694917e-01 1.676288846170376212e-01 -4.816884324392694539e-01
-4.178033247234732572e-01 6.057476388606618523e-01 1.635395042407877253e-01
3.739155245456197707e-01 2.360088062343546900e-01 -4.406615141729830487e-01
2.661514051814691251e-01 1.421935160840044898e-01 -5.658066699649667575e-01
-8.782367268045294939e-02 1.890932986722893561e-01 -4.660326292957996941e-01
-4.240265575930867725e-01 3.762976029030709602e-01 -1.660158273388320782e-01
-3.377464437595356639e-01 1.998970780346003007e-01 -4.276857162671328094e-01
3.037667884321281764e-01 3.140144925856270808e-01 -3.220298358065582511e-01
-1.115725530419324901e-01 8.384384024232409416e-02 -6.152943170028646325e-01
3.505021570417474197e-02 2.891706629223206315e-01 -3.332564738230249235e-01
-3.889202214093009369e-01 6.064678370394614992e-01 1.619404087896604560e-01
-3.774133751055178121e-01 6.147204476184445765e-01 1.727640389942577126e-01
-5.494975733743458213e-02 3.267057501977239653e-01 -2.710409832320652690e-01
-4.687562313244053591e-02 7.999448937031148343e-01 4.090990681640299664e-01
2.454155584625108688e-01 2.814474719760015065e-01 -3.635619557117721334e-01
-2.716984858171338502e-01 5.919688062135326501e-01 1.303845287543601017e-01
7.479444178177746538e-01 1.397595852222620616e-01 -6.132671723810246833e-01
4.744934095678143837e-02 -1.689320890814294818e-01 -9.934868913694697712e-01
2.257778095225954074e-01 -9.463543268279139831e-02 -9.028626035301899888e-01
-6.780639749717434772e-02 2.809938389626332467e-01 -3.356363373609385081e-01
2.036157468762656297e-01 -1.542612349338949758e-02 -7.868774939638301102e-01
1.671592587694343268e-01 6.242293157747029753e-01 1.367583418047070287e-01
3.795561288920431542e-01 4.371230985101605127e-01 -1.518213093916802037e-01
-2.418579740362264419e-01 2.645032298986239594e-01 -3.434819187926448358e-01
-3.380558465509893029e-01 6.656241180387900691e-01 2.424111457123408753e-01
-1.418797702285164997e-01 2.307771934859547958e-01 -4.011275170175242488e-01
-5.542287142752516660e-01 3.655630963197317729e-01 -1.695805779172973315e-01
-3.074015756628018653e-02 3.741826601735206426e-01 -2.049420635280956582e-01
-2.542011011043354141e-01 6.002382358821107822e-01 1.406857824579934857e-01
1.627053235350981175e-01 4.666316640581835151e-01 -8.958020769168038855e-02
-1.242591664839498289e-01 2.242050806448935008e-01 -4.121908978671891544e-01
-1.807956217419307010e-01 1.985483424837457822e-01 -4.439463712793333960e-01
-2.050094740696309092e-01 5.760449654122610230e-01 1.013892836436744993e-01
-2.983652652596599508e-01 3.070866874199508767e-01 -2.770589069774763158e-01
4.659729049488134933e-01 4.410035441453582367e-02 -7.251706775527854143e-01
-2.916862288791855495e-01 3.694698846841555362e-01 -1.879139592397305603e-01
1.622888744578670495e-01 3.633648941548495714e-01 -2.381181306005604736e-01
2.887764681378235387e-01 2.970382517331520908e-02 -7.297164481121953816e-01
-4.960766120902185827e-01 4.385364296923250360e-01 -6.989537284415490992e-02
-4.113452019653314751e-01 2.931383290754376314e-01 -2.868189640639159932e-01
5.968537560938026454e-01 5.116080415918427410e-02 -7.269539305488542658e-01
-2.510940258600263264e-01 1.866465201191238321e-01 -4.546562092890624740e-01
6.088473962378391224e-01 2.358797186379784361e-01 -4.622823604946060261e-01
1.475326252788018884e-02 3.697167373369090182e-01 -2.155182543126916983e-01
-4.888046322390864340e-01 2.723796013727903254e-01 -3.096183778183447255e-01
-3.991458073305410026e-01 2.858200149929575051e-01 -2.984613184697178512e-01
-2.787944572757259515e-02 7.525998652559567903e-01 3.392478106689520989e-01
-5.473179360786937370e-02 1.449418050587818196e-01 -5.325752501364833247e-01
-4.067500631665652011e-02 4.177614120576331191e-01 -1.413363207769128549e-01
-5.236461188864051097e-01 3.278004257404519839e-01 -2.267022803923709473e-01
3.208274459597521000e-01 2.435109678258505772e-01 -4.250239751704240065e-01
6.490018019195567534e-02 6.766950116349154110e-01 2.215738865060009333e-01
-1.285790889644894686e-01 5.809330154575137461e-01 1.014485184102843218e-01
2.274366733936255824e-01 1.563316926672018159e-01 -5.419329297647672572e-01
1.064236599391179400e-01 2.431203419262091547e-01 -4.060238479294289160e-01
-1.638518658725733046e-01 4.971006962949837682e-01 -1.594764576782895307e-02
-2.513151825236729087e-01 6.251237856091275413e-02 -6.332350542465143839e-01
-3.357951673248156244e-01 3.251890132047014492e-01 -2.475989418314712698e-01
-1.640681920270162519e-01 2.849429937366801946e-01 -3.211715581405026332e-01
-4.866974687625277851e-01 4.861094971757913275e-01 -2.304978893004916169e-03
-4.717883997774270644e-02 5.151575801479550965e-01 -6.133700722799116743e-04
-3.142062633536489846e-01 7.679859241308018003e-01 3.875090116267051465e-01
1.256578898105504549e-01 6.918477783624037425e-01 2.378315380029789317e-01
9.062232915207815709e-02 8.586370378592023123e-02 -6.308364280183451633e-01
-2.812208404172204523e-01 5.477374204928382451e-01 6.761507364569060985e-02
-5.055476695105191182e-02 7.289370463852729021e-01 3.072716244162110311e-01
-6.166456965993213912e-02 9.498692236018400903e-02 -6.038157063241461620e-01
5.371699327374625244e-02 5.916161345955878170e-02 -6.658870485334297262e-01
6.134757486636457369e-01 1.800039162489563138e-01 -5.430964231130541719e-01
-1.895457281409884676e-01 2.658906424936930968e-01 -3.462587226184613565e-01
3.229716203900596244e-02 7.480251872185625928e-01 3.271754573648438247e-01
3.911172045494741845e-01 3.310383192374533601e-01 -3.055064927159040766e-01
-4.418990367003685499e-02 2.656523780478050045e-01 -3.598637536983569918e-01
5.721989849675593320e-02 2.362236928124200330e-01 -4.114571210087064612e-01
-1.942997914585899433e-01 2.430819486781757854e-01 -3.786411601086545065e-01
4.442375886798076434e-02 7.477960453313881040e-01 3.257393501617700249e-01
-1.114762467651094352e-01 1.303744464727875918e-01 -5.483568092611240674e-01
1.171585521272926339e-01 1.788084668077965511e-01 -4.995325390233229523e-01
-5.825646589931137154e-01 5.294577730188727571e-01 6.880960815752855397e-02
-5.743373019264121082e-02 5.850730157193185788e-01 1.009136947359003944e-01
-2.673444504270310329e-01 6.019459791626289302e-01 1.443420078721496524e-01
-2.138929013105116683e-01 3.827999426543898104e-02 -6.715139964694087915e-01
3.421552586509209876e-02 5.487852978095720813e-01 4.034238700368935476e-02
4.249564839877559286e-02 8.501574075329459967e-02 -6.276653765034975185e-01
-2.832336404328161250e-01 3.440396359341312826e-01 -2.252731519196106980e-01
4.283678105319243395e-02 -1.209906929010986232e-01 -9.240899622371631095e-01
-2.286318280249945989e-01 7.288931577460771027e-01 3.234561821940040716e-01
3.244208495118497959e-01 2.729895415386994206e-01 -3.829392945091985578e-01
1.286853710982878984e-01 3.567146886389469668e-02 -7.065237829536774594e-01
4.318701925850980117e-01 5.346959986002372545e-02 -7.085790758899819242e-01
-6.952501181080177062e-02 -7.318521650852920224e-02 -8.450575779319301484e-01
6.282234860985472791e-01 5.756710854777382508e-02 -7.205989727919159815e-01
1.153617526070099958e-01 -8.042778631597483074e-02 -8.723469035792713600e-01
3.282260865921131088e-01 1.276812479261641708e-01 -5.923499930030595717e-01
-3.101119264776133200e-01 7.434300868803568330e-01 3.518055314218776486e-01
-3.722007625133878506e-01 3.175900849052268327e-01 -2.552103261295167180e-01
7.357510468005665771e-01 1.378382295941256441e-01 -6.149190188120692291e-01
1.779211846995933655e-01 2.406929574649888659e-01 -4.160396822411070450e-01
2.410251280768416771e-01 5.394863541856143030e-01 8.094202718881764874e-03
1.858916991601071433e-01 -1.140780843033332905e-03 -7.647072017080811523e-01
7.100222626678636129e-01 8.929983830985536997e-02 -6.824065435605884966e-01
-2.407850236141881595e-01 3.363250369430548226e-01 -2.402455953725470272e-01
-2.191260058963406254e-01 6.103808954216184413e-01 1.520783755826484174e-01
-2.381093425591177537e-01 3.422954469331972449e-01 -2.318997470173362330e-01
-1.939163150824275983e-01 4.821385964268068980e-01 -3.473141852714723560e-02
-5.178537104078668740e-01 6.115101622870194875e-01 1.809589526461759523e-01
1.138189993629760630e-02 6.427313419860637422e-01 1.775913692143434031e-01
1.528957321639438649e-01 6.974342135150510824e-01 2.433838944257623871e-01
2.703472046605761014e-01 5.575352284067989217e-01 3.138683149579032244e-02
-5.229441241754407832e-01 5.919808557525803039e-01 1.533254492638715938e-01
-4.212991992313415146e-01 4.248505339780603296e-01 -9.640873947574821190e-02
-3.916785910643814095e-01 7.477675661763194537e-01 3.654882360770398408e-01
2.735800995745008013e-01 2.427192965936895153e-01 -4.218521635919779134e-01
2.278384403855037710e-01 2.189706060976414626e-01 -4.518473319147444656e-01
-9.753579088645333850e-02 -4.573558541281624173e-02 -8.030084981674632250e-01
-3.893722519912954927e-01 7.282486339654899998e-01 3.371947811087250280e-01
-7.703432290858230891e-01 5.231056387384764861e-01 7.680328838637739963e-02
3.183724053585366143e-01 3.204561716991252696e-01 -3.140944292253191050e-01
3.369169287263599766e-01 6.817103233131503737e-02 -6.787637581548705557e-01
5.391809956126966119e-01 1.047748418608451665e-01 -6.445542431340249845e-01
-3.075269230132472997e-01 5.490198916282319486e-01 7.186039946856929983e-02
-1.025631862572686653e-01 -3.915926473786583012e-02 -7.930880641902223749e-01
-5.917820318261569623e-01 5.571086605167638872e-01 1.094335419298187589e-01
-3.770266199777262961e-01 6.442031673778750855e-01 2.151472585498260537e-01
-5.428851511901727767e-01 3.531743489104882672e-01 -1.884399743846078279e-01
-2.478218377369137970e-01 3.184762131417543940e-01 -2.652837012762011559e-01
1.994940323855699249e-01 4.969869979697051909e-01 -4.926281172363052019e-02
-7.614522138443113874e-01 5.287943174813548586e-01 8.417670816734060257e-02
-4.882400496941641244e-02 4.807861758460370560e-01 -4.991540798564816223e-02
2.849147804324331235e-02 1.936630281086478278e-01 -4.700704561736907539e-01
-7.057363922908446163e-01 5.909903340921032200e-01 1.685782451660216563e-01
-5.255567580817455814e-02 4.741488784974897119e-01 -5.912439782303277602e-02
5.171679537155252637e-01 7.100836883890210283e-02 -6.911275715795347496e-01
-7.158843210895071696e-01 5.549078060364623921e-01 1.175901036660054744e-01
-2.906294972530514276e-01 3.403738769463501290e-01 -2.298724970158696757e-01
2.460320016955847844e-01 4.936607520291906304e-01 -5.829458733260091396e-02
2.664357157897356276e-01 3.095526005030624916e-01 -3.250433429794774565e-01
2.483761937381712137e-01 1.792501066021831846e-01 -5.108693882693177146e-01
7.736248310929368099e-02 2.321575558001664208e-01 -4.191451132533924318e-01
-1.249394322246085570e-01 8.109554224750876728e-01 4.320630783759265015e-01
-2.287937831987283399e-01 3.836549859956019937e-01 -1.732433171076761813e-01
3.284178471759505169e-01 3.345403919733191400e-01 -2.947471841716513552e-01
-5.404498884544094855e-02 7.602591209952905826e-01 3.526549653171804355e-01
1.852960726510633205e-01 5.013512106456377015e-01 -4.168834661871895914e-02
-1.356823647169069780e-01 5.696005153798805801e-03 -7.255303886177186801e-01
3.075263934250833664e-01 -4.482646662739003113e-02 -8.386582602067863546e-01
-5.300125329899716409e-01 6.784467453056010067e-01 2.783738829720983632e-01
3.414905625940910516e-01 2.674998722489710934e-01 -3.923950376282968611e-01
-7.555256707034459229e-02 7.941960012347697440e-01 4.034442781737431205e-01
-5.288367647340458388e-01 6.443605621305855680e-01 2.292248281278814748e-01
1.856868256399616876e-02 7.266153651021616255e-01 2.976244814103196079e-01
2.752425917492680729e-01 4.289265019949540791e-01 -1.540966915108127611e-01
6.468880593914928534e-01 8.478519803274685296e-02 -6.831416719700308393e-01
2.292918761956773688e-01 2.538505027692183197e-02 -7.305027631362708274e-01
-3.254289112294614927e-01 4.022609382937898381e-01 -1.376568863338162862e-01
2.472471614751605429e-01 4.308691864845915487e-01 -1.487473426364824269e-01
1.864573307073418285e-01 1.259740097946519810e-01 -5.818713530214232321e-01
2.962402084721701273e-02 1.915478230175329255e-01 -4.732170578987033305e-01
1.035206114917035757e-02 5.419499700484566723e-02 -6.690762043644974399e-01
-4.083598494459235728e-01 7.128126163482987332e-01 3.167185063066738637e-01
-3.079361837609891350e-01 5.835475115831747495e-01 1.215746391944092508e-01
6.650468067584854870e-01 1.080454134576277758e-01 -6.513326437781140621e-01
-4.454420572393442274e-02 6.525564651974593566e-01 1.968300292905073023e-01
-3.583185323679431433e-01 2.485189425450605727e-01 -3.558536146093906893e-01
-4.187219283753197963e-01 6.988170815319273421e-01 2.975277480737312241e-01
4.079263946965461796e-01 2.759228262813835653e-02 -7.436256545142155838e-01
-1.276619971061530023e-01 3.985082552620877183e-01 -1.611002898856254695e-01
-2.981293873706731823e-01 2.399474713101549805e-01 -3.736775310887457957e-01
-1.607860179123935807e-01 4.779414977059900371e-01 -4.379282839692624774e-02
3.094014858621185193e-01 3.049322414973242856e-01 -3.356111079753856807e-01
6.171990582052471613e-02 3.099406254110183556e-01 -3.058068537630301842e-01
1.071547078897996941e-01 -1.161572963548847814e-01 -9.230042232259021429e-01
5.628195807552215102e-02 7.418764609195186432e-01 3.161405602209722554e-01
-2.361354650443582004e-01 7.681012844907267878e-01 3.805518287627612239e-01
-1.946802572673741183e-01 2.993640323848579810e-01 -2.976301329097111870e-01
-5.321907406809210928e-01 4.748249413024449028e-01 -1.438993318866222532e-02
-2.657859420674321127e-01 6.154881767936325465e-01 1.636837588781118735e-01
-7.531139139047334473e-03 7.214283988456948737e-01 2.925430314705073087e-01
-2.056585200561878712e-01 1.296277890289257162e-01 -5.408379036773149906e-01
1.048314072114488321e-01 -1.027055079820914651e-01 -9.034383740807987451e-01
-3.548730138339113716e-02 1.986493039542385208e-01 -4.570590040029616774e-01
5.861349344760616864e-01 1.821603252511670712e-01 -5.374993033227393191e-01
4.816876558277101705e-01 1.434816340484430519e-01 -5.836188488383886597e-01
-2.628004344014248095e-01 5.072561872056724486e-01 7.691691452841778465e-03
-2.597029517044405211e-01 6.006284858339533406e-01 1.417492451667464459e-01
-6.788373942930114868e-01 5.313343713993807782e-01 8.029347795168378932e-02
-5.680496190884648522e-01 4.493119893331000148e-01 -4.782514955065195889e-02
4.055577968962969515e-01 1.212428711297589973e-01 -6.086689852353602825e-01
2.217490769870222311e-01 2.957966816046417660e-02 -7.237795189896878423e-01
1.966803985783897313e-01 1.848083552424613085e-01 -4.981557016724093567e-01
1.847740479507163636e-02 5.725266486222514439e-01 7.593639382996079934e-02
2.172407856312651153e-01 6.266689144109198750e-01 1.356989095528751965e-01
-1.490602949937144817e-01 3.527447044291943667e-01 -2.249906023707027580e-01
-6.865446213520336460e-01 4.865395935838214836e-01 1.654782605887452143e-02
-2.805326034783333089e-01 7.720710970824716801e-01 3.903142123854584922e-01
-5.283283574925489168e-01 6.503382671820764349e-01 2.377789137899312677e-01
3.523622786117259209e-01 3.346952579502376346e-01 -2.967090529183689096e-01
-2.159763501538489727e-01 5.237007776781318902e-02 -6.510516789420733863e-01
-4.660466382478964387e-01 5.740025977827946102e-01 1.222677706233838146e-01
2.747078333709955245e-01 1.193909579012417260e-01 -5.993947254102333089e-01
-3.090948534625859723e-01 2.712506719198490290e-01 -3.276393060517776568e-01
-7.570874897541240989e-01 5.983978773256618533e-01 1.839211695351000431e-01
-1.708007239822043055e-02 -2.099615907200922445e-03 -7.475676440134357836e-01
-1.145925674554151424e-01 3.281752302551591560e-01 -2.634849627666832617e-01
4.086347395391330961e-01 3.656507423647130106e-01 -2.573058777219561222e-01
2.121514217148756654e-01 6.038070674196697185e-01 1.032705902273224063e-01
2.966848117033306712e-02 3.210849777338171673e-01 -2.868484613301096608e-01
1.178334339895750482e-01 2.046817216641620973e-01 -4.623687555665166315e-01
4.509992934650755014e-01 1.952114794542052778e-01 -5.063921078695816647e-01
1.254907639706272782e-01 1.082795215325280808e-01 -6.017668713391242097e-01
4.068874454530991835e-01 3.932296204199031142e-01 -2.174671160969614547e-01
-3.955936692003613753e-01 4.486034276984278146e-01 -6.457943272033284110e-02
8.186924954497952489e-02 2.327848331142261806e-01 -4.186538089792770090e-01
-1.032767354594228554e-01 4.711478012693403050e-01 -5.881444674207291640e-02
5.235753364980506586e-01 1.314306171520859823e-01 -6.047791697687758816e-01
-1.723016580821308541e-01 2.932182976755408066e-01 -3.085141769125343547e-01
-4.263556595557175810e-01 2.932369369716034679e-01 -2.853075410440192861e-01
-4.875694799565152282e-01 3.192826347372095808e-01 -2.422489454579764001e-01
-2.411862551459144355e-01 4.761505995177902073e-01 -3.903380206869715152e-02
-1.151512042150706489e-01 2.567470931299403181e-01 -3.662018161729005405e-01
4.324160128113687107e-01 4.105550084327546090e-01 -1.948692903318970382e-01
2.072465219745633636e-01 4.094392084149684474e-01 -1.759302533557471626e-01
-1.763801208004374677e-01 4.583722370211287256e-01 -7.052546238737789075e-02
-2.848379730819434186e-01 6.231667759170634868e-01 1.764697090586297146e-01
-2.073837804411542696e-01 4.646288106631519810e-01 -5.869499976834102739e-02
-7.069389306003076578e-01 4.649775538799897356e-01 -1.261396570215921921e-02
3.150981543570167791e-03 1.636844870952750552e-01 -5.108902700425981269e-01
-5.749798061275809280e-01 3.748801158279633783e-01 -1.542823150005263322e-01
-3.033880419945167994e-01 6.917842555820695738e-01 2.768861789297730192e-01
-3.489085010642675733e-01 6.983954553118719710e-01 2.905513716229284338e-01
6.258381760713527253e-03 1.212935012535681645e-01 -5.721641700140904785e-01
-1.567019052261902079e-01 8.226117910111219178e-01 4.517317745016553032e-01
1.239747065885994093e-01 1.091263252132467915e-01 -6.004102008714139460e-01
-2.067196347005531842e-01 4.560243854777827899e-01 -7.113528417320556796e-02
6.234019888824700317e-02 2.175451798941983525e-02 -7.204935955905739098e-01
-5.521600575474979733e-01 4.272108239106275351e-01 -8.107314346378498293e-02
2.029725040739950304e-01 -1.514169955356395141e-02 -7.864095873677114934e-01
2.193877515041148807e-01 1.392020792870412582e-01 -5.658439212852990341e-01
-2.091714994191174945e-02 4.041185403889946404e-01 -1.627678167443181168e-01
-3.296360749695513848e-01 4.651804513600495405e-01 -4.674705584187070079e-02
1.048035295014286827e-01 4.542242991024841858e-01 -1.021484626405622931e-01
-2.355123220181231103e-01 5.997387299112364456e-01 1.382619549570689443e-01
3.569544415862501707e-01 1.672686525074837671e-01 -5.380144544670070195e-01
-1.919494666260819771e-01 2.221421764507334196e-01 -4.089828736554609323e-01
2.039148640907906818e-01 7.595130635591992863e-02 -6.554347521006167465e-01
3.630134579858267929e-01 3.037172867390241504e-01 -3.422506760321947228e-01
-2.436206248030794441e-01 7.119051063377691835e-02 -6.214513692919831911e-01
5.755645622601919531e-02 6.600607210489577159e-02 -6.563898385895738929e-01
-4.811136549983757726e-01 4.245775166474899942e-01 -9.134409064186028993e-02
-2.404729927778569976e-01 2.963588190625627283e-01 -2.977757916309688446e-01
3.882987086577763813e-01 3.189792974129280201e-01 -3.225993513368798915e-01
4.683818047007067276e-01 -1.236404309298123373e-02 -8.066290840058243372e-01
4.414632264285728858e-01 3.147572362652307776e-01 -3.335245929775024765e-01
-1.029181492965944300e-01 2.941630492129642116e-01 -3.134854404095201996e-01
1.675102439608719060e-02 -6.757737777615317742e-02 -8.448610557816893518e-01
-2.607962530186468467e-02 3.381506536974639432e-01 -2.572086366723467243e-01
1.937063110773816488e-01 1.842699601045119095e-01 -4.986589671919876010e-01
-3.007168811571832648e-02 6.789566244933590289e-01 2.334930083130668244e-01
2.263346423389717976e-01 2.667113804769001839e-01 -3.830226916502229018e-01
-3.827795052886068250e-02 8.336507689887261430e-01 4.568092257833715197e-01
-6.914441392072909753e-01 4.653937064849831828e-01 -1.342896327721502907e-02
-2.863819809277703965e-01 1.529303805961731988e-01 -4.999459205067925960e-01
-2.349695961838834946e-01 6.781328311988128466e-01 2.510025986456161928e-01
3.995528663952997717e-02 1.833561713264826587e-01 -4.859454864440249655e-01
-1.533722039286478933e-01 -2.689219491019496922e-02 -7.708029149406641078e-01
-2.538678442469349261e-01 5.104166680999453476e-01 1.142385237742142394e-02
5.269829808761292700e-01 2.245188211852771898e-01 -4.711586585720575759e-01
1.201055362396318410e-01 4.661871692387754562e-01 -8.633293521208675048e-02
-6.504714885932149082e-01 4.637996730527161326e-01 -1.946072563432556246e-02
2.856227312585446487e-01 2.546436358276783496e-01 -4.057946883190116649e-01
4.881268103497916622e-01 6.286872196482601316e-02 -7.001888497944057654e-01
6.738446911280026042e-01 7.340070399788627131e-02 -7.019807227496812629e-01
4.257638445416660374e-03 4.995950265649609090e-01 -2.769717319048052573e-02
1.167553902481879291e-01 4.749933664854118498e-01 -7.335727964774900467e-02
-3.501003289018908005e-01 5.593480669375880954e-01 9.060453319473633915e-02
-9.344275834323932661e-02 7.390872989078636213e-01 3.257884729571314253e-01
9.972299545467201709e-02 3.114154556685160280e-01 -3.071523211540583831e-01
-2.321405931731041206e-01 4.827257498498361832e-01 -3.039907388026852689e-02
5.467537688851931187e-04 3.116152345816660674e-01 -2.978160741044138526e-01
-2.478966531021298547e-01 4.626733719033596648e-01 -5.781201991145488300e-02
2.235728241041054776e-01 5.686172924927938854e-02 -6.846936260650464678e-01
-2.438661460523041113e-01 7.874789014018853672e-01 4.091368806664662516e-01
8.690826955314226443e-02 1.218544614490807282e-01 -5.787155578551137491e-01
2.040035036859804696e-01 8.773648251443141866e-02 -6.384868198467205103e-01
-1.586886154848254904e-01 1.551198716316799231e-01 -5.084464803132036081e-01
3.673921120294313392e-01 4.830581273081016591e-01 -8.462206503924524226e-02
2.305836577949384181e-01 4.151078007891159105e-01 -1.699037931410110891e-01
-2.920292243142443844e-01 5.496342477439615237e-01 7.133030357267484967e-02
7.306745302532918762e-01 1.268596666768225245e-01 -6.302513370464434272e-01
-3.300835061790415859e-01 4.920402131009329882e-01 -8.061527901451299646e-03
1.788319535625721157e-01 6.567665419915996727e-01 1.825065317137932186e-01
1.913673499623946284e-01 1.111151600294161823e-01 -6.036976348904733447e-01
1.499224659401962867e-01 5.431874262474636339e-01 2.173133303943772243e-02
5.795391417624833341e-01 2.414309776190498857e-01 -4.516213634887096817e-01
1.075646392897296050e-01 -4.742746781920013227e-02 -8.241560157913956353e-01
-6.544562807761349355e-01 6.196985103134219353e-01 2.052035877167345257e-01
-5.598920508635563120e-01 5.282132166676293261e-01 6.495034977228790474e-02
1.291468705817225837e-01 -1.032605470730948855e-01 -9.064554774710416041e-01
-6.303257687262572850e-02 7.778074257526583768e-01 3.787227590809115196e-01
-5.628001629419099316e-01 6.263893003602698517e-01 2.064673378373120260e-01
-3.582184764143308553e-01 5.622649040689750022e-01 9.554185433574342856e-02
1.754442657141671094e-02 2.478566486320273321e-01 -3.911001302394228607e-01
-9.451755446404095165e-03 7.871001918944312559e-01 3.872041035893983851e-01
-1.140842979335279089e-01 7.006104918047034724e-02 -6.348952507545591040e-01
4.268021966105095544e-01 -8.893165771444548617e-03 -7.978416183382707194e-01
3.795885297581174656e-01 -2.098983720554409987e-02 -8.109380422474891104e-01
4.303287952706547070e-01 4.210292854905164361e-01 -1.796089003883858115e-01
-4.130833387516835709e-01 4.552137113408230573e-01 -5.347307971483192257e-02
4.188739549888777225e-02 1.163101201042273936e-01 -5.825848324577832527e-01
-4.332077073503362019e-01 2.810407919508202679e-01 -3.022296666127374243e-01
-4.176107574646590881e-01 5.185345999966761710e-01 3.804345320472036357e-02
4.953442600238221472e-01 2.323366817623536140e-01 -4.570239386440932416e-01
4.749436233676365693e-01 1.193179571872760719e-01 -6.177692151497121698e-01
-1.247984477124869651e-01 5.668959036256525641e-01 8.090756293553993950e-02
-5.660400867458370566e-01 3.414061278865348492e-01 -2.032589496894490755e-01
2.877419581112847236e-01 4.990644484510026735e-01 -5.432557954618396495e-02
4.139907442472362531e-01 3.492548875426473298e-01 -2.813842299256311130e-01
3.255155914023852848e-01 4.858610671250165880e-01 -7.676850976325703957e-02
2.633587371576185387e-01 4.162728159199411970e-01 -1.712180073647888712e-01
3.043060614946731524e-01 3.045765665800226341e-01 -3.356579330633857605e-01
-2.450440173390683318e-02 4.275065273905265251e-01 -1.287908570537183994e-01
2.949928810322781092e-01 4.984043994915068887e-02 -7.013119108288112802e-01
-3.093853324891943646e-01 6.309558925085492209e-01 1.899160594379548928e-01
-2.028617133078650103e-01 7.774316329975774487e-01 3.909400567597186571e-01
6.959107020022482770e-03 3.988836033361281563e-01 -1.728430478927407143e-01
-6.327863982227535100e-01 6.380016214411620146e-01 2.295601860615071876e-01
-4.071928338805985703e-01 5.277879367994010584e-01 5.040623955819101970e-02
-3.819531492902397130e-01 6.603103623559324342e-01 2.387711137955994822e-01
