-5.805396159412338219e-01 -5.871485458742578545e-02 1.435948854417625209e-01
3.258533886650397671e-01 -2.688929701132802275e-01 2.698146285897847774e-01
-8.740071073102516630e-01 1.414680480468041290e-01 -2.248227314777161492e-02
2.257925715355893481e-01 -1.782174990976139184e-01 1.919424532968475317e-01
1.347262721805669583e-01 -1.158610546958071669e-01 1.401818466086487414e-01
2.175606896791731082e-01 -2.359032735690943239e-01 2.472687158823106968e-01
-3.622867970738278265e-01 1.974495952616232841e-01 -1.167149595530173611e-01
-5.603883211066521541e-01 5.493616954827402754e-01 -4.342477458856361938e-01
-8.574380638271905664e-02 3.189183595359649792e-01 -2.540767784940298757e-01
-2.979886957222533939e-01 -1.818157123031418909e-01 2.375067277597747439e-01
-5.046684602348366910e-02 -3.226222858151396311e-01 3.510159073564309562e-01
6.324239952847506840e-01 -3.159428031453907493e-01 2.897264489561226508e-01
5.423527573262318935e-01 -5.893960173624745308e-02 5.343609354761982844e-02
-4.950448823599312709e-01 5.854790749097567026e-01 -4.737319402443651017e-01
-4.164838701608165605e-01 -1.996226010285208352e-01 2.639173928830321758e-01
4.095712868674447615e-01 5.655613366414221493e-02 -4.532267146455228046e-02
2.376187785292019905e-01 4.260785753785761160e-02 -1.826616292127962796e-02
8.266748633238616417e-01 -5.205848307563936024e-03 -2.036526744164913680e-02
7.825660059476408081e-01 4.695531802557420531e-02 -6.624389595474369785e-02
2.213508780000939258e-01 3.308851650128722954e-01 -2.901320302779344384e-01
-5.004791202705083375e-01 1.372455823909994772e-02 6.850703783534030367e-02
1.032491382841812383e-02 -1.877401879974988363e-01 2.183073738278674125e-01
6.616569441466049195e-01 -1.166796740960701767e-01 9.854954915680422256e-02
-1.363270558686550116e-01 4.708699031730580464e-01 -3.939969308649110546e-01
2.197733051927427961e-01 -4.716292530757588142e-01 4.704674841315091283e-01
3.256874233923788275e-01 2.700522657293940587e-01 -2.408831595045211049e-01
-3.539949592147921265e-01 5.403002288153865296e-01 -4.422717811132912402e-01
-5.022282021358052129e-01 3.504691623384437182e-01 -2.504555293680947869e-01
-2.540591236536507980e-01 3.425607864450251339e-01 -2.629344088864752349e-01
4.189460167037229593e-02 9.692798315673509246e-02 -5.398845968265950090e-02
2.441026876150225733e-01 -4.620050889982995623e-01 4.593894489378382295e-01
1.938785098811237131e-02 4.124309169323917001e-01 -3.511515555703968450e-01
3.036939371789828743e-02 3.815229827746134950e-01 -3.227466245047462268e-01
5.231071481122069322e-01 2.604128191386075389e-02 -2.554392834770079571e-02
-4.530811876712844688e-01 8.928561361844288002e-02 -6.910193295321396915e-03
-5.720048167644949111e-02 3.196548829528288449e-01 -2.570719191832922523e-01
-4.300608298773448412e-01 8.654535244412672745e-02 -6.166194874271335724e-03
3.994434584410175293e-01 -3.261772587095909670e-01 3.181753064897712702e-01
4.655669827673827310e-01 -1.086772214703808359e-01 1.067478887384169101e-01
-8.580291234321965055e-01 1.090902220849256504e-01 6.913425745612448471e-03
-3.285338908452751783e-01 1.255095530130110049e-01 -5.126016481175532657e-02
1.000000000000000000e+00 1.915547341928004396e-02 -5.739977710663542870e-02
4.324191333841596874e-02 -1.294900091140635534e-01 1.604595859114563705e-01
-4.293541777058372255e-01 1.471842063531324518e-01 -6.368519213680109980e-02
2.804364044562625558e-01 -2.390401054717767038e-01 2.451809012567214008e-01
-4.160633122079129831e-01 -2.109091116994192827e-01 2.745787824189079851e-01
-6.710334461411767704e-01 4.427435877526445518e-01 -3.243102571681257262e-01
-2.683857816130494900e-01 1.184645199953234668e-01 -4.942499884943368782e-02
3.044259908791144276e-01 1.013046286876061602e-01 -7.926467335762059363e-02
-3.134556531434459781e-01 7.657746169983763174e-02 -6.105027442652184722e-03
1.147234963390262180e-01 3.386366482443181058e-01 -2.888959279155015047e-01
-7.923780810875312719e-01 1.191952630642595518e-01 -7.945912550646850453e-03
5.217796548256536937e-01 -2.198192899632380459e-01 2.075434168164647653e-01
-4.675305684421239838e-01 6.346695052964141937e-01 -5.225597840616974521e-01
2.598662175393132504e-02 4.090954743676206706e-01 -3.485219263252551380e-01
2.092128216603478252e-01 2.686651974299788040e-02 -1.063330804264790534e-03
7.641523315011935491e-01 2.778027998205237405e-03 -2.289899640744466267e-02
-3.275841244261420426e-01 3.136995880980436580e-01 -2.296677988972111450e-01
-8.091154113408440818e-01 1.231307066763162733e-01 -1.032814639061794930e-02
-1.785805372541188485e-01 1.406794231328916678e-01 -7.770375172842201861e-02
2.157609398791179856e-01 3.570522244365283426e-01 -3.144783730368553298e-01
-2.038434606944083127e-01 3.370076822951690310e-01 -2.617136375561783246e-01
-8.386775872533544507e-02 -2.923367833289809425e-01 3.250051387960853910e-01
8.282379729479019126e-01 8.816005083878511450e-02 -1.089657447154550735e-01
-6.259669252247730409e-01 8.484456508465977598e-02 1.121225669396672814e-02
-2.861039128260572384e-01 5.220930380897211703e-02 1.478523734337195035e-02
-3.643507875993363121e-01 -1.003976629587317732e-01 1.656948842632505470e-01
-5.576672530772558423e-01 -9.191042905668177221e-02 1.732106247593503956e-01
-6.457346590138454134e-01 4.365640647615422476e-01 -3.204905426852474037e-01
-6.505586069878922517e-01 1.601338927599267950e-02 7.841669579784762978e-02
6.397506390655890440e-01 -3.315431204341023341e-01 3.039198444712991609e-01
-1.278959277301202346e-01 1.149162223889487085e-02 4.063703999319134147e-02
-5.382343163557855303e-02 2.538773891260747151e-01 -1.950121448254116818e-01
-8.559801096897599049e-01 -2.417134082664533501e-02 1.330288173603272062e-01
2.901750314260644337e-01 2.725716517700254582e-01 -2.404124795889129029e-01
-3.267548477020193465e-02 -1.349055992608753363e-01 1.717013918173424525e-01
6.040574368161655272e-01 -4.395375515771964836e-01 4.091293308937214435e-01
-1.785454303693897460e-01 -2.232494969542938024e-01 2.671569510338791531e-01
-8.393714496194275565e-01 -1.475673585929667200e-02 1.227707362317100870e-01
-3.534296413625427902e-01 1.812764492961843887e-01 -1.021019220171019981e-01
7.301327056884329147e-01 1.158215613400724181e-01 -1.272824997740904240e-01
-4.302728500391296840e-01 -1.340877244184955075e-01 2.029254905615923699e-01
-5.930359128716802264e-01 5.612212454146228158e-01 -4.428584830008240880e-01
4.731304293134487859e-01 2.210395701361634463e-02 -1.779068271104308763e-02
3.391726819807117793e-02 1.429596440748003294e-01 -9.696660301919206304e-02
2.218223292954016601e-01 -2.646592457102062146e-01 2.741752473314066907e-01
3.663352725115592845e-01 -4.726303533809230739e-01 4.596206509686356911e-01
3.682377100009668336e-01 -1.615167873132812293e-01 1.646524923858366518e-01
3.481862928941488466e-02 1.210335777379513700e-01 -7.626173508742783991e-02
-5.388098963622504900e-02 2.500391085671015423e-01 -1.913703105418821104e-01
6.771101209803748189e-01 1.053321293642507928e-01 -1.130752617016728134e-01
5.832655869423597483e-01 -3.876400871855738284e-02 3.102473798661890825e-02
5.716237438000839610e-01 -3.325268893082420907e-01 3.103350126493307215e-01
-7.672310619794041608e-01 2.108927034129034761e-01 -9.686339987592888778e-02
1.305381429031547517e-02 -2.923075766787348873e-02 6.788225956274947237e-02
3.324950533794339136e-01 -1.357462957491065714e-01 1.431086702421091039e-01
-1.426972369535656204e-01 -3.288242088892436299e-01 3.643157418417912186e-01
-1.479446164519526152e-01 -9.369362034899081371e-02 1.419254149611356985e-01
-1.586632055149829468e-01 1.127185707293648087e-01 -5.281067497644745951e-02
8.019566073870691356e-03 -7.525787608351665325e-02 1.119032865326640008e-01
6.748296533710620437e-01 5.878561775783637533e-02 -6.878367900975906890e-02
-5.740701547373867619e-01 5.759769146475149926e-01 -4.583675245917270824e-01
1.694734745394266828e-01 8.687743540950074173e-02 -5.473214207506883061e-02
3.593774637217521661e-01 2.792427318908378142e-01 -2.523035745194159296e-01
3.567459141104992182e-01 -3.805853517141570275e-01 3.731694368205189516e-01
1.523119376797614222e-01 2.868787575866900141e-01 -2.428746772650337282e-01
6.239468329517046108e-01 -4.236458352727881516e-01 3.924694215748658621e-01
1.799405251617046675e-01 -3.848670339126201156e-01 3.914563276924685198e-01
-3.129259857407217238e-01 2.439749222454580188e-02 4.329872619240191650e-02
-5.240733449969710023e-01 -1.347875703428003669e-01 2.111378528666448262e-01
-5.831658192368804894e-01 3.033580827858734508e-01 -1.992985305961569031e-01
3.172048448816203736e-01 -3.887463868600466443e-01 3.840852483550001861e-01
5.222377370654908146e-01 -1.327511675354710874e-01 1.249997243172413786e-01
-1.372790442321343285e-01 2.412386485567400429e-01 -1.763189077790635328e-01
5.405894337039655190e-02 3.686637458236943776e-01 -3.124676173612658814e-01
-1.451748937140718287e-01 -2.627333645037881471e-01 3.018866483520422639e-01
3.639875272804545259e-01 -2.266469286337769451e-01 2.267126766464005461e-01
-1.183901437294974240e-01 3.140222485628819116e-01 -2.468097458663364996e-01
1.709689248246636650e-01 -1.569771020047143473e-01 1.762270661329002341e-01
6.301362462879722681e-01 -4.158154320421103556e-01 3.845511033747225360e-01
2.048774697509571363e-01 -9.444231717109826524e-05 2.483412347390084873e-02
-4.144879197433894991e-01 1.067647595966997043e-01 -2.657968123254453308e-02
-9.020372251600976554e-01 -2.268276000479817547e-02 1.353249533717431619e-01
3.483047556906946896e-01 1.236320406356597595e-01 -1.039538211747162988e-01
1.609983739516766821e-01 2.261736689079228702e-01 -1.860488824778103456e-01
1.492555618602383616e-01 -3.961856336062020978e-02 6.676418734860339876e-02
-5.978160440612525495e-01 1.904245196466515244e-01 -9.110222665796857688e-02
3.977053780070927691e-01 6.187905945138507530e-02 -4.941175851753398796e-02
3.457052808055176563e-01 -2.539619511139848060e-02 3.747637996723270776e-02
7.146600272979236612e-01 -3.384799802501300969e-01 3.044644982097827746e-01
6.426899680803525028e-01 -1.640270404286099104e-01 1.449429824633363395e-01
5.367647731137658029e-01 -4.576095244350420477e-01 4.316703517035033744e-01
4.063296599540065501e-01 8.347995282272675788e-02 -7.057512405775551168e-02
-8.268798279358073877e-01 1.839086272623700058e-01 -6.649235052204040264e-02
3.052407818821185198e-02 -3.698869205298236928e-01 3.892862078923861602e-01
6.393652073645368361e-01 -2.991560916620608288e-02 1.812491882122616027e-02
7.754703378102136835e-01 2.365311352626539663e-03 -2.341878815588619919e-02
9.075489777862696394e-01 -8.369843751498169671e-02 4.750642848680491914e-02
-2.741639090375873611e-01 -2.529272847325001461e-01 3.029754816166282394e-01
-8.214587375913838807e-01 1.039636672109304702e-02 9.749370915759880685e-02
5.713580064601689879e-01 -2.133812425579257321e-01 1.974525168069855563e-01
1.696062498363961335e-01 2.700707801810770525e-01 -2.283390984066856477e-01
9.565331230989538858e-01 5.037792959629887844e-03 -4.052342123799114459e-02
7.932834067448403248e-01 -8.774993535089470331e-02 6.054191203418358980e-02
4.129420145524878571e-01 -1.927466541710849968e-01 1.906484413224957264e-01
-5.215086206170839178e-01 3.392628622757739021e-01 -2.382845894770727613e-01
-5.980976336522145775e-01 2.720225504187266663e-02 6.359186482596664025e-02
-8.223402662403234142e-01 1.027933224888892688e-01 1.000816207403286244e-02
6.573243378208202259e-01 -1.730904004052139233e-01 1.523537418846751257e-01
-1.587359447730876394e-01 1.873417743046717210e-01 -1.235186878823523599e-01
-4.783003789061056610e-01 1.867119565765817668e-01 -9.720292449767815868e-02
1.688935590194782788e-01 -5.482162516486552284e-02 7.959030574720368789e-02
1.616197879724781961e-01 -1.030076598639281249e-01 1.258373879481032853e-01
8.521807669348883951e-02 -3.830642720954277047e-01 3.973713880272404242e-01
2.557081515667160021e-01 -9.299859693047113351e-02 1.087803288940475815e-01
-5.560923286492320816e-01 -1.210815611636637153e-02 9.746225590958744467e-02
7.418913022027096016e-01 -1.089133569083559488e-01 8.473273107810179450e-02
-1.479065675613286113e-01 3.671244015427844731e-01 -2.947544819931353088e-01
1.470137546290449515e-01 -1.816957987521947981e-01 2.015787493841905975e-01
7.326994831547832820e-01 9.989967823792114676e-02 -1.124013046126702137e-01
-7.908960479848915481e-01 1.353889041542487015e-01 -2.341048220454024914e-02
2.055885028836648698e-01 2.082787637114695278e-01 -1.726801185006909822e-01
-5.596986479704620793e-02 1.737094976222634535e-01 -1.188713155918049713e-01
6.132233574309569057e-01 -2.881350274202212902e-01 2.649207491413685389e-01
-6.282862386272207444e-02 -2.253492053359580916e-01 2.598336290573018403e-01
-1.058884659568325309e-01 -2.854014077996301357e-01 3.202053452173033166e-01
-6.662767296972826880e-01 2.473192440619882693e-01 -1.395065679114865786e-01
7.118817772287331369e-01 1.005873869049220964e-01 -1.113775511335194229e-01
-1.743221326368858404e-01 3.463443868744658927e-01 -2.729371267851324889e-01
-3.226376564391404966e-01 2.175809770303285540e-01 -1.389827167398244301e-01
5.130466009981563547e-01 -4.681385065087600994e-01 4.435566126172362789e-01
6.134062861437257486e-02 1.684391981679433936e-02 2.033514509243770918e-02
-7.992628093135249398e-03 2.132269128392106916e-01 -1.601797723638137272e-01
-6.996418096527043384e-02 3.749882553030975951e-01 -3.084792662357939141e-01
-7.275065186080946766e-01 1.336867658476029452e-01 -2.689918259046444535e-02
-5.428681872292635546e-01 7.209314116763909652e-02 1.660777402541069661e-02
1.060602447431634593e-01 -3.014544467953080287e-01 3.183595087293994430e-01
-4.614924672018059226e-01 -1.612138402389801661e-01 2.311431254494674681e-01
-3.931483098846688118e-01 4.544298146982161946e-02 2.981215303526881660e-02
6.079387907775493094e-01 9.571178595652010679e-02 -9.839191168098607165e-02
3.354066415194492667e-01 -4.374594174221294041e-01 4.287814131765732562e-01
-8.643435523747892146e-01 1.114958524213921359e-01 5.142013841999127505e-03
-6.613576297197092391e-01 5.369364739606113240e-02 4.357953767696072511e-02
-5.648478886941314947e-01 4.466210261155842409e-01 -3.365305103410061172e-01
3.688185850385261588e-01 2.912092327060068486e-01 -2.644030112209234118e-01
-7.469212068418481509e-01 -7.322120785260091691e-02 1.707318804413462954e-01
2.256145677304106090e-01 2.582702236249703742e-01 -2.216643642323699315e-01
3.946393289712581964e-01 1.624618387897399097e-01 -1.444784799655145224e-01
-2.382846385567786718e-01 8.527169803473380605e-02 -2.039364900095781349e-02
-2.116337127404487040e-01 1.892210604533975105e-01 -1.210422448903941683e-01
1.828309791378563420e-01 -4.203931241883381298e-01 4.248886612062844348e-01
-5.714178292701611594e-01 5.831644874793322497e-01 -4.653920195860822839e-01
-1.915632575096245516e-01 2.481088724170422977e-01 -1.784603560190433091e-01
6.112101492971624417e-01 -3.298056596389820627e-01 3.045703790829847324e-01
6.488159055811387743e-02 1.244009659772400550e-01 -8.187221792157549360e-02
-1.483018001222498605e-01 -3.119610748695765892e-02 8.273074839887195608e-02
-1.887395616477989813e-01 4.064003762172017087e-01 -3.286865896708931478e-01
2.985551763000288683e-01 -2.881027430442976156e-01 2.902150399264440961e-01
-7.179174057007445819e-01 3.531144237763997884e-01 -2.356032781997218772e-01
6.011847849940810118e-01 1.377346737776344587e-01 -1.376697471668508754e-01
-1.130304187753042033e-01 3.737783161265489373e-01 -3.038666889567305796e-01
2.199823743090789652e-02 -2.796100348145140746e-01 3.044248889892144927e-01
5.124795067053401487e-01 1.697826569578157196e-01 -1.608997004985837087e-01
2.666326384521465753e-01 -2.911254475455034019e-01 2.956485572237645409e-01
-3.001161918853934574e-01 4.302715722323750824e-02 2.461407809522950588e-02
-8.600539285366682902e-04 -4.712883289092336531e-02 8.596250144387604375e-02
4.739430868971276634e-01 -1.711378411575907865e-01 1.652622222511259953e-01
4.885083934055626242e-01 -6.051090468275554385e-02 5.925854048824739928e-02
-2.781659478835551980e-01 1.850372231175534121e-01 -1.117229926300155884e-01
2.853476736094167632e-01 -2.980132968571897467e-01 3.006693589444734416e-01
4.786609505459791247e-01 -2.102954288780347070e-01 2.019887352954486404e-01
-3.146976359777870491e-01 1.707446465439890065e-02 5.038070193534752855e-02
-6.526020235492487054e-02 4.699323303528680218e-01 -3.988280234537392444e-01
4.074169050431900585e-01 -1.345166466540857753e-01 1.359136364543361564e-01
3.296982479743752470e-01 -1.803317312229273106e-02 3.178735539156340995e-02
2.160546522129648539e-01 -3.375943480872958813e-01 3.437536386652658149e-01
-4.366155331497758030e-01 4.498364836370734587e-01 -3.498978158534594152e-01
-5.424130954331394250e-01 2.420043815521868286e-02 6.195486307888936617e-02
3.363139104805864532e-01 -2.295537274631659630e-01 2.316944018874754208e-01
5.012485757707860756e-01 -5.896679547446411762e-01 5.596689346263838960e-01
4.279512848129713998e-01 2.247907729646313538e-02 -1.451007796327212149e-02
5.136487911113328808e-01 -6.403053544209957870e-02 6.057045569923015516e-02
2.499127994496698826e-02 2.609245279241808602e-01 -2.080332057002559909e-01
-5.697743130342839413e-01 -1.309542244887143374e-02 9.949894465083615469e-02
4.916669066169244151e-01 5.241220287142146078e-02 -4.800298846495636151e-02
5.810720206361269513e-01 -2.950956487006775042e-01 2.741042989149063969e-01
-5.217813685560588333e-01 1.814967410132624359e-01 -8.876151822996118657e-02
-3.992958153448770697e-01 5.189960355847551554e-01 -4.184377962929711203e-01
-4.804847332276903638e-01 4.110751497477611593e-01 -3.096364509237010676e-01
-8.525801665822101416e-01 9.921827261935781128e-02 1.582966790249311015e-02
-1.111099270795902066e-01 -3.471281199130633044e-01 3.791185677170907375e-01
-5.090011506462325253e-01 5.465039985016785229e-01 -4.356754599659771188e-01
-9.244920225470205921e-02 -2.835283514178562822e-02 7.554134243728405362e-02
4.032835153499908509e-01 -8.887489105445361970e-02 9.299560685819217853e-02
-4.758099157616486052e-01 5.259990112144620200e-01 -4.189159529724813535e-01
1.811377917932388282e-01 -4.538190562224798663e-01 4.566997560114980370e-01
-1.077990612238649143e-01 2.731755403741236710e-01 -2.089552853640876118e-01
4.468466127691849143e-01 -5.753118955379813437e-01 5.504432932313947369e-01
1.175397702236968683e-01 1.565501091873026107e-01 -1.165751374350792180e-01
-5.029839053498635915e-01 -1.407556114829570590e-02 9.505236165566444129e-02
7.096115314771313243e-02 -1.453933881930773442e-01 1.732989451979505269e-01
1.171649247573798708e-01 -2.555855142039351047e-01 2.739998247468350967e-01
-6.104364975932559112e-01 2.080545426047652469e-01 -1.067929439240012796e-01
-1.107207231212457427e-01 -1.904580009665020612e-01 2.306247092428364287e-01
-1.718177143424043096e-01 7.201212470283191447e-02 -1.317805410896351337e-02
3.309400986379225085e-01 1.363070080892399838e-01 -1.145672474405212138e-01
3.014950436807914413e-01 -1.295518858889143157e-02 2.924522340266517625e-02
-3.123849053929650954e-01 2.776474809011805212e-01 -1.967276298825773873e-01
-7.538801959354923810e-01 2.949427962299646655e-01 -1.775847974986696498e-01
6.777351321876957657e-01 -3.040646890519944634e-01 2.748239054444008289e-01
-3.212057650747346949e-01 2.552442805445131468e-01 -1.747881675399058921e-01
1.131941502385721936e-02 -4.006099692999198214e-01 4.199453624196228807e-01
-4.505376556756318651e-01 3.705014882641360363e-01 -2.735985272306351024e-01
8.725851364536152399e-01 6.803228975035389980e-02 -9.346154482916155248e-02
1.149404607430518366e-01 -3.396945392644636352e-01 3.538816007121943219e-01
6.837943786016246195e-01 -3.776531254748742295e-01 3.440695587588276094e-01
1.970411264467562817e-01 -3.010898240422544836e-01 3.106917339884553431e-01
6.087917128857003313e-01 2.072706306290103551e-02 -2.740410869456041260e-02
-3.948271544006620726e-01 -4.248509910261886319e-02 1.132690009226237082e-01
4.583451300016361252e-02 3.363652394706548865e-01 -2.811992425158270081e-01
7.829098660525221076e-01 -9.921829857509439909e-02 7.224434968048609740e-02
1.827546740476047316e-01 1.885067232993821729e-01 -1.521061946722201130e-01
-9.224082713369251285e-02 -5.319083766968977361e-02 9.906136934496140301e-02
1.398067786732441475e-01 -2.219144994068945886e-01 2.402705119372177400e-01
-4.604111230414263400e-01 4.017780009558241106e-01 -3.024419071296887696e-01
-3.546595507992758023e-01 3.847559718337800194e-01 -2.948226397711502522e-01
7.351058185994355787e-01 -2.023075842360984311e-01 1.737803555934863409e-01
3.888019797984886838e-01 2.567218460357780785e-01 -2.333306270257054227e-01
-5.696864476336296335e-01 4.393439808080474296e-01 -3.292452793563563906e-01
-1.492372315587318365e-01 -1.198725326118265239e-01 1.668369060007536542e-01
-3.027818831142302658e-01 2.503238973887740304e-01 -1.716083286184979240e-01
-3.598777970095195511e-01 1.637057432128838086e-01 -8.493274893445404428e-02
-4.806098830744555128e-01 -1.818121781681929505e-01 2.522009574796318931e-01
-2.033934290096044151e-01 -1.096363480063113419e-02 6.799205035656295804e-02
-1.831231051095158491e-01 -2.330546276570703290e-01 2.768168306019976876e-01
-4.362471836945646664e-01 -5.114093031226116248e-02 1.248049083296047246e-01
9.259029300783667288e-03 3.954290425117406582e-01 -3.342251898303300606e-01
-6.453351385404648699e-01 2.581414126642299633e-01 -1.514471933267890480e-01
6.767467177227352026e-01 -6.710081831946751452e-02 5.035357100662038454e-02
3.319268311431924356e-01 -6.933426729220179552e-02 8.022154512051479780e-02
4.167523716295113423e-01 1.589191030733099474e-01 -1.429010249393022347e-01
6.837799890524005608e-01 -8.874056662137073948e-02 7.029361673171492797e-02
-6.298030347398249351e-02 -8.020641432934871862e-02 1.223067395310876715e-01
-6.139844622910430871e-01 4.992840751964693902e-01 -3.824800923178958700e-01
4.126544307261731936e-01 -2.063102200221949012e-01 2.035245885250168418e-01
5.515210798754782706e-01 -7.216291380234249320e-02 6.522878904770541830e-02
-5.919721917956272117e-01 5.316404919644579508e-01 -4.149130061883301579e-01
-7.162497149166398014e-01 3.113155241517480132e-01 -1.961283437751668302e-01
3.703430079400836239e-01 -4.481926166850474513e-01 4.361406031103298719e-01
6.787710358869297744e-01 -1.100640574597070015e-01 9.090314608856883694e-02
-4.126665997648268358e-01 3.246934184492143438e-01 -2.332381452809957068e-01
2.540748994662022087e-01 3.435001123841412429e-01 -3.047197794849734187e-01
9.937947257513794763e-02 2.522789289646765187e-01 -2.058273832323021246e-01
-4.676827891813164495e-01 3.683583493391279218e-01 -2.701878008621153571e-01
-1.415059986639916334e-01 9.573898018732545853e-03 4.354965440847350516e-02
-2.482311072034187049e-01 -7.586532738654161445e-02 1.331022855462394849e-01
1.193640329197169919e-01 7.984970511213139444e-02 -4.403970851435200229e-02
6.978594422186975565e-01 -1.702104094309853100e-01 1.463623116905785337e-01
2.147492873477942765e-01 1.307499688267758919e-01 -9.995014857632798788e-02
8.226544185077492299e-01 -8.097105015630552682e-02 5.175434160705603276e-02
-2.859706714211578404e-01 2.293052947857340540e-01 -1.530438289270142638e-01
-6.484685092134716278e-02 -3.363765349923418801e-01 3.652069238810282115e-01
-6.856048319633079036e-01 3.989946094809809773e-01 -2.816804632512646123e-01
7.636493460169624381e-01 -3.976694294945118391e-02 1.745762310127445607e-02
1.325944469675351678e-01 1.247866268027819914e-01 -8.768728918567324226e-02
-7.112498639342432760e-01 -3.666067423602984571e-02 1.332157946335331966e-01
-3.322194868086508768e-01 5.125117071540922220e-01 -4.176915525515681460e-01
-5.698379918755460682e-01 2.892517009830308794e-01 -1.870037894188761873e-01
7.326614177781658188e-02 1.724493502188089167e-01 -1.280782578133275729e-01
-3.013344367447979844e-01 5.239046304042993540e-01 -4.309732939566623955e-01
-2.651318010175344186e-01 2.894123870240277591e-02 3.514648103580693406e-02
3.742610699122114193e-01 -1.458770932608847992e-02 2.493592050268333971e-02
-4.275209871380685200e-01 -5.341570332560750117e-02 1.262582161854026719e-01
2.814910011257079972e-02 2.055079048088626625e-01 -1.557738761814665418e-01
7.113102687894684584e-01 2.054193311345241940e-02 -3.547949727133539038e-02
-7.401454011873508376e-01 -4.757185701469159728e-02 1.458809143846286349e-01
4.333802852757185353e-01 -3.899330706721028661e-01 3.758598216262686864e-01
1.134881655037716375e-01 3.769494063351405688e-01 -3.251021485366999419e-01
3.404738275992177932e-01 -2.805836382493096526e-01 2.797161787594136806e-01
6.113285458548565199e-01 1.677666050382164431e-01 -1.669447576193185123e-01
5.126094211678812185e-01 1.991970234507116355e-01 -1.887835722428948260e-01
9.805509809993728787e-01 2.286240041744403654e-03 -3.984900266218337206e-02
2.933095424800641893e-01 -4.909176987659030766e-01 4.828271656974323367e-01
-4.432443601759099572e-01 4.141548934980254781e-01 -3.155520052612973414e-01
-5.501298267020483523e-01 5.004529670062536351e-01 -3.887268485350792724e-01
8.262585078858185605e-01 -1.127825891261216157e-01 8.160928628231130244e-02
-1.682479564776027670e-01 1.198270110409990763e-01 -5.877532799495164412e-02
-6.524649229683772145e-01 3.677616174789088421e-01 -2.547508360520607251e-01
2.895497962567989414e-01 -4.518556720034604957e-01 4.461140969204425155e-01
4.566362818929016743e-01 1.781931339534924552e-01 -1.643752404114268151e-01
-7.142137459280993861e-01 -6.691478885995441606e-02 1.621235032594334491e-01
3.212625019642660895e-01 -1.560065173786997009e-02 3.016118741720185195e-02
-1.614125879122948748e-01 1.517384948267675449e-01 -8.956516207794086581e-02
7.786895118416505834e-01 -2.994638901653342566e-01 2.623391985772877688e-01
-3.415571949064050150e-02 2.426255753633953793e-01 -1.859326692483518340e-01
-3.365118467140026381e-01 -1.539802056953441245e-01 2.142298495411732728e-01
7.684215200956127090e-01 4.102717679766869352e-02 -5.948795060271298840e-02
-7.248725112487523770e-02 7.248638892642071674e-02 -2.162171109078157849e-02
-2.330843448537369966e-01 -2.843772591357316415e-01 3.294717307566468745e-01
-4.743557103390484975e-01 -2.242362426721038193e-02 1.006590566211040122e-01
-4.382476315803622846e-01 -1.724638057890729992e-01 2.399329583220920492e-01
5.698473747237200460e-01 -2.456303439829116697e-01 2.281337401278240584e-01
-3.372405601988223145e-01 2.463409184002055552e-01 -1.650607317684562869e-01
-2.876400608382077562e-01 5.578901831834391922e-01 -4.642805627521362499e-01
-2.915672668397344403e-01 4.872862993464940340e-01 -3.970593862127930751e-01
-6.178278886480088605e-01 4.886641700797989540e-01 -3.721072156940414821e-01
4.975967929463792627e-01 -1.972582065335885537e-01 1.881105228021786591e-01
5.172573346131899008e-01 -4.705263622409196489e-01 4.454804890850203036e-01
-4.276451728453127821e-01 1.105303961274942265e-01 -2.908913282114304610e-02
-2.618435249495839057e-01 7.716101591771745705e-02 -1.081181843087985692e-02
-4.281098713975002301e-01 -1.039248717306019282e-01 1.741687205615702894e-01
6.143694199178717508e-01 -3.999424631212610270e-01 3.707786161329924557e-01
5.169227690907171602e-02 -2.840206999382592357e-01 3.062146766273238785e-01
-5.595709345384297650e-01 2.763041821008330734e-01 -1.755608664703215693e-01
1.766680543801772973e-01 -3.799511029479721858e-01 3.870613034373168726e-01
-2.936523308037511937e-01 5.672585416299407157e-01 -4.726742597199307117e-01
-7.460629424748097538e-01 -8.555922046749134258e-02 1.823544590208356353e-01
-3.821678954509696302e-01 1.585516611100378226e-01 -7.825474258391611204e-02
-2.757354368538321165e-01 -1.702981343268710479e-01 2.248015592168918775e-01
-2.661398739148477799e-01 -2.857698792816918409e-01 3.334517445687901760e-01
3.234250099897075792e-01 -5.083105101727583008e-01 4.968850780424500790e-01
-3.445457521930117561e-01 -3.558926706966246845e-03 7.233537104650258898e-02
5.587469859088887159e-01 -1.212371068706482452e-02 7.753350662294243752e-03
9.579647247669517696e-02 3.503374087985176577e-01 -2.984604425109352865e-01
9.388027621749943374e-02 3.387219968289235245e-02 1.580106278114484309e-03
-1.417317036433219379e-01 -2.348417320167126843e-01 2.751790815983264360e-01
-2.484637608087423774e-02 2.700892916402650723e-01 -2.127068525953186295e-01
7.573440525547499025e-01 -2.478401815032962308e-01 2.151378451818806714e-01
2.492845771906686617e-03 -1.701414264348650729e-01 2.022609050682245280e-01
-4.610649328727156604e-01 7.764493598420910137e-02 4.763197916116736555e-03
4.693244342866114693e-01 -4.598846228994283303e-01 4.392539448000707392e-01
-2.932803455461210906e-01 2.049471212311790580e-01 -1.293734319771820684e-01
4.449222357184346999e-01 -1.076489468723370035e-01 1.074349978015587959e-01
-2.937373070450264856e-01 -7.199448258869457773e-02 1.330966204947470477e-01
-6.606994103619087122e-01 2.822512127240838983e-02 6.766085249212676345e-02
-2.984468283157808433e-01 2.045207751266067131e-01 -1.285536162416727468e-01
-7.123619026116012609e-02 -1.042791534114465013e-01 1.457828076220248348e-01
8.598077197428096730e-01 -1.820915587725452367e-01 1.445872377860413227e-01
-4.525267847500206719e-01 1.481718252084222032e-01 -6.275611189643165444e-02
-1.276122805075042936e-02 -3.296366826908027070e-01 3.546282415479495298e-01
-5.315136316438497932e-01 2.890699706766954313e-01 -1.899159713867652477e-01
3.201175946062932431e-01 -2.835832581960229803e-01 2.841969503484741977e-01
2.016941637218294114e-01 -4.259690422560753476e-01 4.286543374686535568e-01
6.317689959502867936e-01 7.949642542768783904e-02 -8.494392061827871210e-02
-7.354190244671598986e-01 2.728152716332828739e-03 9.783562084133752557e-02
-4.327797274345107637e-02 1.861806879784291824e-01 -1.317106283638950215e-01
7.322292172894792062e-01 5.387593089229997939e-02 -6.875078704673739938e-02
4.912856432602507595e-01 9.980517312329779955e-02 -9.288246640192447667e-02
2.181388461089648900e-01 -3.145801001966060384e-01 3.217773153341206838e-01
-6.193033661269605750e-01 7.958350629835470036e-02 1.566140934887186656e-02
-4.404848277458440764e-01 4.897510570752638404e-01 -3.874099517752523925e-01
7.496963004330647884e-02 3.212327208810694668e-01 -2.692043116744656794e-01
-5.131488682865995576e-01 -8.654383720170694128e-02 1.645422816105457098e-01
-4.074958655487952996e-01 -1.643584796320825964e-02 8.960400314129743360e-02
-1.225597083323901916e-02 -9.759398187212430312e-03 5.146792220185842509e-02
-7.038094792488301943e-01 1.518721527014210704e-01 -4.603904620889843341e-02
-5.167741323725483227e-01 7.232475152727635415e-02 1.428821543213993316e-02
-9.601811617536962218e-02 2.273674803826375435e-01 -1.664951483777134811e-01
-4.520051206596441551e-01 4.750781078636411303e-01 -3.725785169322808899e-01
3.689467572054085931e-01 -4.939038079753064747e-01 4.795694631135233310e-01
4.606624529134872303e-01 -9.304493527631432781e-02 9.232926437433326694e-02
4.460409627611301442e-01 -3.114658862739064227e-01 3.004844040292095064e-01
4.168772465646946590e-01 -3.559247655822410372e-02 4.141049417514866549e-02
-7.703538400851737133e-01 -4.507661726910760364e-03 1.075039648597643643e-01
2.372357159440673935e-01 -2.149789523243171574e-02 4.251206752414853768e-02
-3.104398763317818832e-01 1.228366657835588127e-01 -5.018353257925937255e-02
6.236600099279639847e-02 -3.163476336797154675e-01 3.359890428050806288e-01
1.991252571716089353e-02 2.043595481308000394e-01 -1.540227895656430812e-01
6.880932837221127585e-01 -2.215175362581991159e-01 1.957675696635965690e-01
7.192102158920148369e-01 -2.586057130404824100e-01 2.284084537686743022e-01
-3.638171807659819068e-01 3.358123821331179815e-02 3.869188158176511960e-02
-6.041145610697379320e-01 -1.216413372911205604e-01 2.051221363946035270e-01
-7.787185429115093260e-01 6.201497772218594884e-02 4.513949378642241606e-02
-5.192456199428866492e-01 5.304824002859359622e-01 -4.196687085720602894e-01
7.577970600545584634e-02 -3.436341230882516973e-01 3.607665047864205277e-01
-5.598602175498710309e-01 5.581283415529513237e-01 -4.425976301316327799e-01
-5.273312508938716725e-01 -7.524587730324965029e-02 1.549776112907052805e-01
8.924741438319636067e-02 3.704497280650648205e-01 -3.169920477437875861e-01
9.119307149873728813e-01 4.375648152251836870e-02 -7.362407063454391720e-02
3.175184163723493991e-01 -3.244103897971873929e-01 3.230944283104728032e-01
-2.238395480172421237e-01 -4.301932481307404327e-02 1.000139460424903370e-01
3.026146779144494037e-01 8.232235303819926409e-02 -6.113105838980810447e-02
-3.703777936793740677e-01 -2.095233634599596162e-01 2.695888033586533172e-01
-4.332230039488935147e-01 4.523026998613509653e-01 -3.525078676710144965e-01
-5.934233638380066456e-01 4.299119552449584547e-01 -3.183969993989709812e-01
-2.371518533743922352e-01 4.604269770306821385e-01 -3.759865811677493008e-01
-4.405372388022528729e-01 1.929670599462673108e-01 -1.061695616684568688e-01
-3.424409675043252332e-01 -2.077199287728227484e-01 2.656314561564080967e-01
-1.207954619690021908e-01 4.740092987513157552e-01 -3.982218626513952531e-01
3.998309674307914258e-02 -3.262719999486040634e-01 3.471948983264003252e-01
4.494045092266176211e-01 2.054548038597770188e-01 -1.896267126770720957e-01
-7.415546594610135100e-01 1.875904165743636220e-01 -7.684833437517381294e-02
5.029081581188954431e-01 1.650194147545721579e-01 -1.556156795489701539e-01
2.976311105498083975e-01 -1.425299581684456585e-01 1.523428455027165673e-01
-2.337122232035905300e-01 3.617739898227793627e-01 -2.827786207883910552e-01
3.538895902066070409e-01 1.094793729152877398e-01 -9.099205326434479935e-02
6.804756233313543623e-01 -3.932696154488863338e-01 3.591350345733798077e-01
5.979240803587577702e-01 3.731756671192704156e-02 -4.225083385598642216e-02
6.597881211559080139e-01 1.467363499968666329e-01 -1.509163153251319167e-01
4.157994424122484767e-01 -4.546597472501444082e-01 4.386105457189981571e-01
2.571249170203365186e-01 -3.154635599149057668e-01 3.194768455094130211e-01
4.419623231711502370e-02 -2.674205932518846085e-01 2.910875019482141446e-01
6.148928017559965875e-01 -4.682595308269722478e-01 4.354745887270886628e-01
-1.604130191382342058e-02 4.310983837718930234e-01 -3.659896951437033863e-01
2.859948624163320685e-02 3.816324030191601269e-01 -3.227078681368494850e-01
8.711259625397291817e-01 -2.626199996254944755e-02 -3.989678091220437428e-03
-4.379961456064619951e-01 1.680069085121983219e-01 -8.272152498419634015e-02
-5.532289381079282808e-01 4.807973556617705091e-01 -3.698515287581669586e-01
1.810490213625275124e-01 -1.021493743632956586e-01 1.234603773339277011e-01
4.826520004789285334e-01 -3.355408946919518631e-01 3.203516770724976759e-01
-2.208668327295580658e-02 4.153846687441659080e-01 -3.506126454352272437e-01
-1.166786695946143010e-01 -2.609029461194327382e-02 7.534734861396780170e-02
1.522838001894610827e-01 3.668603994232817467e-01 -3.186640018876032432e-01
6.232510784361631195e-01 -3.766282534259439707e-01 3.479709769521049934e-01
1.514293363907844026e-01 -4.255206168526453059e-01 4.322747794164786828e-01
-3.747986315652034883e-01 4.298669097936196337e-01 -3.359495022464332181e-01
2.704735667068810523e-01 -2.274512973005448149e-02 4.101893901902263495e-02
4.624110775631645187e-01 -5.261883818376114075e-01 5.026405991068807477e-01
-6.559846635832927708e-01 4.512587298175763650e-01 -3.335904553004320761e-01
3.998779312027323507e-01 2.510713441448134686e-01 -2.288675480694360442e-01
4.441103502945054071e-01 -1.377531093523814976e-01 1.360274145867040596e-01
7.565654410488852344e-01 -9.123380186766653910e-02 6.679837409482471122e-02
-7.150922873026426263e-01 3.020893148363835157e-01 -1.874786253667218294e-01
-8.156855881216187321e-01 -6.092334068095678866e-03 1.126539749633816978e-01
2.596829005660027945e-01 -4.502282970504704052e-01 4.469757010192148550e-01
6.038663748661777797e-01 -2.567061787877266896e-02 1.695930266311753212e-02
-5.920727413576573062e-01 1.008899481746807075e-01 -6.720391777734710873e-03
-3.065638420471709230e-02 3.128989775021916997e-01 -2.528062416954133806e-01
-3.974416579327975929e-02 1.199329630840028221e-01 -6.921787324280109788e-02
-8.858102422481399785e-01 4.617874829626698180e-02 6.876497211897973638e-02
3.933319980757022938e-01 -1.181977913929925517e-01 1.215832588725330038e-01
-6.669171683790665363e-03 4.380464169889942694e-01 -3.733280176348720558e-01
4.485167104530078386e-01 -4.890757566680666302e-01 4.685904541016003289e-01
4.385282940721083045e-02 3.332746034555891801e-01 -2.781110294088231516e-01
9.202224631938967780e-01 5.153406470795052208e-02 -8.166153441598729412e-02
-7.345849489763142115e-01 -6.955900962122393838e-02 1.662686990104578488e-01
-4.970687600398082662e-01 5.623077669774059206e-01 -4.516116392063620477e-01
5.325871608802091872e-01 -1.641763049375507544e-01 1.539456372600362943e-01
4.596342776539297792e-01 -4.855008496162059872e-01 4.643080725976989065e-01
-5.500197577648293645e-01 -1.204102537923731897e-01 1.996019299231550082e-01
5.468371828068101514e-01 -3.832236100658077960e-01 3.603707028549820723e-01
1.582622024574929231e-01 -1.787971465251026737e-01 1.979266618490158336e-01
-4.901466577181490258e-01 -1.767734726065574857e-01 2.481937494155522228e-01
2.287494453355991830e-01 -2.630634515966117637e-01 2.721055503150434096e-01
-9.071567447334465406e-01 3.495011354046006352e-02 8.112335763279833467e-02
7.661653353832483804e-01 -2.820955951136552148e-02 6.303214238996645083e-03
4.095659531814350718e-01 -7.980555872275109375e-02 8.389577745228926631e-02
-3.130643782308382972e-02 4.238596127110050849e-01 -3.579015895145380988e-01
-1.591829626084291793e-01 4.528185692442039945e-01 -3.750517928417606006e-01
-4.497619440924324197e-01 5.220689766456076963e-01 -4.172881767290155808e-01
6.083362233404281394e-01 -4.328232648104910624e-02 3.328863578161755238e-02
1.850623729452559041e-01 3.647947443547819302e-01 -3.193446217157351885e-01
-3.126932006221447291e-01 -6.023352970517223404e-02 1.234773903767917569e-01
-9.113519507763330474e-02 2.355034136313019222e-01 -1.745978424779928984e-01
2.766696655255119763e-01 -2.856592381779461398e-01 2.896609175490523214e-01
1.314119386874859075e-01 -4.216604863841815765e-01 4.302278971187362688e-01
-6.671603904749476843e-01 4.564504965619637922e-01 -3.376108011258200370e-01
5.685588503097590563e-01 -3.776998210567912295e-01 3.533881057094276912e-01
8.894686700673679614e-01 4.984632385480567557e-02 -7.758710713672696546e-02
-1.070820120322821534e-01 -1.833656798133099786e-01 2.236110903795270055e-01
1.724465833702522599e-01 -1.936404802488324306e-01 2.108508112579028926e-01
6.436553941515044119e-01 -3.158636551576589624e-01 2.887475304954005284e-01
-4.637728862645769667e-01 -1.167908037327705650e-01 1.892308397157299316e-01
-4.194580771908618111e-01 3.008431921257627151e-01 -2.100907904955111039e-01
-7.946559882767042504e-01 4.684677829468544830e-02 6.079573172016547455e-02
1.957698208866529010e-01 -7.863162749695221110e-02 9.998992254228826482e-02
-1.444690260201880461e-01 -3.515757153787561762e-02 8.617621414447199091e-02
6.227768631890722162e-01 -2.157633010726350553e-01 1.955715317061336722e-01
5.720539482979246637e-01 -3.194480837286547414e-01 2.979067519644639783e-01
-5.617157787122969426e-01 5.290086520897536726e-01 -4.148541157933106072e-01
-5.151258282046734527e-01 2.056109319921868919e-02 6.320743822673907664e-02
5.849502712131267046e-01 9.548317868326679225e-02 -9.632513616527491052e-02
5.697178168087226879e-01 -2.693926338761329919e-01 2.506616057584184487e-01
6.989437026736811109e-01 -1.594641257690707359e-01 1.360917382798708108e-01
-1.835510518287604143e-01 -3.176442349538091126e-01 3.570094262843200306e-01
1.443965059343496060e-01 4.606493159096937406e-02 -1.403948524919196306e-02
-6.307605798305653266e-01 2.436726542800753958e-01 -1.389093981153925184e-01
-6.416916620331730714e-01 -1.225672454000082366e-02 1.044921812508247810e-01
-2.340533751502132942e-01 2.581338057654748996e-01 -1.845404492188754686e-01
5.641785413404490912e-01 -1.504418211245230064e-01 1.383881578753699548e-01
2.336659062664711295e-01 1.769115175186580791e-01 -1.452158336720996701e-01
-4.294207234475551083e-01 -5.964635651040758185e-02 1.323153530282596413e-01
7.584930704292742742e-01 -1.603479356729797800e-01 1.321366407680443222e-01
-6.770656243402027874e-01 2.823687346219348471e-01 -1.718515934029635206e-01
8.461393646458581497e-01 -1.904790586919838657e-01 1.536353821417593413e-01
6.644555949138440942e-01 4.671498078347811889e-02 -5.651047766755286361e-02
-2.244829207177293229e-01 2.600290433323553807e-01 -1.871066416791999643e-01
-8.603827367514695901e-01 -3.478027071494083772e-02 1.434362988859357313e-01
-3.318851145424617788e-01 2.250946795591785843e-01 -1.453585469740131253e-01
1.488522872011428244e-01 3.663487319299060796e-01 -3.179029670637479321e-01
-1.727476474738286472e-01 1.954760694875932181e-01 -1.300991670717011606e-01
1.915076897728455463e-01 2.840815501837589685e-01 -2.433785316072645810e-01
5.126538768869813856e-01 -4.666036595715654656e-01 4.421337796720491431e-01
3.106931808288191932e-01 -2.041976315183609628e-02 3.557846878251233469e-02
8.206930617085509416e-01 -7.527881522478080401e-02 4.651816207635180861e-02
-3.931282792616343502e-01 4.225952063222382371e-02 3.282722765531023712e-02
8.581880584841921067e-01 8.566709860945870281e-02 -1.090138123449398283e-01
2.796891966181187517e-01 -2.347096319644593476e-01 2.411374274202750800e-01
4.367477601033888379e-01 -5.527538846940840411e-01 5.298798123808582394e-01
-2.753246784422621607e-01 -7.329959348025165411e-02 1.328514885632985643e-01
-6.044499447877430542e-01 -6.157777061550032127e-02 1.482321527372404690e-01
2.233007198482712952e-01 -9.988599820107879612e-02 1.179151053199467003e-01
7.740862168233633156e-01 3.046360562621299242e-02 -4.993368220850710054e-02
-3.324118596537554149e-01 2.743591067296569652e-01 -1.919997319917385037e-01
9.155746755345661736e-02 1.641831962933333611e-01 -1.217172570058004805e-01
-7.901244063765773262e-01 1.908389459912472608e-01 -7.601772765262725107e-02
6.983178454979570571e-01 -2.120686347832479446e-01 1.859907888574542645e-01
-4.310736856009297902e-01 5.646832762126632876e-02 2.241668027052608897e-02
4.005664600044143708e-01 -3.405862310667930049e-02 4.126970799516940097e-02
-1.432341654333686431e-01 -1.090772003957306002e-01 1.561239820203700057e-01
9.065420981001280909e-01 3.113153603437788033e-02 -6.122683421067008636e-02
-4.393527738445589248e-02 -1.899740290922224406e-01 2.247911163741406204e-01
-8.487638725476823187e-02 -2.965041781842098767e-01 3.290353891721744528e-01
5.853334366974705105e-01 2.768297534214750680e-02 -3.210766582540342667e-02
1.238887514962290146e-02 2.517212245091823841e-01 -1.982977848984120162e-01
-9.909381049049727219e-02 -2.213624865456840785e-01 2.589744322262113596e-01
2.835433274411523485e-01 -3.581063973333473149e-01 3.577595372990584610e-01
-4.727811829842367558e-02 -2.159402345580150873e-01 2.496660485375275240e-01
-5.650943465005964228e-01 8.981126845883594112e-02 1.606647069625751238e-03
-6.613832617896994170e-01 2.258974972908042167e-01 -1.196008891004026325e-01
-6.773282184958765439e-01 -1.040494918118154283e-01 1.943442124646146130e-01
-2.524682908212141363e-01 4.738511430841437777e-01 -3.874748005003818552e-01
-6.674710309062713287e-02 -3.251919007055862343e-01 3.547611612799363434e-01
-1.021399809294257222e-01 3.378601892975842680e-01 -2.707067053576910909e-01
5.885265762475418994e-01 1.707251641584588142e-01 -1.679131940143023527e-01
5.640793480016671468e-01 -7.822009923123722508e-02 6.995794765421879668e-02
2.825191374232624009e-01 1.050884290420351676e-02 8.537622459875693001e-03
-6.290056856210083369e-01 5.015134931458471446e-01 -3.833837896267283107e-01
1.668741987343028976e-01 -2.497566942416074576e-01 2.644756993760748465e-01
-1.334127198661759495e-01 -2.456196540887823909e-01 2.847228512467261941e-01
-2.969397389315647229e-01 -2.053347756610445218e-01 2.597092606099256074e-01
2.047017814589421336e-01 2.615256156880045313e-01 -2.230661269890265586e-01
-5.669613057380228360e-01 4.210372270795103011e-01 -3.121168967730922339e-01
3.921810806475595212e-01 1.710792015696114832e-01 -1.524465562387233297e-01
-5.307280516427330674e-01 1.486996706665313361e-01 -5.696257021123102976e-02
-4.660195902580690497e-01 -1.836107263785738963e-01 2.527310391355259700e-01
4.083544681477572769e-01 -5.064164802967721091e-01 4.882550443107489535e-01
-1.782485519234445204e-01 -3.068069594094353092e-01 3.463131387239705705e-01
-3.354766137358800027e-02 3.318184393538620713e-01 -2.705018632726203243e-01
1.465583435637909659e-01 8.370291975799079576e-02 -4.987969389137277693e-02
-3.395315299734709136e-01 2.081991353111842247e-01 -1.287327281369988474e-01
8.232612793631947090e-01 -4.926872978219295346e-02 2.166399134299226703e-02
1.367292120550239187e-01 1.487373092115580886e-01 -1.107160219049551503e-01
-5.321439024590117750e-01 -1.379154795379625154e-01 2.147514265875300754e-01
-1.583322429080570928e-02 3.906528980410344243e-01 -3.276798009287597013e-01
8.609001135039827668e-01 -1.717574653521237171e-01 1.347066063477481423e-01
3.591101918175800822e-01 2.939303624750444488e-01 -2.662002438367969126e-01
2.543289843606389433e-01 -7.563399121324509977e-02 9.243641166798288733e-02
5.446859295350942043e-01 -5.603921943162974983e-01 5.284309714933328461e-01
-7.125894576193386731e-01 2.732863670830801839e-01 -1.603860280531122506e-01
6.856781815161138161e-01 1.499833794641394942e-02 -2.816341615363244719e-02
-2.059334493726298551e-02 3.549983168080584894e-01 -2.935099801061720748e-01
-1.290071512505484852e-01 -5.406504301784232497e-02 1.028487762771442271e-01
-1.416520829371464285e-01 7.521259531228666195e-02 -1.863862676008392477e-02
5.990607861381890276e-01 1.679616776883640084e-01 -1.661422864122069909e-01
1.620402875339723436e-01 3.131674577709855911e-01 -2.685691230428637888e-01
-1.014845501161599495e-01 -2.008895512039063080e-01 2.397664361516082532e-01
3.244834244853881944e-01 3.100348989480440909e-01 -2.786742960016680426e-01
9.805314280467512800e-03 2.809252218628673914e-01 -2.257639244086493135e-01
-7.994899096439026520e-01 -7.490792610745838909e-03 1.126757233003058967e-01
5.294504732789789836e-01 -2.141405378171038210e-01 2.015448043784826282e-01
1.329050882852204074e-01 -3.553605670972735942e-01 3.672811062766388468e-01
5.630725237054899912e-01 -9.312327846187276603e-02 8.416141436028647116e-02
2.237093951651262236e-01 -1.563905428883143878e-01 1.714266172962651824e-01
-5.427191388136014538e-01 4.732034366903418721e-01 -3.635012792128828329e-01
7.248629084633764763e-02 2.898605504521756249e-01 -2.392757942713494013e-01
-5.889527847065337829e-01 1.986205780699660806e-01 -9.958223865343057701e-02
-1.876901441887774413e-01 -2.924655032051354797e-01 3.334828691474652773e-01
-8.575644919664722199e-01 4.689036168005898848e-03 1.058078816084618151e-01
-3.732740715979266377e-01 -8.778304743081009887e-02 1.544592760965615708e-01
-4.270964909585642233e-01 -1.682226845132596127e-01 2.350165619815660356e-01
-1.740513843312435083e-01 -2.731802755715995179e-01 3.141102856134149746e-01
-2.947116492271288912e-01 6.779180202616623407e-02 7.118313162196019447e-04
-2.190596316329438131e-01 5.401646948252141617e-02 7.676938331792234650e-03
-4.047239000056406799e-01 7.549801637761917317e-02 2.263249474189764441e-03
-1.286247178575755379e-01 3.879359087480976354e-01 -3.160275496933522277e-01
-2.790552536357543412e-01 -1.106053864186903740e-01 1.685031588509635359e-01
-4.716555828061537170e-01 5.409394409800072356e-01 -4.334080341286721261e-01
-6.372280876399549765e-01 -1.024463364776046631e-01 1.895977346612475190e-01
-6.323399014404457175e-01 3.661943688615283410e-01 -2.548853785425911900e-01
-4.792094233540460935e-01 4.119986027647060678e-01 -3.106141648930577648e-01
2.227386250313501959e-01 -2.011919170782089372e-01 2.139590802021220650e-01
3.791587825819689450e-01 -4.748673590507973552e-01 4.607084131723681031e-01
-8.576807440855938047e-01 4.994295544928181729e-02 6.293406629221641457e-02
-3.354842581798948564e-01 -1.578154941789235710e-01 2.177815145638394012e-01
-5.048648930318103689e-01 2.011082661089945156e-01 -1.087070998642038905e-01
-8.893242961025778215e-02 -4.043641551800262329e-02 8.670885786321805289e-02
