1.751696409938527377e-01 3.834936551003992888e-01 4.510366939317092538e-02
3.494065908572166479e-01 1.985115143053862996e-02 1.112356412442620096e-01
4.683961348767214372e-01 -2.691261597244034021e-01 2.040613542828926263e-01
4.686126842668903447e-01 -2.407654732487718163e-01 1.703512217791452177e-01
3.874592475862295715e-01 -6.814219292471485057e-02 1.357359321465776980e-01
-2.029755974918284397e-02 7.694426006454273548e-01 -3.281318421972955358e-03
6.166263219891233716e-01 -5.671812620468952293e-01 2.470579408865317406e-01
3.506288605138507819e-01 -5.461396926529633877e-02 1.960426531859685018e-01
1.333834049169914382e-01 4.331109706997599562e-01 7.333376591418255819e-02
1.063904406784098866e-01 5.192715822957043592e-01 2.810917663415366669e-02
2.638229199220764043e-01 1.660491854021749480e-01 1.167753331018764468e-01
6.491274237898447819e-01 -6.671773393927444840e-01 2.971171858296250412e-01
5.259167360456155071e-01 -3.817246699242617947e-01 2.171554957692850563e-01
-6.389677542702895674e-02 9.000957927955760551e-01 -6.634290007270569889e-02
5.590683425134018725e-01 -5.177442084057896077e-01 3.081187537612036786e-01
3.480728407887233034e-01 -4.860991966138564907e-02 1.942873131439669665e-01
1.082162456226992281e-01 4.526986317129239046e-01 1.024117765027777599e-01
4.298872009244827930e-01 -1.637313835914180615e-01 1.600958207299073843e-01
2.034394194394038291e-01 3.024910163271760655e-01 8.163811193302333846e-02
7.524975847309973986e-02 5.248163697582529652e-01 8.601159821899816149e-02
2.441760656419354747e-01 1.872100781978399409e-01 1.325910524893801901e-01
1.494219708895384024e-01 4.541354631375838502e-01 1.550446621651841578e-02
3.977602389826279811e-02 5.979945830184894007e-01 7.355318058361508260e-02
4.031383902218175219e-01 -1.784947033043664810e-01 2.327328799223223332e-01
4.359982488729396977e-01 -2.445259600292299107e-01 2.422151808834583919e-01
9.762929067338452227e-02 4.908545083254488017e-01 7.955748260756867474e-02
2.863952532516919613e-01 1.076035991475131487e-01 1.386377098233400884e-01
4.777257244021912430e-01 -3.195512265518691275e-01 2.439058194821165926e-01
-1.065504138638473097e-01 9.793188277880745529e-01 -7.104130657066567989e-02
1.669079916268939590e-02 6.877361066981119153e-01 1.604675890679276018e-02
4.843158659410558980e-02 5.713717807023221962e-01 8.687566700034804468e-02
1.410912822523456567e-01 4.510059155478837734e-01 3.640451870173760235e-02
5.093256167576929450e-01 -3.996290564134304391e-01 2.724682388283530265e-01
1.154685102664847335e-01 5.230083347137383099e-01 4.951234324867670629e-03
1.230436320845471618e-03 7.136949167528707783e-01 1.757678784047790599e-02
4.654769639809505644e-01 -2.652626482765702010e-01 2.055675749020828558e-01
3.198463622883436219e-01 8.505589509063059273e-02 9.589836696104475644e-02
3.632865286175366859e-01 -5.606966593523305536e-02 1.715712041853298953e-01
6.454747908361150310e-01 -6.222975248157739392e-01 2.520352121828113301e-01
-5.837882709357521127e-02 8.491442911479768485e-01 -1.799773652553450509e-02
1.250102012772240090e-01 4.815237923162535849e-01 3.387131396513061443e-02
5.040054697465153888e-01 -3.921861655868419394e-01 2.747421823080581360e-01
5.264652506115574671e-01 -3.607591792998274260e-01 1.914320963014365107e-01
2.142209727365642635e-01 2.478300715600059156e-01 1.234475736101520171e-01
9.158441893403770906e-02 5.064795703860573983e-01 7.373401453977244946e-02
3.893035942019530404e-01 -7.972302258477129144e-02 1.455037773276153523e-01
3.822821548919986823e-01 -5.774408356340703097e-02 1.342480402401777517e-01
5.222231628960509742e-01 -4.333368001249205403e-01 2.853268381505587037e-01
5.852733587458249787e-01 -5.029693150262589674e-01 2.365928025566451098e-01
4.253645191521273489e-02 5.810062191478647664e-01 8.776849384712917534e-02
-1.918807319872174039e-02 7.473591818756832872e-01 2.032412382508941989e-02
2.668448411286982735e-01 1.893968108875238865e-01 8.314256666949852714e-02
8.862675395288453772e-02 4.844321065462920406e-01 1.057090169916223843e-01
-3.028857191357069434e-01 1.057864972943749204e-01 -2.069749004752515220e-01
2.871459941593686449e-01 -7.985078967162125840e-01 6.372807292006246738e-02
2.963463492017446854e-01 -3.392260703873487687e-02 7.711509758367977863e-02
8.152074885535605386e-02 1.211876756587454973e-01 -2.349534738771561632e-02
2.404069813358228336e-01 -3.066763620412351066e-01 4.723067688691028748e-02
9.583600912482308221e-02 -3.482830584178828737e-01 -2.219550481729661365e-02
3.164201537078356781e-03 -2.065401126785833819e-01 -6.471615512867268105e-02
-2.191591287867042104e-01 -1.784918806328867347e-01 -1.703974312059403085e-01
4.365621171150460000e-01 -5.674319701147175765e-01 1.376948429919923333e-01
1.226319883024224455e-01 2.092376607672112865e-01 -2.855648688190982193e-03
-4.566878414100766226e-01 5.657863684649298008e-01 -2.748983728474608812e-01
-1.765344242429953484e-02 -3.291107082840811771e-01 -7.608551154401185790e-02
5.561522251738040823e-02 1.478566200407238976e-02 -3.710046031819341783e-02
1.938135329632340031e-01 1.127871086528675348e-01 2.995084230802891323e-02
-2.796237135867211676e-01 6.275521244929889164e-01 -1.897410401557675097e-01
4.712349911677563563e-01 -6.164686593719973517e-01 1.536508517342395352e-01
1.804056238399635859e-01 -4.076788688080583423e-02 2.174998390246418375e-02
1.118376720067989355e-02 -1.600899578731486972e-01 -6.034538208842579049e-02
2.696401993346192461e-02 3.010115499635690126e-02 -5.058206253871661007e-02
2.786019754310276597e-01 9.427210735276651821e-02 7.016295548914318336e-02
3.428318285280987920e-01 -2.778935448469738723e-01 9.640918162605900676e-02
4.512907550529154377e-01 -3.506579006458249159e-01 1.472696258605696862e-01
-3.456617436602341109e-01 5.152938416672711019e-01 -2.225516498156022982e-01
-1.150088456011024302e-01 7.775504785776717886e-01 -1.094813529679874303e-01
-3.067739186459448875e-01 8.326668452161513079e-01 -2.002727772082100732e-01
6.524043995075963498e-02 -8.774635027387658881e-02 -3.371773489241966515e-02
-2.079035125339665779e-01 7.982159556615170404e-01 -1.535334802410821264e-01
-3.852209684123135414e-03 6.549789809101995708e-01 -5.792083060049579846e-02
4.810474406456016205e-01 -5.879123933570958860e-01 1.586659036192401007e-01
-1.561896853359300563e-01 9.255140849091256783e-01 -1.273761097499564732e-01
2.256149750523369080e-01 -6.059645781164992862e-01 3.665439897785266465e-02
-5.440826549166205561e-01 6.351613540072014175e-01 -3.157546178148022409e-01
5.065611732060859573e-02 -4.953582626974712966e-01 -4.547006661206143968e-02
-3.085162258994683104e-01 2.350553601198434456e-02 -2.106282543266590479e-01
-1.311953129299673615e-01 -2.295139174542609739e-01 -1.290538326602897468e-01
-1.177093691577039969e-02 -4.170791495584687536e-01 -7.431601163462132897e-02
2.106418636413513734e-01 -2.526179006754134537e-01 3.367396725264240609e-02
1.457937767828674236e-01 3.264264422901524271e-02 6.109980849539688695e-03
4.084203713827920246e-01 -4.606889328591204924e-01 1.255323663236220244e-01
2.325929005377468384e-01 -1.838112964224436763e-01 4.495090544370234503e-02
2.199738850857296535e-01 -6.946237247247368796e-01 3.292092069915139585e-02
1.043973249188697794e-03 4.441854323536711946e-01 -5.806742481444530229e-02
-3.194529631671872427e-01 5.928470424307117348e-01 -2.091415158999110901e-01
1.209293569002515417e-01 1.278239731198781148e-01 -4.625847337646790507e-03
4.212809465677498366e-01 -7.728780130470510601e-01 1.279899363747330210e-01
2.007055762761464912e-01 -3.418009102529253052e-01 2.788622426008459387e-02
1.170703006040600541e-01 -8.876638729675330186e-01 -1.841934510867396582e-02
-5.721985876115645020e-01 6.265417796694947583e-01 -3.292627259589801514e-01
-3.047164986245168850e-01 7.495587122798629265e-01 -2.002699990415284792e-01
-8.866995189425586066e-02 3.850516650326314960e-01 -1.015421862306327278e-01
-2.478900273810331623e-01 -7.532366827964107059e-02 -1.828829157553321094e-01
4.771926158520988781e-01 -5.214744693920033702e-01 1.576098348505768076e-01
5.740597225118017066e-01 -7.590253371940950400e-01 2.010031878532212157e-01
1.736805155233098752e-01 -3.115650021847382045e-01 1.535565163727997152e-02
-2.820196065870119173e-01 8.191428585253797134e-01 -1.886282588971096574e-01
-2.807661112573038298e-01 5.519079314775350298e-01 -1.911761869779943779e-01
-2.476365897074409572e-01 4.606082657749320797e-01 -1.764535819087047486e-01
-3.811404535164603091e-01 4.939193480883899423e-01 -2.397207230036733916e-01
-5.059236410101097814e-01 5.548978483222640756e-01 -2.985038700034330361e-01
-4.202798576315196211e-02 6.931731905229049362e-01 -7.567477132913548454e-02
-4.224728616467439690e-01 5.986577866237553502e-01 -2.581965587938656048e-01
3.518289803599308208e-01 -5.461929310622005707e-01 9.754116628967562930e-02
-1.592467270244138366e-02 2.836629322779219975e-01 -6.804818027745913878e-02
4.075885067109662474e-01 -1.987105987209235314e-01 1.282194667858941317e-01
-7.663780905456363257e-02 2.260338183668013923e-01 -9.767665378635792539e-02
-1.252466168621394122e-04 4.540141601323737230e-01 -5.850925465415787036e-02
2.969396249103245511e-01 -7.881531286341630915e-01 6.851990049423929696e-02
2.058267595742706846e-01 3.308229545014744200e-01 3.824567582492036100e-02
5.226395038282923844e-01 -3.887908254742808434e-01 1.808423057352656904e-01
-5.417461335680726631e-01 6.362871908507475860e-01 -3.146272315410788556e-01
3.046235066119932222e-01 -5.754895141605597120e-01 7.468711615915626933e-02
-3.548500182552254967e-01 4.424439346339339441e-01 -2.277904566132398501e-01
2.540062591382344359e-01 1.699056375805523544e-01 5.932515616614661424e-02
-5.024667496583113957e-01 7.032922525184380769e-01 -2.951087457757627375e-01
-3.269417501986296992e-01 1.600806119290447971e-01 -2.178065467672201660e-01
4.317425524545694948e-01 -3.876190473483957510e-01 1.375132966903409582e-01
5.079011195209727214e-01 -5.508486762670435910e-01 1.719069432594979852e-01
2.840839582755166348e-01 -7.940148558083173214e-01 6.232087642500726277e-02
-7.641375681258108510e-02 -3.215593450617531546e-01 -1.040155689795143751e-01
-2.810413204294208156e-01 4.478395982399714370e-01 -1.925324106191394768e-01
-6.537957316496230409e-02 5.398582202168973332e-01 -8.861429321692543271e-02
1.004587368162055717e-02 3.856866703483358139e-01 -5.446360048298727607e-02
1.542070921592803533e-02 -4.096022971783064848e-01 -6.126208625592195756e-02
-3.649495209214933533e-01 3.095798699750733629e-01 -2.341701985361971938e-01
1.147950188038883851e-01 -1.532753408325850664e-01 -1.085974776235708143e-02
-2.796687648910842761e-01 -1.349713040382882062e-02 -1.973083503009025463e-01
-1.699531184619403057e-02 7.671900539033075228e-01 -6.286707203478808514e-02
1.920809229626653236e-01 2.997012501150413954e-01 3.132485133880255623e-02
-1.276749150864651683e-01 8.001320236519281481e-01 -1.152551631609397553e-01
-3.230075778138482567e-01 2.103656155767596736e-01 -2.153386899481593009e-01
-5.992803703262587767e-02 -4.506628282157896237e-01 -9.767429369797697714e-02
5.294174129456293010e-02 5.829223803337995058e-01 -3.168769798008383431e-02
-5.559536550775060620e-02 -4.739885508901518496e-01 -9.588289489012341571e-02
-3.253552638374894723e-01 2.506474193600272682e-01 -2.159839881737522505e-01
3.481470832693736410e-03 1.787234719925184234e-01 -6.002991008168209741e-02
5.765183729676530699e-01 -4.623484338777525404e-01 2.056677583216764416e-01
-2.761317566663403777e-01 2.591312178514623699e-01 -1.924126585905913400e-01
-2.269986930805368841e-01 4.526148257238361006e-01 -1.667068120940503884e-01
6.385046136314429521e-01 -6.786177495516780844e-01 2.326792175121421280e-01
-4.195984046180412097e-01 2.705301307734228611e-01 -2.606883282764316800e-01
-3.062327160223978217e-01 5.316560875368699923e-01 -2.035579282938163592e-01
-7.257113095941298241e-04 -6.467686432190727919e-01 -7.175295544759961730e-02
-1.823961507742916932e-01 7.780976092859896998e-01 -1.416075044465524846e-01
-8.153980328378489240e-02 4.383421118726415489e-01 -9.751500044771954645e-02
5.158228082264640912e-01 -7.064403208898492048e-01 1.738527993969264107e-01
-8.207411620734417212e-02 -1.737831131635827198e-01 -1.049751409703875565e-01
5.935215355914649216e-01 -6.369467590203004015e-01 2.117202457658120540e-01
2.135198594417037909e-01 1.752099998341035691e-01 4.008228207689096267e-02
1.442313043811099538e-01 -4.038987425915905316e-01 2.263860086891651073e-04
-1.476153449513293789e-03 -4.104025361835278440e-01 -6.932851293073714893e-02
-1.477061205877590495e-02 1.008459760217791101e-01 -6.964983339421344788e-02
6.364301359736618258e-01 -6.286393986309437576e-01 2.322783330816480252e-01
-4.109193705163542709e-02 6.793576028180299195e-03 -8.330784544533247071e-02
4.406251030697788118e-01 -7.572830530547166594e-01 1.373974666985685877e-01
5.645076614232641052e-03 1.790550136261918335e-01 -5.899432561062075558e-02
2.328125733140056219e-01 -3.152003296987830883e-01 4.350906503567722461e-02
3.183879730198815872e-01 -6.224841539712823169e-01 8.069731193595472418e-02
-1.069440943560292373e-01 3.795107863044471230e-01 -1.103211497711446137e-01
-3.501802818419045837e-01 7.012716783830070799e-01 -2.225170887462740166e-01
2.405740548023569403e-01 -4.919535262641341195e-02 5.034116724286334665e-02
-5.518691202916811145e-01 6.602022307969664938e-01 -3.191727154979304704e-01
-2.020219372451222406e-01 -2.096170005827087679e-01 -1.625922026926243658e-01
1.399396928123817774e-01 -1.152133575554717265e-01 1.578130050786567080e-03
2.122546576221753523e-01 -9.333581211843419156e-01 2.642997026190604948e-02
3.762030737252125556e-02 -5.259224111677208713e-01 -5.204576286784340367e-02
8.971552945706655346e-02 -5.698719118637893960e-02 -2.168510003779249365e-02
-1.439270474952962786e-01 8.278994670252012300e-01 -1.226778883542302134e-01
3.819250079663744080e-02 -6.703671235592506550e-01 -5.347318842949546486e-02
2.628397447627602856e-01 9.322048703426499827e-02 6.263460146822506791e-02
-1.864265220428552583e-01 2.845756930036833499e-01 -1.493385997350901440e-01
-3.209396052018662071e-01 6.182845821986312496e-01 -2.095509713444835276e-01
6.636672758474235767e-01 -6.940083757683153109e-01 2.444964789424811380e-01
1.209077500174600833e-01 -3.658479888893443471e-02 -6.571415479062024147e-03
2.964981693524493256e-02 -7.830173451742354629e-03 -4.974787375271622764e-02
3.737493373360742943e-01 -2.601120821236082015e-01 1.113610230297049086e-01
3.006942525866817539e-01 -3.698149750372953411e-03 7.954410175622272927e-02
-4.046186004563901428e-01 6.089795626163282405e-01 -2.495615329080824729e-01
3.506332887076105131e-01 -9.651816165799352587e-02 1.022641671719420192e-01
1.827541299151203349e-02 2.491080145181545358e-01 -5.214714755853078199e-02
8.965564538716812304e-02 -3.987867220979089411e-01 -2.573699702090311014e-02
5.331457705922094670e-01 -4.618367800016378588e-01 1.849922279793932145e-01
-1.789150242879620212e-01 2.387304879272229563e-01 -1.462965050592880956e-01
2.737250272282508723e-01 -1.617943357133509730e-01 6.482328532394120157e-02
3.750928882328112279e-01 -2.081950686296595299e-01 1.126127926368307858e-01
3.868785967886959054e-01 -5.157292132064363877e-01 1.146126227175044837e-01
1.463219130145524682e-01 7.256435494326890501e-02 6.831735206866091335e-03
1.937977276737341270e-01 4.162840318579783677e-02 2.910569253275835377e-02
2.728368346522107024e-01 -7.786578845971680041e-01 5.713862768900054151e-02
5.213470862081023283e-01 -7.338215782652348640e-01 1.761646593353037027e-01
3.123140283276257811e-01 -7.596999123562994116e-01 7.618587088545386576e-02
2.852364776422356418e-01 5.439558590519490838e-02 7.285712615849734841e-02
6.471392472039319381e-03 6.399607056559128426e-02 -5.995467522644612468e-02
5.766460380211325676e-01 -6.708772735438552903e-01 2.032740283019756067e-01
2.723903150048487820e-01 -5.728105851843484642e-01 5.934875227216174221e-02
-1.757791608597150390e-01 7.433569698923288005e-01 -1.388612294774687062e-01
-7.224060837103881902e-03 4.252247913364471388e-01 -6.223309550168643067e-02
-7.959855437831576952e-02 -5.854909726777049461e-02 -1.024382813751022886e-01
-7.796176132519417462e-03 7.759038341347952450e-01 -5.837803636645330640e-02
-4.049336909447563970e-01 6.993017942090720140e-01 -2.486485906721497274e-01
4.909092075302206593e-01 -6.173065902901262447e-01 1.630223334693591819e-01
-5.416124330248079932e-01 5.736920377224532519e-01 -3.153002897042201935e-01
1.323321620186711789e-01 -1.239723769201162978e-01 -2.152505998124457087e-03
-2.220485876589488317e-01 4.406720906440444452e-01 -1.644870096942611104e-01
5.031837316190075349e-01 -6.987050724656459488e-01 1.679171037164782221e-01
-3.539272886452000666e-01 6.971568212740610893e-01 -2.243522270744418012e-01
3.162635589014424209e-01 -1.644486299205094593e-02 8.681804180174740315e-02
-9.321781721103854917e-03 6.108727666727505889e-01 -6.104808805070771616e-02
1.330903276514424916e-01 -6.728931332631330475e-01 -8.252364674634221631e-03
5.972836291469977299e-01 -5.938693037019217025e-01 2.140212089915133897e-01
1.566300151288398113e-01 -3.141978152940165248e-01 7.194393856627774239e-03
4.569124113634486228e-01 -7.375379959120468287e-01 1.453962373790333440e-01
3.517897681926978604e-01 -5.118848103555247997e-01 9.792631146336971959e-02
3.011431763877017165e-01 -7.703974807210579590e-01 7.073330161587727816e-02
-2.139263164025267117e-01 1.532799420470538909e-01 -1.639969402884131899e-01
-2.539520471168909554e-01 1.675330054358265541e-01 -1.829148158326963092e-01
1.860894788566268554e-01 -4.789606195240518893e-01 1.930224986548651281e-02
1.965590327604280763e-01 -7.369761197524817842e-01 2.125737885202402810e-02
9.622563120894271627e-02 -6.247032221758777037e-01 -2.526347741944200143e-02
-4.156684830719788865e-02 4.815794834802736291e-01 -7.794556693590062868e-02
-2.322601871032098364e-01 4.629154323085789002e-01 -1.690944249110910846e-01
6.554170610860125812e-02 1.886437328081668197e-01 -3.032067702412412358e-02
6.274510707716357549e-01 -7.221283210343535375e-01 2.268963414873141904e-01
2.200701499694471541e-01 -7.285385448185541790e-01 3.256760979327023853e-02
2.311916084677090033e-01 -5.018348039550865614e-02 4.585566185198600153e-02
5.547897062010238578e-01 -4.601173592289841685e-01 1.953330425369013967e-01
1.194120408914318421e-01 -5.183857263419722194e-01 -1.295592797664950509e-02
-2.366080565742002262e-01 3.792121641655138431e-01 -1.721529151107196454e-01
5.501092158516485142e-01 -5.012669405772754994e-01 1.926168491545214856e-01
2.980757902597537257e-01 -3.742832823292753797e-01 7.393334940177108405e-02
-4.725557751294021669e-01 6.191575363872359183e-01 -2.818365159183560120e-01
-2.558272331701215707e-01 7.187880335421527045e-01 -1.773201141779108814e-01
-2.387256753774132656e-01 9.209932874745551112e-01 -1.667853316397490959e-01
-3.350552925107147528e-01 6.174307864726412687e-01 -2.162918680855419606e-01
-9.024301732145080523e-02 -1.523771177918501474e-01 -1.086183836078416648e-01
-3.416456964185982104e-02 4.735136160258739957e-01 -7.451084890546111339e-02
-5.013728380778188498e-01 5.048532019227167655e-01 -2.969229686234843291e-01
1.164779875279553928e-01 2.208780545104707671e-01 -5.653068800848305014e-03
5.846930057255970148e-01 -6.539870593664799392e-01 2.073099157972081164e-01
-1.648510194117693561e-01 3.416426239947293886e-01 -1.383789176146031641e-01
7.474066252953211198e-02 -7.919251294231957616e-02 -2.908701331731913461e-02
-1.427437618598530744e-01 6.693858307840251376e-01 -1.239795301908328817e-01
-1.590339215369385439e-01 1.021749628033399998e-01 -1.384239124658410147e-01
-3.939985570195390641e-01 6.513341183497891596e-01 -2.439989718914128969e-01
2.051708450080205193e-01 2.663248524214660226e-02 3.435226939565007298e-02
1.880492734776422273e-02 6.704214781364100650e-01 -4.693535151927547000e-02
5.458031395825019283e-01 -4.764567206854208314e-01 1.908556059853024900e-01
-2.953625677005541350e-01 4.286301626581240365e-01 -1.995873907476813647e-01
-2.566014378886692926e-01 1.349020321797279043e-01 -1.845622378368702854e-01
-1.210305619016743967e-01 7.053931211806937496e-01 -1.132020834910450052e-01
5.779335038700239568e-01 -5.349422220554120866e-01 2.054880358439121202e-01
-1.795268933857949445e-01 1.612054124733529048e-01 -1.475008175329987625e-01
4.496123055288447912e-02 2.564898932650535590e-01 -3.933553663204852890e-02
-1.104177979726465308e-01 3.964717165809170107e-01 -1.117778833904251312e-01
3.977679803504431955e-01 -6.046633804345047380e-01 1.187582071899282721e-01
-1.622619456693409623e-01 1.621311619561931761e-01 -1.392573978167791771e-01
5.293460441810616812e-01 -4.590768203441937811e-01 1.832128749922248556e-01
2.570657119513785616e-01 -3.216042031040051707e-01 5.499841783857858241e-02
1.306006632596616035e-01 -6.076545042188252754e-01 -8.671594839809277158e-03
-2.341239532581918248e-01 2.093374050180430990e-01 -1.729680146422106768e-01
-5.090451456605927794e-01 5.580978583056268594e-01 -2.999546436002781813e-01
-1.777009822681004936e-01 3.290287556632900401e-01 -1.446547017724573170e-01
-1.227748472773437655e-01 5.853299579779347450e-01 -1.154470894206248710e-01
2.820078552475271394e-01 -8.253005400212932718e-01 6.096265326965322195e-02
-3.081768784803293193e-02 6.552554447322830322e-01 -7.077564655322067522e-02
-2.658061468861697696e-01 1.960582854298609790e-01 -1.882314868042221367e-01
-8.308892132359944893e-02 -2.107176448761527154e-01 -1.058937935825629978e-01
-2.307732050599601292e-01 4.181243950920044555e-02 -1.733422084391303408e-01
3.306254244553814559e-01 -7.465492701229835548e-01 8.507217322864586706e-02
-1.512105977391491607e-01 4.270767742542334600e-01 -1.308690436431263204e-01
-2.320850510454492213e-02 -2.642571313072357708e-01 -7.797096183138213510e-02
2.205746646370862762e-01 -6.929534427048396061e-01 3.322705410147730465e-02
5.030932952938564906e-01 -8.046694333270787425e-01 1.666266678912995680e-01
4.873115339356923759e-01 -6.333234917617112103e-01 1.611183027090771491e-01
-8.367198258482372308e-02 4.858005812534429424e-01 -9.797306068469253948e-02
1.096940691198918100e-01 4.572078290894091013e-02 -1.094966157388699464e-02
-2.466219945519088907e-01 4.661666071740890871e-01 -1.759043603773063347e-01
2.009482328472722568e-01 -5.150302761530605178e-01 2.596283832525808979e-02
1.499358669521529408e-01 -3.466742548821177272e-01 3.620111013432388090e-03
1.268765913161878367e-01 -6.230910240620203266e-01 -1.062906498730634142e-02
-5.046633153671533645e-01 7.036486312114280661e-01 -2.961519491269446469e-01
2.832131632979575375e-01 -8.365026304815681435e-01 6.140552526848101073e-02
-1.271057541661592127e-01 4.475071396742746899e-01 -1.191345356540358946e-01
-1.157314549716128710e-01 4.284277295020969545e-01 -1.139354622643411752e-01
1.219845563695097224e-01 -7.875188732419425852e-01 -1.489724580464652295e-02
-6.029891182796003751e-02 -4.442505842119894854e-01 -9.777566069680028449e-02
-2.253688317307508404e-01 3.440112127051507263e-01 -1.672080174331253000e-01
-2.443579097956601331e-01 5.045905086099300441e-01 -1.743724766782312197e-01
-1.169248031324616466e-01 7.333843603755858531e-01 -1.109148295649055177e-01
9.016612577045592103e-02 5.547240545441026738e-01 -1.426975145737740917e-02
1.061768863625650594e-01 -4.606264862486788569e-01 -1.858701885259712167e-02
1.999153389030434991e-01 -7.616491269360147198e-01 2.256735399920125132e-02
1.212872816640363366e-01 -2.141579242408549466e-01 -8.480665301683450868e-03
-3.386565837770413312e-01 6.604106229849497911e-01 -2.175031698363814048e-01
-7.519763557681882760e-02 2.899540449822944899e-01 -9.623752067838914348e-02
-2.569860909590768738e-01 8.645708275377250729e-01 -1.761566797872227974e-01
-3.496376643910467097e-01 6.206417739122089827e-01 -2.232074493301672291e-01
-1.963731558163506474e-01 3.006687312756193831e-01 -1.538920657590729379e-01
-4.217820020344659887e-02 4.769870858612734188e-01 -7.829113798995761264e-02
1.242284342812272485e-01 4.943974764695582280e-01 1.262224632561755738e-03
-2.148697021779452931e-01 -1.233597622817423495e-01 -1.677031212479956623e-01
-7.851944713458919312e-02 2.528470017602412190e-01 -9.825826419037929360e-02
2.982282225834686495e-01 -1.897475082643179378e-01 7.617821574041135080e-02
-4.328742571408500939e-01 4.914394941017622420e-01 -2.644183757535891188e-01
-3.741111272872496007e-01 5.137725873327924075e-01 -2.361352041290156190e-01
3.051603944701941074e-01 -5.781904619370672321e-02 8.103665205077564826e-02
4.393137122898541636e-01 -3.326396764021899433e-01 1.417706522629940402e-01
-1.583195686911093858e-01 -2.027903940623740006e-02 -1.395246975803013101e-01
2.299170117344250253e-01 2.358489201049913664e-01 4.861479421091948611e-02
-1.434436666864106480e-01 1.282437607836904025e-01 -1.306830837916787003e-01
4.083640754571479792e-02 3.955326842084115335e-01 -3.966571374379114501e-02
-9.542216868470966562e-02 1.254628477730784231e-01 -1.078175112219803555e-01
2.903677473906406403e-01 -6.562205247089354376e-01 6.693918894852611545e-02
5.204603481876332594e-03 2.853597901056059705e-02 -6.097612672146140306e-02
8.790926534381916790e-02 -1.722974392242629035e-02 -2.207840185006044315e-02
-1.371011821000020225e-01 5.763136252940850301e-01 -1.223845118611439492e-01
-3.984762271006030976e-01 3.609479850229190268e-01 -2.495522315478083120e-01
-2.024963479335261107e-01 5.110097261111137268e-01 -1.543358788886993183e-01
-1.963245403436306713e-01 -2.042762938464190436e-01 -1.598126215350776369e-01
1.467865838171461268e-01 -1.678856822352994549e-01 4.222954878373057566e-03
-4.158115366213495645e-01 6.993815830835681258e-01 -2.538345835474597467e-01
-4.807583207928097790e-01 7.004869767242586365e-01 -2.847904390755355841e-01
-6.237783936291826925e-02 1.947739059664692629e-01 -9.124497055723780614e-02
-1.120918604015086473e-01 2.755103631396753627e-01 -1.139999772460946886e-01
-3.131438999122400091e-01 2.924389604341677829e-01 -2.096692579303273130e-01
4.215440770600172304e-01 -6.872464261747728287e-01 1.291233804689916886e-01
2.117425024689326418e-01 -9.413208891136438661e-01 2.609202681164155338e-02
1.303237153588666097e-01 -3.967510497536378411e-01 -6.321096302409226139e-03
1.215851194661511647e-01 -5.524719806154387847e-01 -1.232096043193304721e-02
-2.009236130705267798e-01 1.090860072315580770e-01 -1.583170121632830607e-01
-5.619061568812867141e-02 1.251384085474892827e-01 -8.911437236396252404e-02
-7.072283874344061083e-02 2.440515089571254903e-01 -9.464410460585644114e-02
-9.334643232846390193e-02 4.553066479940531819e-01 -1.029451179298370989e-01
4.988409603166479855e-01 -4.258871192128800276e-01 1.690576765686964411e-01
1.287680958960189526e-01 -9.286451635878512079e-01 -1.332382593082609944e-02
-3.066971177574696061e-01 7.853345527480958266e-01 -2.007933070675418374e-01
-2.336895059496288118e-01 4.358051958866329123e-01 -1.700950896171468107e-01
9.043696116121147099e-02 3.427710821002658559e-01 -1.663551858770442871e-02
1.467448178835424888e-01 4.614261831392735824e-01 1.161070607356009567e-02
-1.455136543196515475e-01 -9.758010966334182412e-02 -1.343283112404593249e-01
-1.564829951109974193e-01 9.410633609404528421e-02 -1.373025190210030166e-01
1.616855822993902569e-01 -5.244082784352031013e-01 7.130663077714462228e-03
8.645192272300968039e-02 -1.508564114247840371e-01 -2.434624037474134375e-02
6.265015456380714776e-01 -7.329191822854753680e-01 2.263165552910878509e-01
2.843717210326756062e-01 2.488121030680397888e-02 7.209736494052428057e-02
-5.544836639976622461e-01 6.016041521643465950e-01 -3.211091815293206087e-01
-2.457729585208356243e-02 5.823203596374111335e-01 -6.865853550903135150e-02
4.838096541976252829e-02 5.154534137068509381e-01 -3.465661438873209044e-02
-5.367047291868455583e-02 2.730516182617359067e-01 -8.617158634392935168e-02
3.937906213771294461e-02 -4.914018784153500463e-01 -5.080078472121619254e-02
4.525721133765643611e-02 -3.611248527018797588e-02 -4.263864242906693913e-02
1.746896439988252225e-01 -3.285093313457654318e-01 1.563738622081593463e-02
-6.269846417582905507e-02 4.176524763931637740e-01 -8.877433889057644023e-02
1.623892768773174122e-01 -5.181738123148798003e-01 7.539595191969520639e-03
5.109391149112837427e-01 -6.719125215797648876e-01 1.719305146874463286e-01
-4.389336548883623346e-01 6.854465175351748263e-01 -2.650240376560729638e-01
3.676919176277593238e-02 -4.501885103043805625e-01 -5.156013599217925542e-02
-2.860349983952819586e-01 8.676491346192523324e-02 -1.991637996935635146e-01
-3.906068097356912849e-02 -3.800953056290494736e-01 -8.689336404190882435e-02
-1.165335171991010860e-01 2.940813872868769385e-01 -1.158993118250642579e-01
-1.242244446340880215e-01 6.761397818826893058e-01 -1.150693797194341644e-01
-1.381008074424957821e-01 4.930814981858213167e-03 -1.295869480596718581e-01
-2.745812127503282074e-01 5.983124884599094750e-01 -1.876807832637043538e-01
1.030586930539725415e-01 -6.682226715265754402e-01 -2.251750778350909699e-02
1.694071713777899058e-01 -1.831993213244461835e-02 1.676977853492757006e-02
-1.790509853217458480e-01 8.460577514647789066e-01 -1.392124513664627083e-01
-1.307790897539727881e-01 9.386987625708522742e-01 -1.151042635708453415e-01
2.299847205861262622e-01 -1.075117414033687074e-01 4.460536177522565759e-02
4.902289119244710447e-01 -6.958627007226324546e-01 1.617732565033396519e-01
-4.412013643746245384e-01 7.790419347406672967e-01 -2.650036426598471051e-01
-2.582909942400997694e-01 2.952048564517691931e-01 -1.834809427060628273e-01
-1.433091288445706157e-01 7.000440036541264455e-01 -1.238882375336734648e-01
2.198825347468559843e-01 -7.360491080970663624e-01 3.238974110498001047e-02
9.208216624643934811e-02 -3.462346773799864219e-01 -2.396135498657515558e-02
-3.220473194664724148e-01 2.211815431132320153e-01 -2.147534907286154926e-01
-3.981740618994799585e-01 4.194250038594060093e-01 -2.487198123602408772e-01
-1.241329639091197784e-01 6.128066528551632253e-01 -1.157712565057153475e-01
1.641268921266857139e-02 3.194395180831599568e-01 -5.220748228899381449e-02
-6.198038967040918334e-02 -1.446472644544758435e-01 -9.505079920575097707e-02
4.538686941506241967e-01 -3.852010799917492956e-01 1.480922663775886550e-01
1.708214999004544765e-01 -4.167240817921004092e-01 1.275454070703203185e-02
-5.689442692020004605e-02 6.898901341492817973e-01 -8.280224837260911908e-02
2.735407597738409580e-01 -1.075000656620499484e-01 6.537452126109052908e-02
-5.563526372444769219e-01 6.006462364870793769e-01 -3.220116481291630528e-01
-1.018155924275812307e-01 1.074842157261084313e-01 -1.110777437436970272e-01
2.687874368402395353e-01 -3.715536326028222591e-01 5.999978298848299835e-02
5.095374696314438623e-01 -5.629413868242036934e-01 1.725448674412853878e-01
-1.175179813561532394e-01 1.099845827324787695e-01 -1.185357525089987818e-01
-2.230476165065152505e-01 8.639808271449211929e-01 -1.599805893118326217e-01
5.686669607955424643e-01 -6.667600260577912774e-01 1.995177933843133855e-01
6.381438836241268286e-02 3.026397254971436301e-01 -2.980246824155845589e-02
-1.424542472600773824e-01 1.933173409396360953e-01 -1.294453095734934001e-01
1.747062447663070284e-01 -4.570018988199264776e-01 1.413280854128711947e-02
1.700722113842268075e-03 -6.359202202982104923e-01 -7.046825086765985680e-02
1.865978439280554790e-01 -6.441158298646601499e-02 2.442433673086017235e-02
-5.820829604507880145e-02 -4.991327530427337039e-02 -9.213701553237789443e-02
-4.775699202242233987e-01 4.577256610151456684e-01 -2.861276572845525834e-01
3.352347484644792042e-01 4.155649915488567742e-02 9.654689685322351278e-02
-3.289756882306596507e-04 -5.597639088864416745e-01 -7.053964042001298340e-02
2.379329691689211213e-01 -5.843951813272660889e-01 4.278193813637116288e-02
-1.569424792731287099e-01 8.684611752750336366e-01 -1.284066409919602803e-01
1.862528919647262193e-01 6.304437503568065260e-02 2.576014324272635214e-02
-2.304986693959541755e-01 7.786368222313205800e-01 -1.645380976249176952e-01
9.938785940002187180e-02 -1.702137548037628845e-01 -1.840579592911581464e-02
8.923192269024922407e-02 5.105862712939142067e-01 -1.523476013174791290e-02
2.363093020588636350e-01 -9.509267416890319069e-01 3.769325329380551065e-02
1.761996649156406247e-01 -2.644018624153384941e-02 1.991308979216540806e-02
1.114462303349878364e-01 4.093651339602752404e-01 -5.833691818352072095e-03
3.707797554393016948e-01 -6.179012225362805477e-01 1.057334671210037047e-01
-4.046312226643822285e-01 3.600921261936860240e-01 -2.524972201274314765e-01
2.328331940575824321e-01 -2.332187789624633190e-01 4.448390732781133672e-02
-4.055145261163506931e-01 2.181336552807814078e-01 -2.545894111169974550e-01
-1.242426868561060938e-01 6.307778021052460327e-01 -1.156120367471007437e-01
-1.148452449535577041e-01 -7.615125370542973060e-02 -1.194523153656852216e-01
4.732133658277539179e-01 -2.476833597535375298e-01 1.589352022691669364e-01
-2.392246326715352905e-03 2.007818684660079289e-01 -6.257105038052925006e-02
5.693911422032276182e-01 -5.066547416683667704e-01 2.017477166926119336e-01
1.501270956450252991e-01 -7.855525871594698506e-01 -1.454766968692393142e-03
1.960646490966391209e-01 -7.721767851346874600e-01 2.060729058311006751e-02
4.177612265011885206e-01 -6.769345222326605960e-01 1.274409688465566737e-01
-1.513359101953954677e-01 6.431656837535039140e-01 -1.283852018014253471e-01
-1.138726228907191024e-01 3.116799084659722663e-01 -1.144233524070362301e-01
-2.477077549829006034e-02 5.493016342653013195e-01 -6.913945861900279433e-02
1.145459493166146869e-01 3.676486671790308858e-01 -4.846685837029705846e-03
5.537350052596458072e-01 -6.495445328244161542e-01 1.926003664466744147e-01
4.327041483134340394e-02 -8.592440459263881933e-03 -4.326207549149362064e-02
4.503715817937134491e-01 -5.298898327639500749e-01 1.447215828259803272e-01
1.336591595029745227e-01 4.447213218233643794e-01 5.174378842117735230e-03
-4.524270991606668679e-01 4.826193739252714887e-01 -2.738456674971936899e-01
1.554289135655778364e-01 1.029141497661395233e-01 1.153151643957807219e-02
2.658594382610613982e-01 -8.661742433015336973e-01 5.278140423112600427e-02
-2.562769747260317255e-01 7.938779407991433112e-01 -1.766506787933224409e-01
5.001994089334397577e-03 7.412891459612830358e-01 -5.268287881373714954e-02
-1.701158329642434019e-01 8.561361524128565659e-01 -1.348332290390989729e-01
4.958799889631193558e-01 -7.372752690799925235e-01 1.639804152272432702e-01
-4.842795296044091202e-01 5.964785305826056927e-01 -2.876937623884828210e-01
-3.810398620729716912e-01 3.303001363297589088e-01 -2.415987288078998430e-01
3.082519801049301011e-01 -6.309242515326118905e-01 7.576477196967239258e-02
-3.648004896236702321e-01 6.817171533955441731e-01 -2.297186856271125621e-01
-1.374360593373527839e-01 -1.332436941465050539e-01 -1.308964334285908637e-01
3.039579579702399448e-01 -4.522312672388564270e-01 7.582063961309717937e-02
-2.082504274493564289e-02 -1.805180584443472902e-01 -7.584874724973945936e-02
-3.515542052772046011e-01 8.086910060898780950e-01 -2.219077836718134356e-01
1.246675392431846052e-01 2.483106055136377055e-01 -1.425097869512943370e-03
-1.961074260187126994e-01 -2.287918505721173446e-01 -1.599976679816774439e-01
5.674597029675008120e-01 -5.659967930519493873e-01 2.001282210912944670e-01
-2.356340578012185438e-01 -8.541650891311512034e-03 -1.762527516443131437e-01
9.169100389269452256e-02 4.382236547570887431e-01 -1.491396995812705947e-02
-1.326638213880762529e-01 2.477566101972891177e-01 -1.241360889643131210e-01
-2.507957188074902422e-01 -5.871753373024762857e-02 -1.840729778886378010e-01
2.686281758274384254e-03 -3.892773189741598472e-01 -6.709505406833062013e-02
-3.149941631427823907e-01 4.629862983369377183e-01 -2.085440046166053552e-01
-1.661896782976344522e-01 1.621122574764211066e-01 -1.411304987558153201e-01
1.805079579670543569e-02 -2.201799843283733238e-01 -5.777826916241197291e-02
-6.942288196357719599e-02 -5.041546316652927295e-01 -1.028314184424928418e-01
-2.866419726017003233e-01 5.140642940336672684e-01 -1.944234600295464410e-01
-1.542877562242051803e-01 6.435128378953982597e-01 -1.297886574470207832e-01
-2.074183428499644100e-01 -2.204372260854887966e-02 -1.629574590627030917e-01
3.494016777083531200e-01 -1.373953248922480386e-01 1.011957250901830002e-01
-1.393613488127736985e-02 2.719730262278566291e-01 -6.723757941036989649e-02
-2.578480277566164713e-01 2.043738815889845628e-01 -1.843388977028211917e-01
3.218461981066947364e-01 -9.057400402997825006e-01 7.901209141533301061e-02
-6.838906953830078961e-02 3.630101211296319352e-01 -9.213101418532214371e-02
-2.433524487359714217e-01 7.570938906239499389e-01 -1.709208061379098587e-01
-2.464891720335180350e-02 -2.176657839500738822e-01 -7.810937054609859431e-02
3.317438667992368417e-01 -5.403730730362673595e-01 8.803239714984979758e-02
2.243707159823292441e-01 -8.383042212285146677e-01 3.332620985374935146e-02
3.463685528442930761e-01 -5.500294816761591710e-01 9.489228581945879926e-02
1.185142227273195681e-01 -5.274796721511189057e-01 -1.349108401555534908e-02
3.375201414773974506e-01 -1.555763604299022496e-01 9.531618870585621683e-02
-3.650364271996079379e-01 2.725889641179854439e-01 -2.346470605556912337e-01
-5.221564194909567025e-01 6.447308914941177749e-01 -3.051867887848237482e-01
-4.588517282412712950e-01 6.663900395038697688e-01 -2.747459770635007348e-01
-4.596327420536256564e-02 -5.411549122287038216e-01 -9.208060062874751095e-02
1.615178350289269149e-01 1.847932209861955499e-01 1.539872756247485236e-02
4.974797226876667006e-02 2.905946710492252616e-01 -3.665160372594095800e-02
-5.685118603053142261e-02 4.105123123987581280e-01 -8.607020224203447423e-02
7.915150364208302369e-02 -4.376217969963320797e-01 -3.120286409867839214e-02
-2.161759203491516179e-01 8.159149737361997001e-01 -1.572697134900556126e-01
5.440881911865266263e-01 -4.705125524927027958e-01 1.901078285791522882e-01
-2.403936654295407149e-01 8.775969866270748598e-01 -1.680915072234301089e-01
-4.076791970555923572e-01 4.306120026177929772e-01 -2.531205058899058113e-01
-1.616844923334259665e-01 7.041110932679904844e-01 -1.326023707966025589e-01
5.413628542183241965e-01 -3.997759658388089221e-01 1.896409383788260350e-01
2.475006872621088316e-01 -6.816736575303039558e-01 4.619908557239653379e-02
1.604889187837509057e-01 1.180900211604829636e-01 1.412293755045218070e-02
-2.036035239172524075e-02 -1.790652522190099363e-02 -7.371305702691680062e-02
-2.926532330874871413e-01 6.098924761547475093e-01 -1.961618372863500048e-01
4.293627650644966237e-02 -6.911886083452049023e-01 -5.145628343419380440e-02
-1.668080238765012879e-01 -1.537223002901786928e-01 -1.451430542401156432e-01
1.145903190642446300e-02 4.008449089544079413e-01 -5.361132938146933452e-02
-4.462445763885742323e-01 4.847275027695384653e-01 -2.708728124517241209e-01
-2.114781837376407056e-02 6.879183016379413207e-01 -6.578024281191029166e-02
1.858832368374674360e-01 -2.422685393896586159e-01 2.199002282169562617e-02
1.152240206127738698e-01 -6.775728786842378781e-01 -1.682672176586263307e-02
1.089834342412247664e-01 1.198207618792196671e-01 -1.041628162924113261e-02
5.680434127457295590e-01 -5.512776865504462886e-01 2.005798135101733437e-01
5.342404831945909288e-02 5.030660154874798673e-01 -3.239771127563313702e-02
-3.806809950432584744e-01 3.810891401217252894e-01 -2.408297683054197447e-01
3.222060748984679340e-02 4.039596702044877530e-01 -4.367482988904104052e-02
-1.977749255272854001e-01 8.760598180955356251e-02 -1.570684519522177192e-01
-2.729919592382909835e-02 1.498376901042228204e-01 -7.504721006238054826e-02
6.812955439539677104e-03 1.621989801973638436e-03 -6.052601515933644233e-02
-1.617239764344235720e-01 7.603464075992958371e-01 -1.319592490166011933e-01
1.640539035431486103e-01 -9.112535791736545709e-01 3.706381773509053595e-03
-3.254202908200527766e-02 1.847719588176302830e-01 -7.713596046332375777e-02
5.392644428384448796e-01 -6.107325302474475581e-01 1.861571614327029445e-01
-2.904940780044026893e-01 4.110828410696783508e-01 -1.974724774556369800e-01
5.027395196325215587e-02 -1.313979958232432965e-01 -4.136809873119778880e-02
-2.022321982645238769e-01 6.634944205676915896e-01 -1.524150169913539021e-01
2.219278266805178590e-01 -4.211216010495231754e-01 3.707203689016753262e-02
6.931166728455177839e-02 -3.064055532880297639e-01 -3.435028347185310055e-02
-7.374777387494056702e-03 5.253175326351305907e-01 -6.112676486265997133e-02
1.866999403751200270e-01 -3.980447618491235462e-03 2.518435825420808905e-02
-2.292340655185066967e-01 6.362022731366533401e-01 -1.656116962468507370e-01
-2.211354716003607612e-01 1.382114499611728775e-01 -1.676118862813443799e-01
-2.761968068173615842e-01 3.229556378233496838e-01 -1.916923957805386491e-01
2.791163341758538530e-01 -3.888463072547732047e-02 6.884082376058281438e-02
-2.383535402053811036e-01 5.863683999931182944e-01 -1.705467737989796173e-01
1.960654122138007650e-03 6.003517534948480394e-01 -5.579207688629119616e-02
1.245733283524873697e-01 6.102652807032914531e-03 -4.321064795373705594e-03
3.239594405332230087e-01 5.867671616546697028e-02 9.137196413594159128e-02
1.212747913305328717e-01 3.021821576458952885e-01 -2.408751935989336158e-03
5.739794897312736621e-01 -5.523873560517070791e-01 2.033972778110997581e-01
4.547698459883782740e-01 -3.808469933551707487e-01 1.485732188686092747e-01
-6.561163900409539007e-02 1.234176261402895741e-01 -9.362689671076603048e-02
2.855862742104535723e-01 -7.099885571185335920e-01 6.402631094614520679e-02
-1.151085379201677028e-01 5.930891311279924416e-01 -1.117001949729986288e-01
-2.831285669545411943e-01 3.445094305330417273e-01 -1.947439871911061937e-01
-1.558039740081664237e-01 8.010248437103645314e-01 -1.286575593941937934e-01
-8.556157432282904263e-02 4.685000349942725628e-01 -9.907772894917281359e-02
-3.080289727945911271e-01 7.590409927413734881e-01 -2.017378845214213012e-01
3.254789776834133286e-01 -5.542524288644719022e-01 8.488170719161465538e-02
-1.961761647626918958e-01 5.876915187614180081e-01 -1.504195716746267730e-01
5.267228911900995181e-01 -5.024294840517136151e-01 1.814517584240911696e-01
8.835323026955561876e-02 1.169874679917086990e-01 -2.028682543649682965e-02
-1.038951749303464595e-01 -4.907276359395080362e-02 -1.139122017460872244e-01
2.210582364247352105e-01 -1.934399012558072339e-01 3.933744081147291100e-02
5.271402151940427494e-01 -4.880894271874309798e-01 1.818195505505677267e-01
-2.617658330748199869e-01 2.164316113688317944e-01 -1.860651101924460094e-01
1.487614916266050413e-01 3.366156264477250248e-01 1.110317334933479984e-02
9.228670596252226688e-02 -7.412992353413841995e-01 -2.851415132342859093e-02
-2.473927483476304479e-01 7.172930283196232715e-02 -1.809148268666732895e-01
2.240562476004076195e-02 2.340498586404828607e-01 -5.035497053635627773e-02
3.283108060758222480e-01 -1.762459941036663424e-01 9.068155642701175578e-02
6.882425247449638905e-02 3.442051338267215210e-01 -2.692432336299260820e-02
5.159453251248676819e-01 -6.849807828365299667e-01 1.741638211533165226e-01
3.180883692285442210e-01 -3.193192403943139190e-01 8.412302237384372550e-02
3.491960509301018228e-02 -3.646233200419169984e-01 -5.143488988215797614e-02
2.365199743802029186e-01 1.778904669838556885e-01 5.108108225620361376e-02
4.221110453395943152e-01 -4.569704209818376550e-01 1.321043227773406603e-01
-1.524909213820533904e-01 1.429992852185006103e-01 -1.348234387985050020e-01
-1.081518996343709682e-01 9.267762747617559471e-01 -1.044551790437163730e-01
3.081626291287596908e-01 -4.294671817652827017e-01 7.809352924766252424e-02
-1.863733255478754736e-01 -2.208768755214473578e-01 -1.552629454446174118e-01
-5.710980955754894894e-02 4.171741704509026594e-01 -8.611510574225338110e-02
2.681136101042150832e-01 -8.164098875406169409e-01 5.444205025986206814e-02
-2.888784925114979973e-01 8.299724601623088560e-01 -1.917713364470468029e-01
-1.640409387940689190e-01 5.183625980997015326e-01 -1.359124621190102022e-01
-1.456066637960844457e-01 4.311863008795971397e-01 -1.281485211411946823e-01
3.876860153513230628e-02 -1.677056890526414101e-01 -4.728162669115088673e-02
-1.019899724412635100e-01 5.986165416660212957e-01 -1.053797469262059555e-01
8.977191549872939880e-02 -2.157026480931495960e-01 -2.352646211850561650e-02
4.634738034871993539e-01 -7.600007847837422226e-01 1.482605246973210111e-01
4.362433031137914474e-01 -6.853217367637424173e-01 1.361551341660967029e-01
1.580900354204486657e-01 -1.264118901365063607e-01 1.010102096447673160e-02
5.795346481889119827e-01 -5.539850472038121421e-01 2.060273624859777497e-01
-1.197374350501805573e-01 6.358753012824439610e-01 -1.134037743072435211e-01
-1.077602326217915463e-01 7.865307328557612498e-01 -1.059192571456182008e-01
-1.345525167309781500e-01 5.683042858461387903e-01 -1.212634986924367719e-01
2.808830276243218238e-01 -8.785287234507495324e-02 6.910683611779118440e-02
-1.084595563655740419e-01 2.083081344097050813e-01 -1.130590107269214134e-01
-1.908727803390032063e-01 5.098423930888760537e-04 -1.548024847527220138e-01
-3.134441005613234354e-01 1.440226517657499095e-01 -2.115594209724863950e-01
-3.824065305580259810e-01 2.222212049935639588e-01 -2.435226068857321569e-01
-3.838379232150992415e-01 3.447172149684814557e-01 -2.427632366133502528e-01
3.652505981689641024e-01 -8.013509056978875833e-01 1.009375772846747288e-01
-5.165961143159218949e-01 4.852830829614170338e-01 -3.044123129061067634e-01
-7.259042954785785429e-02 7.437864396521456367e-01 -8.965222734278316397e-02
1.666344909561622576e-03 -5.443655589259950300e-01 -6.940694785128774524e-02
5.772395844392191194e-03 -3.542537327060292229e-01 -6.521122373494231406e-02
1.776688480605795595e-01 -3.086367578204222695e-01 1.729189471273747530e-02
1.393680033233350990e-01 -4.170499225338859112e-02 2.170800031485143125e-03
7.346735016949530739e-02 -6.248930221489050751e-01 -3.611764506462070839e-02
7.005063668861953585e-02 -2.797849548986275359e-01 -3.368456475290462077e-02
2.723291944841057521e-01 -2.535571065733002172e-01 6.307755919688654012e-02
-5.851528698561916236e-02 8.927784060427751411e-01 -8.118692069767281805e-02
3.853584311502042392e-01 -6.910271724049555919e-01 1.118243128083042937e-01
-2.649757464574006849e-01 6.263148729003448212e-01 -1.827709478739156235e-01
1.734530498806306775e-01 1.595010439423943105e-01 2.079213404675004859e-02
8.257190307348614977e-02 3.291003800513144784e-01 -2.054676823744356479e-02
4.062474134493340161e-01 -1.471633008392242425e-01 1.281867535013479498e-01
-2.872300815304573152e-01 9.407304298575271118e-02 -1.996476321411240207e-01
-2.456548889872313957e-01 -4.088669704999398080e-02 -1.814117650681917882e-01
-4.912835740827513620e-01 6.590477753332956157e-01 -2.902970261908583427e-01
-4.237612103584019463e-02 -1.768100142911012418e-02 -8.420828034708968679e-02
3.425869897464294822e-01 -5.746272753485037743e-01 9.279956401825023571e-02
-2.713680666776363548e-01 3.278697021318514038e-01 -1.893320421661817687e-01
-2.599974097366386516e-02 6.662399480966429977e-01 -6.834898404831339647e-02
-5.397719127105506942e-01 5.617177693691560725e-01 -3.145636159358661810e-01
1.429475285141053875e-01 -2.820080324611807729e-02 4.036599721968173703e-03
-6.289992247358278110e-02 5.054378429088441926e-01 -8.783707449278529977e-02
-3.286224694229035181e-01 3.677634391073633102e-01 -2.161633250146000607e-01
1.176105059029859401e-01 -1.576271726024128239e-01 -9.568452052146314904e-03
1.139452552971940008e-01 3.671301625101892063e-01 -5.139220816472259493e-03
-4.457843384945801013e-01 3.470857916892042261e-01 -2.722735437475010678e-01
1.799064534179110053e-01 -5.195647285368564239e-01 1.587601670576177515e-02
-2.254940238171476985e-01 4.002126675746857098e-01 -1.666061627389528177e-01
-2.974875508696585014e-01 5.288333936639899591e-01 -1.994211579585258853e-01
1.175754492536933010e-01 2.719699803156758883e-03 -7.697715894456742987e-03
1.058518374698956821e-01 2.725741999157720863e-01 -1.011146538235886856e-02
-8.044016268714742702e-04 2.864032528309737868e-01 -6.080605694735543437e-02
-5.051418784417768815e-02 -1.198777617005169771e-01 -8.929175536203896868e-02
3.434493524201567283e-01 -5.258771685517197887e-04 9.996854929730514261e-02
-1.272756648118930356e-01 -7.876285238561603341e-02 -1.254103096501677228e-01
