4.542348553457789540e-01 7.393343545238120762e-02 -6.951417017046905844e-01
5.290872775179186194e-01 3.715717324895453921e-01 -5.052674154902996317e-01
-6.468385128228081316e-01 -4.157962077816004798e-01 6.475301079122589565e-01
2.224712253219228442e-01 7.725753186975165519e-03 -3.733051484781422791e-01
-1.500063699544615381e-02 2.067572698378867535e-01 2.402934751358306587e-01
-7.659545974374129540e-02 -1.544156728878404161e-01 -3.959259919295548408e-02
-2.271258071210698407e-02 -1.093594003743854209e-01 -8.286720435631581005e-02
5.761775681437057983e-01 6.239473513230479051e-01 -3.165466573531817707e-01
-2.510004689699814329e-02 9.513446948239205614e-02 1.386675192514424115e-01
9.924230761350795460e-02 -1.741913621299971404e-01 -3.582257838421964435e-01
-6.615854594721424231e-01 -5.700985051790549152e-01 5.083772439344748095e-01
-6.698261565306358190e-01 -6.175675250483081413e-01 4.718376516274572774e-01
1.137882822942767533e-02 -6.379226242803900937e-02 -9.210197936385480788e-02
-1.438322899520612652e-01 -2.513090465209728147e-02 2.117074741909646396e-01
-3.226218879106152460e-01 -5.769405467263977183e-01 -7.258575394661344327e-02
-5.327781428729502222e-01 -4.006574959729975460e-01 4.705873610000071428e-01
-7.123136427628539158e-01 -9.172843175784349823e-01 2.249760219360658065e-01
-3.356017985524747393e-01 -2.700841262990682501e-01 2.757463428493667768e-01
-4.450892473878750311e-01 -5.668620787183840104e-01 1.454058712028972744e-01
1.516254055707226267e-01 -1.855172766841324816e-01 -4.589285830240134034e-01
-5.552311029478330662e-01 -5.622048372492982615e-01 3.367710730941593233e-01
-2.092038385336675854e-01 -4.556777699670473969e-01 -1.355707807921819330e-01
3.824791134289719924e-02 1.502723319264497315e-01 9.009604199242231271e-02
6.836142995740301931e-01 7.748352424468151201e-01 -3.379000277147493625e-01
-2.666812572157367667e-01 -3.187801584522826914e-01 1.073085811576286741e-01
-1.084379772282356852e-01 1.517239324440053938e-01 3.399015267623816672e-01
-5.678988868477524710e-01 -6.467479344678626063e-01 2.682932365028816157e-01
3.999196355080780751e-01 5.600261658244537477e-01 -8.622002906465452143e-02
6.454941274825908293e-01 9.129534919666241199e-01 -1.264840062517288977e-01
1.134622766814835093e-01 3.225064407818009071e-01 1.459813345916272098e-01
-6.627261921628689878e-01 -7.508290499036861521e-01 3.180879076896028224e-01
6.533319237286590031e-01 6.626990529451080025e-01 -4.059129268437208782e-01
6.033558178297541152e-01 3.342381842638300626e-01 -6.706716873351046271e-01
4.193602716748145998e-01 5.367484682463032897e-01 -1.438802540276729602e-01
3.318719045945950907e-01 6.379202770041009218e-01 1.117947931341391477e-01
-2.384304521392920095e-01 -4.081769742234886422e-01 -3.558505829867937564e-02
3.427203054190399723e-01 5.528327401778282413e-01 2.937446572837198924e-03
-5.649108094800422419e-01 -3.065381187778580263e-01 6.250737235714327600e-01
2.381388538368673369e-01 1.442031229888093569e-01 -2.546686102512270011e-01
-3.630317217310174982e-01 -3.149142202452529515e-01 2.744906463803751251e-01
8.693573693750342168e-02 1.268290457167214058e-01 -1.724031643260243163e-02
4.120111289442500713e-01 3.455545042747656947e-01 -3.347906391511533131e-01
-2.434052465152024558e-01 -7.345385730392663126e-02 3.288368571527552353e-01
3.914724954851764860e-01 4.977195876494159843e-01 -1.381910380146680606e-01
5.452049300903592105e-02 1.289736252982640052e-01 3.990245705589617886e-02
5.287189442304661424e-02 4.507551184288535046e-02 -4.653904355187677561e-02
-2.356395558646951494e-01 -3.314850233929282908e-01 4.125886203453134338e-02
-5.620022403517608289e-01 -3.728618453124711296e-01 5.496109794128024584e-01
4.274802164873593019e-02 -2.056675779512791291e-01 -2.960880768178378863e-01
2.068051686015148771e-02 -2.585595103652998938e-01 -3.149938582701662937e-01
-4.025836660834694047e-01 -2.621767159365842592e-01 3.975213089818486201e-01
-2.041422729059710062e-01 -4.270241420515500375e-01 -1.136621298116740619e-01
2.498942019632541534e-01 2.450581569918877933e-01 -1.672975792303911802e-01
-2.389855951047722415e-01 -1.107669684676970689e-01 2.816715357893765370e-01
-3.307558423330901332e-01 -2.676852860945766466e-01 2.700960426918698198e-01
-2.319017780902592474e-01 -5.263042188551728118e-02 3.315147993953173611e-01
-4.445514588245690901e-01 -4.828638631344434051e-01 2.338338513331839064e-01
-2.682227671802857594e-01 -2.786278671375631150e-02 4.193291873125690739e-01
4.058249153099506845e-01 2.650160122321024159e-01 -4.099791580581675920e-01
-3.834993379464477492e-01 -6.714525899619813720e-02 5.726516849619025518e-01
3.770087863483677637e-01 5.853338816640859532e-01 -2.052749837672252289e-02
-6.639791159692993716e-01 -6.070872532588328374e-01 4.730882317413309668e-01
-5.696202857055685520e-01 -6.540882246024766200e-01 2.633997250967756165e-01
7.012997331050341288e-01 3.648285702886918114e-01 -8.039038311587475283e-01
2.657813198530979415e-01 2.860049143560755014e-01 -1.506362293704806288e-01
5.285705437242413929e-01 3.246649081842735707e-01 -5.542816555086899077e-01
6.401229052016962351e-01 2.414849605954552392e-01 -8.315486693553533204e-01
4.191863898120684051e-01 6.934498215290187950e-01 2.307724778761833032e-02
-1.449167060515132999e-01 -4.583179612071237585e-01 -2.471829180570914997e-01
-7.009780855706179148e-01 -6.079346238891774057e-01 5.348066724609182865e-01
-5.652475734637665838e-02 -1.665309704305836525e-01 -8.644717395021941919e-02
-1.399893938452027031e-01 1.298094100052473443e-01 3.699937042236062790e-01
-5.417905541583236673e-01 -6.957617673331826236e-01 1.719758895170390434e-01
-6.873587955329835131e-01 -7.497816910831063275e-01 3.608918146887398204e-01
3.657317189857869355e-01 6.674626725771024560e-01 8.590851377479687134e-02
7.291313329885572569e-01 5.506043456526681368e-01 -6.534220444896844393e-01
-3.169130316308726991e-01 5.379343259768835928e-02 5.885833340132194946e-01
3.598039258839920707e-01 1.483655912942688782e-01 -4.561561224837301087e-01
-6.626492730541746479e-01 -5.514982057278214889e-01 5.299604799486742346e-01
5.346223034434876009e-01 2.750038313357641706e-01 -6.173422264640991974e-01
-3.693526970953160404e-01 -2.451749777372675132e-01 3.593614369350303095e-01
5.791794395081588664e-01 6.956430164351721235e-01 -2.453737170999868156e-01
3.162497580301489863e-01 -4.881188693176074372e-02 -5.921544547004329306e-01
-6.526376561771864981e-01 -7.636367922173978862e-01 2.873913943883744659e-01
5.230113604468403787e-01 1.402233057027736096e-01 -7.410398706356925436e-01
-1.344128795053515235e-01 1.602244999209708476e-01 3.929042615899487334e-01
2.553611327411041687e-01 5.625576180365746831e-02 -3.773551900399241266e-01
6.790905729983417460e-01 7.541545742198231261e-01 -3.522391369353076174e-01
-7.101484650431832968e-01 -3.296918479194151375e-01 8.462585700974901703e-01
-2.929276785907374697e-02 -2.608466689776605674e-01 -2.328480848860497165e-01
1.487927464724373705e-01 -1.938140020565548571e-01 -4.629585567573046845e-01
-4.214445918206655706e-01 -4.975001043662509725e-01 1.791594504641926267e-01
-4.111373171882115041e-01 -3.495782289649518315e-01 3.190402904677798190e-01
-3.275317011492464014e-01 -1.254997229522890334e-01 4.158638976039735202e-01
1.396512064860725155e-01 -9.776543889195295906e-03 -2.517496314877106789e-01
4.868240068994750813e-01 7.683694283958708571e-01 -1.171503784281053770e-02
-6.768643058271889279e-02 -9.065934616486893971e-02 1.313858815002271266e-02
6.587588716262967603e-01 8.822936037466271308e-01 -1.815432066331187089e-01
-4.344436866766471783e-01 -8.796273206129996691e-02 6.367326276135458762e-01
-3.832945323745513555e-01 -2.938004253617052530e-01 3.312409108769870381e-01
-6.314339762200924522e-01 -3.895861788342168119e-01 6.493346370864364614e-01
3.159130852424000269e-01 6.009418249459166361e-01 9.947537534162269324e-02
-2.157261763795906978e-02 2.721343983460577931e-01 3.209496614006031590e-01
-5.070015809791760669e-02 -1.961873514954776410e-01 -1.278468429880331436e-01
-4.243516321518679690e-02 6.348114838775724411e-02 1.343411056214443289e-01
-7.879322295354766748e-02 -2.495326320977915291e-01 -1.370367077253379640e-01
-5.011927644643986851e-02 1.434961075559733901e-01 2.324479345435349897e-01
2.470230936679130851e-01 -5.040730136180619075e-02 -4.766871759821099119e-01
-2.947269737840949380e-02 2.097015889069447914e-01 2.679185127534746691e-01
2.467098613794880269e-01 -1.085291858915747865e-01 -5.379738632862808290e-01
1.749947125232319822e-01 1.357932917226781222e-01 -1.567434496809657907e-01
9.632394115088320496e-02 3.495401304468929715e-01 2.037397516253827423e-01
4.595020887384826391e-01 7.132194078150168037e-01 -2.412951731643098868e-02
1.194870521043314843e-01 3.611084279279294096e-01 1.768405798608000956e-01
3.346493823670639856e-01 6.168989567192938450e-01 8.473629969858285926e-02
7.351022046411465061e-01 5.257653497650690566e-01 -6.899456380991775273e-01
6.842169625066479854e-01 6.353246334654277794e-01 -4.872996303300261567e-01
-4.794225278526881850e-01 -3.069925119997176099e-01 4.799040117548095119e-01
3.647616687629540722e-01 3.280137128194458018e-01 -2.734782003186838062e-01
5.343108315835034539e-01 5.956414335877293631e-01 -2.757938114343249647e-01
-7.322073790933664172e-01 -9.170857669338383644e-01 2.588567653873000696e-01
-5.953783314086293910e-01 -4.407478635953281376e-01 5.338973577833375783e-01
-6.127800622814690845e-01 -6.045205999361464855e-01 3.891651428264807366e-01
-6.401629298190676387e-01 -8.309703686043334869e-01 1.946641588892329966e-01
-4.911726244671953956e-01 -4.285409632642020461e-01 3.705151482233343119e-01
-3.041982465805573299e-01 -6.058116960994696099e-01 -1.344737848531408764e-01
-6.849439420527969613e-01 -3.224702684794520380e-01 8.112813190846923650e-01
2.640934680388338229e-01 3.859099901466421789e-01 -4.152332239858375074e-02
-2.264327264635280779e-01 -2.315479864278857935e-01 1.319668307401150598e-01
-3.775392306171577173e-01 -5.060187011394122747e-01 9.579075962364208552e-02
-4.770118256145515767e-01 -2.464308386854179578e-01 5.402356837971452608e-01
4.964727565574847956e-01 6.165231068312604368e-01 -1.895448009615097185e-01
-4.264008533008280255e-02 7.689605308912558779e-02 1.489556508006963376e-01
-5.913752858798767553e-01 -8.193857414223457702e-01 1.244135776836193530e-01
-5.898417669842530575e-01 -1.962563425972489450e-01 7.845612819661773596e-01
-4.096848504047274631e-01 -1.383433025659581150e-01 5.412456398546151570e-01
6.184955379132139885e-01 2.866269120185381269e-01 -7.469332517439414287e-01
-6.782022110969099238e-01 -7.285907147759558278e-01 3.679326961584864497e-01
-1.180259523685950745e-01 -4.280687158166445738e-01 -2.605224788802635305e-01
-5.291384715793703286e-01 -2.654996099326162318e-01 6.081775008903106405e-01
1.275937998611723252e-02 3.093788642569745839e-01 3.024559339689678605e-01
-7.018008966379449820e-01 -8.433937842618043357e-01 2.857714259012033575e-01
5.045431089732673735e-01 4.966957773739363313e-01 -3.306486609586673509e-01
-6.431499914382746708e-01 -6.938434978225950234e-01 3.455640091604498809e-01
3.375255642314274884e-01 4.474856539462032656e-01 -1.003148431191500101e-01
-6.511373155352457864e-01 -6.634536664234674808e-01 3.914041045676956987e-01
2.724628254065750155e-01 7.683593381776128786e-03 -4.579593185299990488e-01
-2.726230880078875374e-01 9.844938734495976840e-02 5.611187263244149515e-01
-4.887461097031127188e-01 -7.283779157148629890e-01 4.751007858947312035e-02
7.208964159158537388e-01 3.855707442229829862e-01 -8.150098464812781662e-01
4.111762875774744308e-01 5.167277222125220559e-01 -1.513226088486553100e-01
-4.527652683891968954e-01 -3.231856381712296389e-01 4.175648152186062223e-01
5.353698948504217459e-01 6.336512077244044194e-01 -2.371601040045268893e-01
3.421520802367644665e-01 4.766320938000462859e-01 -7.714574219324162041e-02
-4.775895096542304152e-01 -2.087189341780875673e-01 5.813227325948733260e-01
2.912301702846182283e-01 6.192643356610216115e-02 -4.320313243290131444e-01
6.219632742021643512e-01 8.168570575228529806e-01 -1.888642226060403273e-01
2.398584378350767654e-01 5.154228678256094209e-01 1.372400652729020287e-01
-4.545844485210032704e-01 -4.616553855106552695e-01 2.733711431595388097e-01
4.250409270299473213e-02 2.209335828411007618e-01 1.580459247950705137e-01
1.340582045820626692e-02 1.609857357345119422e-01 1.435350377940407818e-01
6.939398665444878045e-01 3.067631944492491547e-01 -8.532041937044659852e-01
6.412939322212103388e-01 8.113605960449800092e-01 -2.274266833585583958e-01
9.342740759804206430e-02 3.295676240680876501e-01 1.873998468052103794e-01
2.588530166997365933e-02 3.257877290308440199e-01 2.976927063708359467e-01
2.629844322394487843e-01 1.244328176663966196e-01 -3.177461777507762375e-01
7.258892276390225273e-01 8.495368481209976119e-01 -3.299985594045435344e-01
4.150542567393580295e-01 7.048347827780110375e-01 4.217949182489658805e-02
1.417164823351803882e-01 -5.007540221481077830e-02 -2.981057984919983639e-01
-3.928793234954745528e-01 -3.849854700150517339e-01 2.504810076027462751e-01
-5.355489880492464438e-01 -7.249664617403762668e-01 1.303509175849769386e-01
-5.381976849660672357e-01 -2.004197156464360974e-01 6.927271262069615299e-01
-8.675030686383186640e-02 -2.096408132660171342e-01 -8.114174274560476130e-02
4.562628506785804672e-01 5.065399823778282684e-01 -2.384657038186657751e-01
-5.250989735402837588e-02 -2.091967017288375585e-01 -1.386202958759632231e-01
6.642920841473682891e-01 6.977543956376528467e-01 -3.871787898671651962e-01
1.768504364659495842e-01 -1.550792046082180020e-01 -4.692481256222661989e-01
4.986745813563393526e-01 3.577785214409780479e-01 -4.684648878246781556e-01
4.885908043397349521e-02 -9.881134531752923389e-02 -1.927815417820851474e-01
2.656258260943104577e-01 4.359773113128020960e-01 9.133419853716353079e-03
-4.973997904521832991e-01 -6.584121682209111981e-01 1.365698096227231373e-01
-2.454331890516392722e-01 -4.139591392278992033e-02 3.663650301121512132e-01
-3.674263955779363267e-01 -6.379948551739476059e-01 -6.169109560784075824e-02
-5.276364756727764949e-01 -3.276172510490034662e-01 5.395688167818115666e-01
-4.489855406995778009e-01 -5.831168989161320537e-01 1.347120585932804204e-01
6.557359221913375835e-01 7.666324400823258944e-01 -2.994409573424802185e-01
-5.444644975804389109e-01 -4.055119670273678034e-01 4.852030959281359301e-01
9.375127529860255438e-02 -8.778193393869008695e-03 -1.730035142236577284e-01
-3.543838144631236142e-01 -4.393950926472535157e-01 1.274599124159345453e-01
-1.524415394250094036e-01 -2.559791843324029093e-01 -1.924544691354466291e-02
-7.864235004325961786e-02 2.631755782123676446e-01 4.080101721281474414e-01
2.797656990032826863e-01 2.710080741062049214e-01 -1.902546078187399570e-01
4.338352013633127724e-01 1.299271365762442176e-01 -6.010625332681961419e-01
3.399991851784122665e-01 2.341634611909832742e-01 -3.313849404586126091e-01
-3.359643005208027833e-01 -4.020898933257125440e-01 1.359621954629241791e-01
3.462730131930241012e-02 -1.490856136686403988e-01 -2.221649863062395147e-01
-1.028578390978783161e-02 -9.818589684849783616e-02 -9.201536838677203123e-02
2.066517604641780748e-01 -5.541430594470262566e-02 -4.136851791556143132e-01
-6.395419522673995161e-01 -4.117641448718665775e-01 6.394692815040434741e-01
3.443398208121893900e-01 3.557183912816044846e-01 -2.094488888860567555e-01
7.337614272297494633e-01 9.196607237897137521e-01 -2.687402197541351456e-01
7.439516705510500483e-01 9.021235735990459359e-01 -3.046389367694652406e-01
1.612483358488658869e-01 3.008968592894527561e-01 4.212146709626685831e-02
-8.058674541666809021e-02 7.669759520432153921e-02 2.129681957130389047e-01
-6.713788561289335544e-01 -7.153256626594942658e-01 3.704927076119717833e-01
-2.149171028141986239e-01 -1.698810599601294768e-01 1.780642045337568757e-01
-5.467257589982235100e-01 -6.136864223066080815e-01 2.676216401238852849e-01
3.888642570059986370e-01 4.389824568728028509e-01 -1.962478528879360029e-01
3.571570244629016649e-02 2.481837878307556200e-01 1.985176399836363348e-01
5.949434646228195511e-01 3.742596552176752911e-01 -6.138682979040083199e-01
3.204389889416320303e-01 5.244641434834270699e-01 1.047587468306620390e-02
3.434090590679412802e-01 8.027139270384374414e-02 -5.008313873520887638e-01
4.116026775853979247e-01 6.043866589927857635e-01 -5.881264840030054480e-02
1.496256078101199649e-01 4.040721079218103085e-01 1.715269284106870351e-01
-9.187091181296935805e-02 -2.529828051307429493e-01 -1.185726077719207322e-01
-4.893152333091154715e-01 -2.469687704733809497e-01 5.604867143755526415e-01
2.374827790488031887e-01 4.203935772095590551e-01 4.019028171704243368e-02
-2.591696931289286243e-01 2.945579167726319891e-02 4.649695723490987476e-01
-1.672226960061020395e-01 -4.521345484810373461e-01 -2.028541721979600643e-01
5.596602810202021550e-01 2.857106626062635435e-01 -6.483307870533261408e-01
4.258219360829683109e-01 5.887471708781577551e-01 -9.951205575612678822e-02
-6.810940921303672013e-01 -6.762769266490077369e-01 4.284666144041410774e-01
-5.058588452510951461e-01 -4.557227848566596240e-01 3.664613187090682844e-01
4.166995933961484266e-01 5.382429162549873247e-01 -1.377876799381990980e-01
-4.310565804871557827e-01 -7.138995666141143559e-01 -3.472900234954752474e-02
2.370718875952949056e-01 1.018499993503978324e-01 -2.979084081539514206e-01
-4.334504310257069615e-01 -1.904687766818356776e-01 5.260289861723903559e-01
-5.193023683477854258e-01 -2.988554013392890063e-01 5.560538877594322082e-01
-2.330546633015238844e-01 -3.031326451843799341e-01 6.703880935763506521e-02
-9.183469479889901088e-02 -1.742662162312774154e-01 -3.491312398131907885e-02
5.226140298710927473e-02 6.191692233407138091e-02 -2.759374759251903911e-02
-8.979379803090670187e-02 6.674416494447858728e-02 2.179646723684437737e-01
-2.544847302514487986e-01 -5.248439991243679659e-01 -1.324974701040575742e-01
2.916271991603882063e-01 4.045880397675615803e-01 -6.825790663575294348e-02
3.418672349954433032e-01 5.441489827182240946e-01 -4.854560042344128155e-03
-7.269201177231943145e-01 -3.845152441641842556e-01 8.163354615406156478e-01
1.759392923794593500e-01 8.699903755354572443e-02 -2.102383386144615063e-01
-7.018880785994884297e-01 -5.132828515555369897e-01 6.370158082395992460e-01
4.986668926897779297e-01 1.427536441719894911e-01 -6.971463687761115802e-01
8.743405472730648997e-02 3.460446780858159599e-01 2.150679598445431606e-01
-6.888695465490732861e-01 -5.221153670980409611e-01 6.055883026689612425e-01
-2.601345425521660593e-01 -8.825530404907537541e-02 3.414082963243559310e-01
-5.537600239327025164e-01 -2.345698736787316663e-01 6.827447719437818030e-01
2.697339296633676775e-01 -4.165190801466850390e-02 -5.058126123218060766e-01
5.746802044218042305e-01 2.587638292204110790e-01 -7.024114752051375810e-01
-1.653365521407580696e-01 6.185268303285763880e-02 3.406161434697110857e-01
7.119119934631775726e-01 8.285995566349044772e-01 -3.286108191726532790e-01
4.383820615519396502e-01 5.963189602094778191e-02 -6.835220295531561074e-01
-1.204553523985291419e-01 5.071586582279794669e-02 2.528112076502050387e-01
1.822457799874305229e-01 4.280366018416731921e-01 1.418062060215040388e-01
5.767336903357389577e-01 2.817275620652036627e-01 -6.814633512803232041e-01
-3.420798936833066572e-01 2.430304338551301027e-02 5.998123567371059783e-01
7.392271269490385821e-01 3.437332542555652792e-01 -8.905312356784920169e-01
-5.646230714114712779e-01 -4.752525955230524346e-01 4.451466986155609984e-01
-3.575487866512130353e-01 -5.765798688515176851e-01 -1.308938605658261332e-02
-3.243877465794258730e-01 -6.130271255517139029e-01 -1.079777735270360944e-01
5.127764550375760733e-01 7.574539998641743876e-01 -6.724814891247868354e-02
5.607508644127436881e-01 2.699216986026853338e-01 -6.669692718094893946e-01
-2.235221561194917217e-01 3.473294653013558886e-02 4.102497876083902595e-01
-1.952378842721632091e-01 -5.130704344254346377e-02 2.708697334024027237e-01
2.761651761989141196e-01 4.494524555885309192e-01 5.627665741936171799e-03
6.349541473467535946e-01 5.911989460902732363e-01 -4.508546044447344636e-01
-4.646820260372275802e-01 -1.737393106354956640e-01 5.966805488734329144e-01
3.446417373623515412e-01 5.780301828654054591e-02 -5.268143992013830657e-01
-1.383585102792652122e-01 1.267847653551059939e-01 3.640165530587405329e-01
-3.622015954748986633e-01 -1.334219612347211162e-02 5.938293198387708527e-01
-5.904479760610699124e-01 -2.979286141316265790e-01 6.774514660077702866e-01
-5.398335173515270147e-02 1.506976936662945410e-01 2.466471768393507791e-01
-5.331762846776456621e-01 -5.754331507816058400e-01 2.853746669669346425e-01
5.871085932792501350e-01 3.230355010569394003e-01 -6.550885950872012975e-01
-3.092113634137417383e-02 -1.462671450826676378e-01 -1.082285158496980731e-01
3.390274438003801905e-01 4.852503905842757703e-01 -6.269120449451320853e-02
1.935122303001077793e-01 3.645197676379627882e-01 5.518332370276389509e-02
3.147178400241649188e-01 5.796561792683893044e-01 7.885947093967676791e-02
2.236575733403083077e-01 3.305465001392352553e-01 -3.196981792194176358e-02
-4.916073400494345158e-01 -2.765125557162066983e-01 5.329440880904209310e-01
4.164379806743105927e-01 1.830803429866004473e-01 -5.150859672804550815e-01
2.324283226819308466e-03 -1.593068968247915440e-01 -1.783641403114482327e-01
-2.659259508480769085e-01 -3.926111271175670159e-01 2.750567718445777118e-02
-6.328631066802375971e-01 -3.069513159973059624e-01 7.396415463353063213e-01
1.450030871282398659e-01 3.862795545855151474e-02 -2.093258513450945157e-01
-4.352716620124973401e-01 -2.895081431113937231e-01 4.237758443019020715e-01
5.719827118593310278e-01 4.683966425845888515e-01 -4.748864032255475376e-01
2.952605335165293665e-01 3.061855534413646107e-01 -1.790653737946881208e-01
4.955382933484208108e-01 7.330530327874620333e-01 -6.402525291038588251e-02
4.429741595092377970e-01 4.222826028125861719e-01 -3.055887915350657957e-01
-5.606973405985239411e-01 -5.029882459867686118e-01 4.090036449895342319e-01
4.927709775819822391e-01 4.893273030521103628e-01 -3.185615756130180665e-01
5.472293348762642395e-01 5.685562105182760950e-01 -3.264650945612412314e-01
-3.280816460971890947e-01 -7.018691618338757099e-02 4.756238301198055796e-01
-5.402495492870278415e-01 -7.099657251052068352e-01 1.542608481536904275e-01
-2.818626921922350315e-01 -5.763995911883357248e-01 -1.409941626629332978e-01
-6.528620384068576366e-01 -8.580922536406700996e-01 1.873109466000394130e-01
1.615063265364483636e-01 2.114484477456329836e-01 -5.345002349773651101e-02
7.190719357867803030e-01 7.733595150163737886e-01 -3.994805891208863535e-01
3.696703489490520411e-01 5.711584896096647546e-01 -2.318396008837949121e-02
2.153775017629482591e-01 -2.096707670322292549e-02 -3.918161253607437833e-01
6.451240501166194408e-01 5.395862574632830366e-01 -5.229606929544342586e-01
4.034348165464504699e-01 5.830825199050004848e-01 -6.764727227464889525e-02
-4.428805041879463888e-01 -7.141274406905225858e-01 -1.495971571384270733e-02
6.428161063581384616e-01 5.209210367313147350e-01 -5.389063761486624360e-01
-6.474829095376412047e-01 -3.936368945482990322e-01 6.721887613868331446e-01
-2.063933734809636586e-04 -2.687088882322266059e-01 -2.904379665272929789e-01
-2.326998520366178325e-01 -1.490541627354619904e-02 3.729887856755128017e-01
-7.520034851077964655e-01 -4.253954778028128381e-01 8.153092494348784802e-01
2.524432015910449967e-01 3.664128624838573489e-01 -4.254218912271784392e-02
-2.884765864329210672e-01 -4.012286546097535433e-01 5.650660928405690925e-02
7.475430182644209331e-01 5.766576390657890405e-01 -6.568737266026984933e-01
2.992806447525697688e-01 2.048602301327865916e-01 -2.936360979035677610e-01
-6.068092402335084623e-01 -2.929060394606532447e-01 7.104843011251020801e-01
-1.479093265568419413e-01 -1.993683790618328566e-01 3.329359641464845615e-02
-2.541177922308797688e-01 -2.493098544218540491e-01 1.599319698263079736e-01
5.951918578063351006e-01 8.084338134117909913e-01 -1.525131072540424626e-01
-2.186809461139954391e-01 -3.278330056311117846e-01 1.644109273179078512e-02
-4.037249086871531056e-01 -1.787217011453394733e-01 4.882132672658744954e-01
-9.074525547170697592e-02 -3.560675333921177743e-01 -2.301158053983479168e-01
2.887420497206988346e-01 1.231272454463482185e-01 -3.627287670403512854e-01
-3.709998493609777959e-01 -4.012766001795144422e-01 1.961238395335702933e-01
-4.462380089286658094e-03 2.926177441233164256e-01 3.137765999646420223e-01
-7.108055308970444575e-01 -6.396358745029016024e-01 5.177227673937951913e-01
7.148621451392853654e-01 3.325048377721983583e-01 -8.612364444245894646e-01
3.347154376209429683e-01 3.535942368109819545e-01 -1.954190918461179427e-01
-7.749411398765150560e-02 7.793322878632442940e-02 2.090481925083022552e-01
6.196391611789148213e-01 8.754154579266201219e-01 -1.226496388479154931e-01
-6.470965336092689979e-01 -8.960939705783730336e-01 1.371354255019817392e-01
5.266241155249372363e-02 5.128523801420455455e-03 -8.867100807094874249e-02
4.407274932421599289e-01 6.461027329897597316e-01 -6.373749340813887609e-02
7.070023155086558875e-01 9.074772244688046330e-01 -2.364092328228467321e-01
-4.517063821929600542e-01 -3.848983438087432707e-01 3.501367595559202184e-01
-3.485272457948127012e-01 -6.408058498991076046e-02 5.167219377648901713e-01
-7.070498808741327856e-01 -8.005277218520248095e-01 3.402463338499501222e-01
-5.073555797087089259e-01 -1.689313092342454858e-01 6.740179549800876524e-01
-7.317539890188755614e-01 -7.319217236731878629e-01 4.550247550709500821e-01
2.030741051808038766e-01 -9.817151186622158354e-02 -4.531054795379415023e-01
2.474859428992032262e-01 4.200275218982447711e-01 2.287089138589658982e-02
8.576216815633679741e-03 3.037667347718677746e-01 3.035669108272919248e-01
1.102447623450966419e-01 3.846040332896729086e-01 2.174721606343148761e-01
-1.840276428909941656e-02 -1.811398720022419362e-01 -1.665051615204504176e-01
1.324282476070161585e-01 -1.676029307431478321e-01 -4.073847498425547942e-01
2.211972304737686301e-01 -1.052193095586926586e-01 -4.912741844080034115e-01
6.464750673977657236e-01 2.273066443305244710e-01 -8.573791830508995515e-01
-4.818601362695865697e-01 -4.931358202060502904e-01 2.860527349135932873e-01
-5.709789016374389181e-02 2.393712546733338664e-01 3.462291819212071076e-01
3.188753544713585630e-01 4.132616438910347023e-01 -1.051496127812103776e-01
2.287734341189436582e-01 5.124714388558143652e-01 1.528620538904510440e-01
-4.907364154482580232e-01 -7.165327693089991179e-01 6.347678229612220557e-02
-2.992680510408410877e-01 -5.412523142249560104e-01 -7.415443007848665502e-02
6.450726178006751521e-01 5.099125869301291969e-01 -5.544337379650676745e-01
-4.707941232710877860e-02 -7.655258260845301810e-02 -6.734628930262960729e-03
-2.464881568693635949e-01 1.019750167723480899e-01 5.206358766721377318e-01
6.604608046582942649e-01 6.233136435266545261e-01 -4.598675793496833086e-01
-8.640077010624060139e-02 7.069976466890434685e-02 2.164291373524786510e-01
-7.059598358817882335e-01 -3.469416946893418841e-01 8.208229785480496421e-01
-3.925113288476195228e-01 -6.521512712546436719e-01 -3.429194657168264243e-02
4.922231283405076319e-01 2.042847201643978317e-01 -6.207977396114086055e-01
5.109832065655924849e-01 5.010345485998325410e-01 -3.369337422406802340e-01
-2.793034702598728991e-01 -4.312197450118711584e-01 9.083685116824053232e-03
-4.252228166402602927e-01 -5.154261218346632978e-01 1.664883713122942421e-01
-2.598995690264477298e-01 -5.736974907197647106e-02 3.738596298443448429e-01
5.511547677642165688e-01 3.718207924385086294e-01 -5.423511080513944149e-01
-6.587260097394094238e-01 -6.084374993767431850e-01 4.627614178279987889e-01
-5.250238091053432976e-01 -5.266607774031450973e-01 3.234497822070742656e-01
-9.424673032228976510e-02 2.277775341060122305e-01 3.967717545572736482e-01
-7.295179989256780351e-01 -9.365124904622805779e-01 2.336433434565798606e-01
3.066130448962532395e-01 2.157640984876837142e-01 -2.944489201536378831e-01
-6.796225852304450463e-03 -2.550299779483718443e-01 -2.647363571323885778e-01
-2.922641460583312312e-01 -5.817500614331534425e-01 -1.290806160389607327e-01
-3.737056570437963243e-01 -2.189186217104585053e-01 3.946542269333754294e-01
5.167769353290450063e-01 1.114121493549974778e-01 -7.611310338904466732e-01
6.801323896270998759e-01 6.898583521818066888e-01 -4.223860592174833450e-01
-5.983883090815527162e-01 -6.826121260765564136e-01 2.817515382308425353e-01
-7.186363466455245042e-02 9.123360351086150233e-02 2.136646794637465652e-01
-2.462135101371321078e-01 1.970835231168199114e-02 4.326745031533856256e-01
-2.174033130819542359e-01 8.016523096989909558e-02 4.482143408751380065e-01
-5.210334886720698888e-01 -6.887451555502268619e-01 1.443078331437451789e-01
-5.765029410552900968e-01 -8.089232779037813792e-01 1.103701522848323929e-01
2.438194777193388174e-01 1.088871579419381230e-01 -3.018439816702803702e-01
-1.980893405948540853e-01 -2.625808767135092217e-02 3.023371147441801798e-01
-1.701318632822154397e-01 -1.612580436103979997e-01 1.114376893366553073e-01
-4.182218801820281051e-01 -1.976671837312902746e-01 4.925990804884654017e-01
-3.007201202936072848e-01 -4.181093512810482027e-01 5.927459382400997179e-02
6.959118979180757558e-02 2.149791645457702072e-01 1.058688462055551865e-01
1.838232215839084027e-01 -1.141323827902573397e-03 -3.173253026253891051e-01
-3.236667330445929663e-02 2.455840493603322905e-01 3.109800723024050972e-01
2.346082372789124459e-01 2.473035102475113767e-01 -1.390384328871777098e-01
2.664869487900796141e-01 -9.515283025991672083e-02 -5.572192881389957941e-01
3.296929125062281196e-01 1.309117488243325689e-01 -4.237575301797153471e-01
2.044705872129895519e-01 5.221352975690218834e-01 2.042721278878716351e-01
-7.822697704918606110e-02 1.696780277479142604e-02 1.454474062617748809e-01
2.239049834227821792e-02 -2.688501049550270361e-01 -3.288327431277213719e-01
-4.282184437437143720e-01 -2.556506990563628401e-01 4.478483155490506906e-01
5.493925609790887288e-01 2.284844752104670806e-01 -6.918171545587206150e-01
-4.526609635386680264e-01 -3.543258740917464289e-01 3.842683913229885118e-01
-5.430155603171940015e-01 -3.630160080894184182e-01 5.279483346410692723e-01
4.547425674997370715e-01 2.067128628447679750e-01 -5.547804746361376660e-01
-3.462258093656585545e-01 -4.003718301514013755e-01 1.551567852408218262e-01
7.414492247370537692e-01 7.035665293148186672e-01 -5.115833834854759399e-01
-7.278808519275875577e-01 -4.196906722735092576e-01 7.805498668289636566e-01
-4.503685910790006242e-01 -3.459270767971428517e-01 3.893213453523347578e-01
-3.003866261784707836e-01 -4.904507148850778542e-01 -1.823010255702294316e-02
7.491509074739273188e-01 9.749584097236927427e-01 -2.359733831700826789e-01
-8.641952819839304745e-02 -2.883391371745749540e-02 1.105996260167173006e-01
3.567348781279819359e-02 -7.646279079354734165e-02 -1.466960069806878542e-01
6.867956161094188605e-01 5.888340618828014073e-01 -5.411100086969691247e-01
-5.779931533205679983e-01 -5.556260328891845512e-01 3.822922155270089273e-01
-1.528374815975431719e-02 -1.012998627825040937e-01 -8.686838694129324356e-02
2.437325107109568068e-01 3.269762219129205075e-03 -4.140285243698412776e-01
1.865646767220268398e-01 3.788065864731862131e-01 8.213692032976462054e-02
5.036049038508675357e-01 6.499705569653365655e-01 -1.660419729537141453e-01
-7.110673260654128969e-01 -6.895905927380762135e-01 4.650353957394582349e-01
2.063516002132638472e-01 3.891235798776236376e-01 5.962099541077525017e-02
-6.983464500222847926e-01 -4.787200949696187036e-01 6.677816938090485044e-01
-6.572631771977581749e-01 -6.193311266957611805e-01 4.486994564881101599e-01
6.436850652568524289e-01 3.755508888106011134e-01 -6.949887199945697924e-01
6.343260883267428651e-01 8.814908231102022151e-01 -1.410452462913514005e-01
8.593544948154285823e-02 2.051838436122854215e-01 6.778863017157690796e-02
1.612636620493075323e-01 4.667055053529925446e-01 2.184450036924995286e-01
-9.929959816236787196e-02 -2.503660553383910692e-01 -1.032166695730842576e-01
-1.709603266012934275e-01 -1.864110302176582301e-01 8.608782071447171336e-02
-7.035677489214322566e-01 -5.448904392234577010e-01 6.062416481168362292e-01
-1.959735511516644546e-01 -3.172454784562793173e-01 -1.072991305109269322e-02
-5.922314548211420338e-01 -3.323875375618177141e-01 6.438203970401050746e-01
9.308221771535084288e-02 -1.903841314427360543e-01 -3.650221909305709223e-01
5.456341508288007347e-01 3.831531080997595540e-01 -5.209548878216411216e-01
-5.117681058745034983e-01 -7.403467351838198818e-01 7.374443361292537524e-02
3.240319853637261827e-01 4.841234189443213154e-01 -3.851044272834314164e-02
-2.148781390312269612e-01 -5.110024695778865311e-01 -1.848090077064681869e-01
2.469128242512002580e-01 1.392629808543691672e-01 -2.747724982616690514e-01
1.063820538312864883e-01 3.520521640394136953e-01 1.893884175048301532e-01
1.801899766917497703e-01 3.593382117438886914e-01 7.221989160959994825e-02
2.413031640081516604e-01 -1.158294582028563252e-01 -5.365875522310589174e-01
-5.338870877951018556e-01 -3.932261478814817468e-01 4.803679937016134271e-01
2.212309614765209376e-01 -3.524346858209836258e-02 -4.169069101022704338e-01
-5.365058140004876908e-01 -2.160451224125710668e-01 6.732449346508730947e-01
-2.034205547573574302e-01 -2.357780518202181319e-01 8.852041882315815624e-02
-4.643642236735720519e-02 6.259346565052548161e-02 1.401690057017377089e-01
3.189232329105415320e-01 2.318236004838035089e-02 -5.201081495524219056e-01
1.433462270364582458e-01 -8.875589051068871749e-02 -3.420035882245916481e-01
2.571284282599310411e-01 2.847683609636386670e-01 -1.373066257411585389e-01
5.829938318570480060e-01 3.183124864367771201e-01 -6.531477482969489934e-01
5.889696308132958968e-01 6.882567538740965718e-01 -2.697991552503441470e-01
4.398598067833533465e-01 4.443113690185960807e-01 -2.768886555015626083e-01
7.302855394416778445e-01 3.945686393363356248e-01 -8.213307535337066589e-01
-3.002843334901180716e-01 -4.751524442454755914e-01 -2.132413742898560914e-03
1.831952386489391627e-01 4.235728118667210218e-01 1.354517116609077754e-01
-4.629212959863557297e-01 -5.122141931801448278e-01 2.337080700403410261e-01
1.706625773181298378e-01 -1.068418645233477210e-01 -4.074714572614978048e-01
-2.808621986539162063e-01 -2.074091214440655639e-01 2.497605574237478365e-01
7.088132496560882734e-01 4.361775916718869106e-01 -7.407353998980426013e-01
-1.700548176711637882e-01 5.801442184981917688e-02 3.445194026302843548e-01
4.590178956809391475e-01 2.740697053546468642e-01 -4.903774743732220442e-01
-6.663266096309763409e-01 -3.381028328560930496e-01 7.631456633451718652e-01
3.210930101125498148e-01 5.274618790750719155e-01 1.255727126738145558e-02
6.528273102080661694e-01 3.177180388519988408e-01 -7.719711185364711570e-01
1.810196309699765582e-01 7.435720916846590145e-02 -2.322821619447496544e-01
6.129591630809987368e-01 3.875171320248628204e-01 -6.302590593720422962e-01
6.797776011982720190e-01 8.618571084556966300e-01 -2.388524848883994689e-01
-1.095755365269124176e-01 -1.848685682057567004e-01 -1.616363243183891948e-02
1.754085253766009822e-01 2.440339869666201533e-01 -4.232201548406926139e-02
3.256748548100455998e-01 4.635164673776565603e-01 -6.320793347886673186e-02
-5.117642166325756525e-01 -1.250017842943556834e-01 7.282016687710863856e-01
-9.266412243434052343e-02 -1.645132978498761445e-01 -2.313640841233365053e-02
-5.642173640423130410e-01 -2.783833874466566938e-01 6.538446784410166801e-01
-6.307492658255565710e-01 -4.517351666407209976e-01 5.820758454813845795e-01
4.994736195623898922e-01 3.653574196633591620e-01 -4.617565308832464743e-01
-7.249326114521174036e-01 -7.467629212493399615e-01 4.276950858274696232e-01
2.701863602300563771e-01 -7.680972051492718222e-02 -5.439712118594118850e-01
-8.694634358301733812e-02 2.243468088725655840e-01 3.807672380231805209e-01
-2.906242791328833008e-01 -4.743306531494785871e-01 -1.760774074680912862e-02
-1.626937882006831149e-01 -3.190357061841138653e-01 -6.895898105604800210e-02
4.615657372747718479e-01 1.128791426790521635e-01 -6.661274325915021999e-01
-2.029059735988620050e-01 -3.235149241070721660e-01 -5.664998016000301860e-03
5.035409340119786359e-01 4.526357516616618670e-01 -3.758135299093381398e-01
3.383169523969595804e-01 3.114280805532753105e-01 -2.463613048549226636e-01
1.280476604667824259e-01 -1.704530215287855879e-02 -2.398418167510331933e-01
-4.491823920674496533e-03 -7.090853279530402731e-02 -7.281002963545184226e-02
-5.732242062250331172e-01 -3.529026904832210931e-01 5.898318337958887714e-01
3.248098791497568416e-01 2.834663039984742228e-01 -2.532403457599443075e-01
-3.136723757661832868e-01 -5.696280125338125666e-01 -7.995513463062699222e-02
7.445653492455214240e-01 8.485587682005477639e-01 -3.626476110378949458e-01
-8.411885300046356706e-02 -3.589652005162705106e-02 9.919420796572930854e-02
-5.095076021014388612e-01 -2.249079027209892057e-01 6.181250385141405790e-01
2.067546929715167736e-01 4.116170435646451242e-01 8.286219655108746640e-02
1.059495251637698754e-01 -2.313833955000906273e-01 -4.304054145415114885e-01
3.238282834723189320e-03 -7.671400236944350692e-02 -9.206754700196286001e-02
1.679643169249100676e-01 2.646586635907695606e-01 -7.787075213324680910e-03
-3.328133701394399013e-01 -3.534600663121225672e-01 1.823506722014861248e-01
7.123732724760583057e-01 4.790493011233785681e-01 -7.011634743062375996e-01
3.648426937737562215e-01 1.620952950223116806e-01 -4.500815587096707593e-01
5.302682896847333849e-01 1.405487834975998607e-01 -7.529758432833894011e-01
-7.158460713885662630e-01 -8.845889889102834802e-01 2.657283991787249833e-01
5.315752000641636998e-01 2.260344124523026577e-01 -6.642676078768363634e-01
2.631116242151935181e-01 1.889177946036055822e-01 -2.493770140785559197e-01
4.504634072308485448e-01 1.494735586473288913e-01 -6.084162561547020731e-01
1.259045241359792178e-01 -2.072696777268130675e-01 -4.385319890653611163e-01
6.014515845175935072e-01 3.900740983518214411e-01 -6.080632986960663455e-01
7.423603865467497398e-01 5.325073189523331640e-01 -6.950593286252104708e-01
-1.167884412007495487e-01 -1.439069097646347439e-01 3.960968254782518821e-02
-6.938899511197064995e-02 2.411079093797707240e-01 3.688785775481754348e-01
2.964351634152546655e-01 3.989904530976000618e-01 -8.234868426777276762e-02
-3.256220602166370794e-03 3.250724340338265184e-01 3.462531178550958821e-01
2.969842493130440686e-01 1.915520612413980708e-02 -4.872602266915256330e-01
-2.791751807614046288e-01 -1.465579260387905314e-01 3.116249718493799281e-01
4.510731282536099146e-02 -2.506985066835099030e-01 -3.479747550154355662e-01
1.261069935008042042e-01 1.778747196263485986e-01 -2.924576703199365316e-02
7.156654350697729816e-01 3.240397594294714967e-01 -8.715992117524791194e-01
5.274596188264482448e-03 1.680240134508245442e-01 1.647826154316464342e-01
-6.714554820822216108e-02 2.003779665608332872e-01 3.217623717056968813e-01
-6.888020108228574134e-01 -6.574084447449698443e-01 4.615800366119480191e-01
-7.014694383865763827e-01 -4.926176259975023619e-01 6.582862324136069532e-01
5.973182554211086126e-01 8.272235081695439307e-01 -1.361277753681283953e-01
-1.694271747823922203e-01 1.842504188463015835e-01 4.777182393885219258e-01
2.141535753430328370e-01 1.796043227591737068e-01 -1.764224896710875623e-01
1.111508398490589494e-01 1.277325309001531572e-01 -5.726275248269021428e-02
-5.781039402819097145e-02 -2.455329330337281679e-01 -1.682955668234659974e-01
7.178695637826658649e-01 8.637513604851432270e-01 -3.013073504508243516e-01
2.769183241075826585e-01 5.546617902598272032e-01 1.162507142183277359e-01
2.384723029574260245e-01 1.222174147990411769e-01 -2.786163524529206015e-01
2.758494209771726255e-03 2.009639872991959494e-02 1.170933799376044568e-02
-3.186523788335109963e-01 -3.952865131575081931e-02 4.922723492815509472e-01
6.440365368441407501e-01 7.676719655300008327e-01 -2.785344772793323376e-01
-5.650006656784557491e-01 -2.389523193470884099e-01 6.971081837442298923e-01
4.851631385669490926e-01 5.006546840205229332e-01 -2.936380410845522704e-01
-3.321842670517207718e-01 -1.937256609476692426e-01 3.511750153731324486e-01
-7.299764415448772858e-01 -7.417788107925197272e-01 4.415325832543192108e-01
4.826586519220398275e-01 6.257990177514801688e-01 -1.562992288932314178e-01
2.467297170067329903e-01 -3.573047545682641636e-03 -4.263790315249630924e-01
-3.674586252131483710e-01 -3.657278269281646899e-01 2.279391095572082804e-01
4.667760019020308349e-01 3.936542918177962092e-01 -3.763209952519341317e-01
5.425088476161855910e-02 6.660939880185925976e-02 -2.597009988551691670e-02
-5.092116046521103501e-01 -4.052495867431323839e-01 4.258176597228043314e-01
-2.651997518144130414e-02 -2.976723093038628476e-01 -2.767076852544989030e-01
-8.960648728706195956e-03 -2.310297964417392658e-01 -2.355472071391744304e-01
-4.909415515953356457e-01 -4.296949219870385139e-01 3.688967456221494134e-01
4.041068733864920937e-01 2.466419410237981058e-01 -4.266135744059812440e-01
-4.464266531292152007e-01 -7.114216927296556081e-01 -6.080203242878642715e-03
-6.106344745955295528e-01 -2.045350530028005043e-01 8.109473285208446125e-01
1.208099003758174306e-01 2.130659903921412468e-01 1.714786835016079286e-02
6.832529872209099908e-01 2.872435238325800611e-01 -8.558775411941664801e-01
-3.837534010409928698e-01 -4.583880663560062074e-01 1.569666841281271707e-01
3.903200053611069476e-01 5.677474657607815001e-01 -6.176077367849543837e-02
2.107094657099223833e-01 1.063379420919398077e-01 -2.485175239953422988e-01
2.152155636729640165e-01 5.675890177331379544e-02 -3.088748555784966432e-01
4.235796870699359840e-01 3.719269170662658497e-01 -3.263211209524034540e-01
4.138032456551249405e-01 5.096224506806836807e-01 -1.633256287101406412e-01
6.940855712445133108e-01 6.439015690694843697e-01 -4.948797730217376345e-01
2.676996148658422614e-01 1.000543223742620669e-01 -3.516547785249906077e-01
1.694707503246293545e-01 4.634357946901033753e-01 2.010771717935030123e-01
4.712743240496531372e-01 7.554556242056394977e-01 8.675845475140589588e-04
-1.364228010838942906e-01 -1.966605954763508413e-01 1.673290942356235947e-02
2.415400149466676305e-01 -9.905858625801784723e-02 -5.191513814518902148e-01
2.184203631886554586e-01 1.215256797284984674e-01 -2.454147374673503468e-01
1.371773949266616999e-01 1.572191838519572393e-01 -6.995075444611223436e-02
6.306964245318592566e-01 8.820858859622797699e-01 -1.342692534808387628e-01
3.234913794121928587e-01 1.701493272069724283e-01 -3.715296159188257175e-01
1.142609299505603637e-01 4.195285619102470664e-01 2.478196733907424010e-01
6.236254430988167341e-01 5.952807041655979736e-01 -4.273398571487841968e-01
-2.261976652240315910e-01 9.171612184028489489e-02 4.753837333137744259e-01
6.915183295003852759e-01 9.403113916723940813e-01 -1.752815272881247943e-01
-3.009370154243950490e-01 -4.931686351896713005e-01 -2.018928938606169912e-02
9.507013672865539944e-02 1.364578055345591068e-01 -2.076666983783895595e-02
-5.906934617899208817e-01 -2.317413000169773474e-01 7.482619344546581619e-01
1.220383608921567498e-01 2.800147253418493465e-01 8.627355169505752930e-02
4.715291088232914651e-01 4.317859706595866265e-01 -3.438096948712469625e-01
5.207204898993965658e-01 7.060531271810605025e-01 -1.353617391251645541e-01
4.376005873611755748e-01 1.034930366884815739e-01 -6.355499148731237335e-01
-3.422075988038452143e-01 -2.763835613286561715e-02 5.447850624801982011e-01
2.926446697313024314e-01 5.557958440672038369e-01 9.084047952930533742e-02
-6.663512629863169723e-01 -4.830058579921524542e-01 6.090725510987646807e-01
-1.874183283587825821e-01 -2.372848364386279663e-01 5.983454145959901660e-02
7.608694692651021274e-01 4.625240890180173370e-01 -8.008176348660540622e-01
4.383231045142652049e-02 2.507437889749091764e-01 1.875032630499518238e-01
6.207992947307694465e-01 3.094535533527715820e-01 -7.265545107761104404e-01
2.677012372357235326e-01 1.703492560288893398e-01 -2.768937831719919251e-01
-7.343287527467109443e-01 -8.101980355034883452e-01 3.761299542819177555e-01
7.389240490094847180e-01 7.449765025938490659e-01 -4.632670982670706317e-01
-2.239172941929967187e-01 1.031932052404838512e-01 4.837309791099372869e-01
-8.154535752034677842e-02 -2.191355587493924451e-01 -1.000493160919322388e-01
2.022753474763441112e-02 2.230049815888388576e-01 1.979514338676681973e-01
4.073440761653544517e-01 4.455752062618678067e-01 -2.205125443274477404e-01
-7.375657159789640593e-02 2.172705441287604844e-01 3.509178134643668456e-01
1.383746872436614032e-02 -3.021428239157920026e-01 -3.497662013185429131e-01
-3.449080948198988694e-01 -6.309298079598653075e-01 -9.228847690459233977e-02
-2.971434140527661194e-01 6.989324918952311005e-02 5.722471491521899933e-01
3.341080414010257904e-01 4.974686870264998229e-01 -4.137021781380265800e-02
-2.775481593922186629e-01 -5.815140653157240686e-02 4.028980068645767187e-01
-7.210345726790576282e-02 -2.208760968751362908e-01 -1.178806458852771910e-01
-4.526277304852184269e-01 -2.241846429028116483e-01 5.226267481899458112e-01
6.899202743304545526e-01 9.270174141747924423e-01 -1.867159710004842044e-01
4.474150941386381697e-01 4.827901325982754122e-01 -2.487508143576680486e-01
-7.191943374285968416e-01 -2.976211504779877615e-01 8.956779502029355022e-01
5.976041393846912575e-01 4.185025972541520645e-01 -5.713158469311413468e-01
-1.517351690260345665e-01 6.735966561720613255e-02 3.234532717858353279e-01
7.642830519559701274e-01 5.570597867164890360e-01 -7.060494790825595501e-01
1.256817385536624920e-01 2.415318443144212068e-01 3.917791631522309082e-02
-5.719900924667639663e-02 -3.481046028908991730e-01 -2.784227000988158673e-01
-1.788798238893034853e-01 -2.588853149555812583e-01 2.240970116585399435e-02
6.233399157147480052e-01 5.303798864433699745e-01 -4.958833194665294708e-01
-1.089828782763868076e-01 -4.010843405923931182e-01 -2.471277860971839713e-01
4.188199948577847054e-01 1.305190147147172741e-01 -5.750202275330364987e-01
5.763436882961966434e-01 2.683818827926403583e-01 -6.949973783751853817e-01
-2.413803230086536133e-01 -5.281816793464795268e-01 -1.582261625440671837e-01
-4.064344421221562087e-02 -6.910047442936670392e-02 -9.701462385006060993e-03
-4.067322294629288071e-01 -2.193969618051621329e-01 4.500419915258618286e-01
7.573483641796537047e-02 4.412185407873891324e-02 -8.624819226772786895e-02
1.275165892025215131e-01 4.977256933294640570e-03 -2.155204112243237213e-01
-5.170362236772968467e-01 -4.377658952099507395e-01 4.044771564368501715e-01
-2.999636207044399927e-01 -3.989899734194948255e-01 7.832908010230396623e-02
4.064335337079278410e-01 1.777136886067322008e-01 -5.038615562915953472e-01
-7.345091969044893754e-02 1.061627340914275269e-01 2.322293223234593862e-01
7.462865272032761510e-01 3.758970178031149634e-01 -8.682705788601867702e-01
-6.266455702701467789e-01 -3.425279726544165348e-01 6.912802017055275083e-01
-6.869394886706100545e-01 -4.284778742040121768e-01 7.019119753661487993e-01
-4.487560386665119805e-01 -6.576313769432403644e-01 5.507210157911786308e-02
-8.861353836536091377e-02 1.727520579364496822e-01 3.287141710856519294e-01
5.059666704704238183e-02 3.905249951330827529e-01 3.247221988983557961e-01
3.445262280171476066e-01 5.296091159732223552e-01 -2.481902731821376482e-02
-1.933013241772474911e-01 -1.974677445406358145e-01 1.121396951372712197e-01
5.576788189223808034e-01 3.146782771761951758e-01 -6.141680688705251079e-01
-3.730524029591201773e-01 -3.636746567659131513e-01 2.395901106208950249e-01
2.692998104941503046e-01 3.829068729121376524e-01 -5.352893784494114349e-02
2.452113178764427359e-01 -6.871428322033298897e-02 -4.930915961117562363e-01
7.047604349247228450e-01 8.166596883772938575e-01 -3.292059268366284153e-01
-5.272574936266648249e-02 1.896369322831576165e-01 2.859334152378426031e-01
5.373047082984538925e-02 1.945517177234289130e-01 1.109865863304687617e-01
-1.555900796727860413e-01 1.695803402031220430e-01 4.386966694770584874e-01
4.636797694112195778e-01 2.126495245833761594e-01 -5.635923603784377400e-01
