1.533768535945300715e-01 -7.558898100112741991e-01 -5.226990971709342126e-01
9.757145947480223847e-02 -8.018538888967038369e-01 -4.995172193772682290e-01
5.382607445992041439e-01 -5.647559679175995218e-01 2.915351608105800629e-01
2.227423700788545846e-01 -7.560661956222837210e-01 -1.080129278925960196e-01
2.980249058655364269e-01 -6.535785469992489993e-01 -4.525591862113644837e-01
2.318072963882622795e-01 -7.676311296522825289e-01 3.549925408546105582e-02
6.849419441232977857e-01 -3.960565682455784442e-01 -1.399702947219469418e-01
3.750616993054535220e-01 -6.351104404655809610e-01 -1.364477168609062319e-01
3.953349195937051475e-01 -6.523969327496899062e-01 1.181277859140372755e-01
7.859275633537379235e-01 -3.221100626509117437e-01 -1.104899447384449646e-01
6.016037524355305477e-01 -4.610777427723025679e-01 -1.333674885649359376e-01
4.912777275274908817e-01 -5.990301497841621359e-01 2.768210360258021030e-01
2.770397671319340671e-01 -7.269517680129468085e-01 -9.785398315290450705e-03
9.943038622945765681e-03 -9.173214067377261083e-01 -1.280873726920747635e-01
6.296943734858382324e-01 -4.820826036093474043e-01 1.965642179000400280e-01
4.765619292703076049e-01 -5.599945715340052255e-01 -1.129503996111518443e-01
4.886805523515028726e-01 -5.853340652131225896e-01 1.553551721766806837e-01
8.374675886583123896e-01 -3.385334608084648589e-01 3.237125978681735794e-01
4.481847185429825298e-01 -5.428147274208716677e-01 -4.149889949026643321e-01
4.838342800426871371e-01 -5.872594862441123942e-01 1.413785073608663789e-01
3.341183837063031459e-01 -7.072175086515690712e-01 1.776049166310975924e-01
-1.818430158267647992e-02 -9.738105765098444833e-01 1.414677474115474676e-01
4.383224635778844580e-01 -5.670557797113454646e-01 -2.861591649207225752e-01
1.665801994843217060e-01 -8.109907002312094493e-01 -1.761459407181078379e-02
5.314626549012897438e-01 -5.719073275631001430e-01 3.063705467186030873e-01
2.332922752309944947e-01 -7.939966476470869949e-01 2.483833520837309405e-01
2.435946209116959249e-01 -7.530002869386099862e-01 -7.489014797386633719e-03
4.932546429003756283e-01 -5.733847683629442749e-01 9.013791575064633577e-02
2.594660932479561088e-01 -7.100730419139782423e-01 -2.451197979257050130e-01
1.378015984426174227e-02 -9.138747042851287361e-01 -1.318966235807921550e-01
3.325070666910556194e-01 -7.078364473682777769e-01 1.727935292188993444e-01
4.838812229358485095e-01 -5.909658784798590414e-01 1.703410014976357023e-01
1.017672758526822069e-01 -8.492310730239692740e-01 -1.078766560054669615e-01
6.503407355880076457e-01 -4.738641448651793042e-01 2.559871131916473530e-01
2.094324539164819643e-01 -7.936295381611593314e-01 1.033713267111466411e-01
6.491101636214970938e-01 -4.640112644367870298e-01 1.724058185003499721e-01
6.070108228898105640e-01 -4.515543717895270093e-01 -1.748477604542738872e-01
6.995677753789999453e-01 -3.658758050208613111e-01 -2.863817303703863892e-01
1.230273667501535356e-01 -8.229162529281055516e-01 -1.848397090007109222e-01
8.944244632484572577e-01 -2.475695347020155368e-01 -4.084987974049573978e-02
7.227919690449681189e-01 -3.469715227190494633e-01 -2.942933119688510013e-01
4.959520833909596416e-01 -5.826373415438309555e-01 1.778140714555992707e-01
6.946325717882336770e-01 -3.992547570100225540e-01 -5.747781912382658037e-02
7.407372014780114755e-01 -3.806189636207869542e-01 7.302366396132957405e-02
8.477677872393400982e-01 -3.140848014824309531e-01 1.958856820215182093e-01
4.726430747159491297e-01 -6.209233373307079251e-01 3.352101826392597239e-01
1.038957940114654255e-01 -8.682683238214093935e-01 5.213052945337687261e-02
8.511318663212451563e-01 -2.493877656230492901e-01 -2.847422201086429183e-01
1.157265287903048029e-01 -8.211854190819070087e-01 -2.417369223943332812e-01
3.775849699939010096e-01 -6.504187718385634476e-01 -2.945472357179757320e-03
8.078836460316680956e-02 -8.627089738472581981e-01 -1.285796590885364687e-01
6.039597938506222619e-01 -5.141411964012801983e-01 2.913151190942420699e-01
1.081025454544260467e-01 -8.459530846553884320e-01 -9.549481383066300844e-02
4.453575728962246710e-02 -9.032360305869875372e-01 -3.096626511006662225e-02
5.641658782896983304e-01 -4.472793939596397816e-01 -4.632264373101417365e-01
1.537277071375911797e-01 -8.497292718089630714e-01 2.055900486573074004e-01
2.832122899942181027e-01 -7.529241788910162603e-01 2.279877350058086005e-01
3.080033315038999131e-01 -6.547745369388253689e-01 -3.838463207894106666e-01
6.582965410274633777e-01 -3.826224017850275438e-01 -4.027029463099373596e-01
8.920039861951828408e-01 -2.246412700646838179e-01 -2.327082483033157123e-01
6.917349586316708931e-01 -3.544679792165408849e-01 -4.213364492068266132e-01
2.173509013028272763e-01 -7.604659883328341863e-01 -1.060896967523909801e-01
6.478668671964341597e-01 -4.884578085719752938e-01 3.541827967294977064e-01
7.622397951755091050e-01 -3.563818019434113471e-01 1.358403147038833927e-02
2.390159647189622483e-01 -7.276945851368600282e-01 -2.306054551305939115e-01
1.874746114465894731e-01 -7.617945287808888244e-01 -2.738292520652128581e-01
3.567773670948677922e-01 -6.404393773466280360e-01 -2.041574661379783606e-01
2.829807336359001502e-01 -6.984914790004638219e-01 -1.946321534639202933e-01
1.234313585851745942e-01 -8.270272898543883366e-01 -1.506182667920930585e-01
2.820748075173565295e-01 -7.580545256720281344e-01 2.609123197205250322e-01
2.139142282369541903e-01 -7.259446357553078766e-01 -3.937189815667562209e-01
8.966818436530866743e-01 -2.378225550178720560e-01 -1.028283338132684882e-01
5.569071998542862723e-01 -5.446061004963854701e-01 2.467074293948726127e-01
4.677239150702323101e-01 -5.948157994305225404e-01 1.038596238338860417e-01
8.235123727441834296e-02 -8.509995718085094918e-01 -2.098830678244455739e-01
6.064224202576473655e-01 -4.478302689477562937e-01 -2.071736526964536862e-01
7.948065667327133821e-02 -9.019080842956909150e-01 1.669796904549902816e-01
7.462867970540015827e-01 -3.771149066215991330e-01 7.897450633472852255e-02
8.375642967251699378e-02 -8.696836579671227696e-01 -5.691893606124947408e-02
3.796719966437666627e-01 -6.420539080096638873e-01 -5.524317008213121966e-02
7.474080579938943147e-01 -3.971720303637611971e-01 2.408723763450633382e-01
8.816594032538981329e-01 -2.253029976226439135e-01 -2.892265176586192865e-01
8.644301877040759807e-01 -2.894421925810469753e-01 1.044676401182934866e-01
4.883231763651246227e-01 -5.646917451626309870e-01 -6.519693187233541187e-03
1.361117367916781784e-01 -8.056572921160715106e-01 -2.404377107387588308e-01
3.738959903048466593e-01 -6.404977016016730751e-01 -1.017031310013585960e-01
5.318716720421582389e-01 -5.418048693467553134e-01 7.585282471334052479e-02
8.911496070329427699e-01 -2.541555522418241786e-01 -9.395996559237139445e-03
5.659967763705162636e-01 -5.449301437466840259e-01 3.033762382575993510e-01
8.613449822877500273e-01 -2.614609416741855430e-01 -1.304552891625262723e-01
3.990030781793160730e-01 -6.579747614368799402e-01 1.831501927650516226e-01
7.374469977789053221e-01 -3.701061488520734355e-01 -2.793720221639082318e-02
2.259317827319554661e-01 -7.519576572378682267e-01 -1.208033848482545913e-01
1.615144434966630516e-01 -7.542035200151326890e-01 -4.872602254989161219e-01
6.057368357882426668e-01 -5.012942605206385238e-01 2.024847879197322065e-01
4.660409726440874478e-01 -6.164997534197711460e-01 2.616379808011546904e-01
2.961925982575046024e-01 -7.474445656982191544e-01 2.629268985982335383e-01
7.178831048411095095e-01 -3.806183788826774106e-01 -6.315921601906412941e-02
2.240482048231485779e-01 -7.236601976817179649e-01 -3.510133542467946399e-01
2.472055494752875907e-02 -9.100665759037386282e-01 -9.617730584021445817e-02
6.461943252783799441e-01 -4.444691783954992093e-01 3.800524021853757522e-03
7.479451623586942377e-01 -3.516814552194563737e-01 -1.079666556079800083e-01
8.355260566797749755e-01 -3.374224802968367465e-01 3.035462092942435852e-01
7.552579940240918832e-01 -3.463796644914982625e-01 -1.054215812623422177e-01
5.369443797403125052e-01 -5.122718551742786453e-01 -1.224690685955495822e-01
1.841918950748292483e-01 -8.234602803602232290e-01 1.838251576249006480e-01
6.075372069613920178e-01 -4.720767682333058546e-01 -1.289390078435605907e-02
3.014646352055535550e-01 3.250268286145167607e-01 5.330902409313508228e-01
3.331882699870735570e-02 7.771090171365948596e-01 3.353956820468205202e-01
5.099027383654345380e-01 7.139683573345538548e-02 4.581867617091346934e-01
6.654174457892199079e-01 -5.109409142096857370e-02 2.462945727029539900e-01
8.321433224712717625e-01 -2.183689398468815768e-01 1.031678103685965964e-01
5.475355426632175782e-01 2.080236384955221340e-01 1.826076623470095084e-02
2.040209421899929765e-01 5.104347743509120017e-01 4.118756587140527392e-01
7.305027359578610824e-01 -3.072329188007274624e-03 -7.446590756617210705e-02
2.176007658028568381e-01 6.796168313809346495e-01 -2.709078335107757002e-02
8.149350486790140069e-01 -2.566037813193305372e-01 2.476705760761001018e-01
2.089410540720395074e-02 8.045075557665753996e-01 3.111562191939355460e-01
9.507870612314961445e-02 8.514883650669042847e-01 -3.632198687477593280e-02
2.646807713283437224e-01 3.881145856996229271e-01 5.034655509668543028e-01
4.932631905961584184e-01 2.115588062537794023e-01 1.838665923494440246e-01
3.284150183226516306e-01 5.910801302671566670e-01 -1.751463635286754084e-01
9.985622656537744557e-02 6.648405833346662241e-01 3.846600497171531741e-01
1.602069714518908894e-01 7.425386006882275236e-01 9.699384182902687918e-03
3.656326077731518187e-01 5.524916845764197282e-01 -2.041780950560905805e-01
4.586363700177849001e-01 2.924130771563683839e-01 1.058024395098392800e-01
8.061199030903259954e-01 -3.736188752369987848e-02 -2.365647934991869095e-01
5.397048609299135435e-01 8.677183728815184016e-02 3.267724683958539433e-01
4.802341074962367812e-02 8.851061799417995202e-01 3.584504855838253207e-02
1.474442840527233900e-01 8.270620450333678875e-01 -1.469863089711541670e-01
6.544636772003826763e-01 3.152644909685855396e-02 8.826176973728136477e-02
5.429562205753888371e-01 2.276607245428380333e-01 -1.297023154467007861e-02
4.387020362403654672e-01 3.555666905586793991e-01 2.204392932903619789e-02
2.094703208941140482e-01 6.732689160487868030e-01 1.379445564372198431e-02
3.727321788081839338e-01 3.368845438498946354e-01 2.770571606518223429e-01
3.141922596698751846e-01 5.162803832370747026e-01 4.526201417535471311e-02
1.402346410774316099e-01 7.506466110910773315e-01 5.473120233173032340e-02
1.495797907633618362e-01 5.136462534253261047e-01 5.787788771211765937e-01
5.472775773377285269e-01 1.982308219074497835e-01 4.197781557774039191e-02
7.036118224794368770e-01 -1.706978758875228319e-01 4.035061874867486020e-01
7.646504819397981212e-01 -1.156381093738968746e-01 7.925839640226370331e-02
3.478055654181760881e-02 9.440831627926024039e-01 -5.958773803937131297e-02
4.591077700636103098e-01 2.533639617218910178e-01 1.955691972947474211e-01
8.469516367275652380e-01 -2.394204463572421338e-01 1.049349625478125797e-01
8.793697003174765214e-01 -1.083533783450232463e-01 -3.052890347254491044e-01
2.387019886048207529e-01 4.182393915970743503e-01 5.162758380398132507e-01
7.858172704849757384e-01 2.740789278806487692e-02 -3.229211812446887708e-01
1.216254303898915310e-03 8.811804525853750292e-01 1.949748269375564946e-01
1.492292478411402258e-02 7.336218171782212805e-01 4.959805260255600867e-01
5.681888713276959102e-01 8.027387156734286378e-02 2.507087999233923448e-01
7.949983399271821627e-01 -1.795228356151055138e-01 1.313646607607519001e-01
5.695751019998173126e-01 2.400434798420271465e-01 -1.271922075398712881e-01
6.415749715218953542e-01 9.187550122291188170e-02 -1.151278193227254013e-02
1.461453667625496056e-01 7.504878721116373663e-01 3.616639741828249488e-02
8.425817633966493636e-01 -2.412299588839832976e-01 1.231641965255674820e-01
5.651468508855614914e-01 2.360379695271487555e-01 -1.036428269429469640e-01
9.323747644182219796e-01 -1.678840818383281752e-01 -3.359458624311510988e-01
6.070029189703545214e-01 -2.334048149260067873e-02 3.685600583326645308e-01
5.252517619790851855e-01 3.504805645927930868e-01 -2.433417329885848857e-01
5.620053041950828082e-02 8.707387481013064701e-01 4.323221755829985413e-02
8.239111476882263752e-01 -2.940225465537894545e-01 3.063803843969874485e-01
9.159135561748656951e-01 -1.964416604756263063e-01 -2.164569427908380750e-01
7.268391325832554983e-01 5.826463731227593534e-02 -2.061036359746420688e-01
3.765231200771594899e-01 4.897461688848475103e-01 -9.240033289094522206e-02
2.960288919088098214e-01 5.781512067421384904e-01 -4.117152933004641219e-02
2.086092744968760793e-01 7.054316873496004892e-01 -5.862724694280341264e-02
4.252788320353214635e-01 4.866320470969048850e-01 -2.413170038751820401e-01
6.669096799390890062e-01 -2.525466622334766875e-02 1.811145635271182719e-01
3.675491485840534089e-01 4.946783513096046914e-01 -7.517986255323637346e-02
5.146845192045618189e-01 1.117870600121131236e-01 3.484558571379668401e-01
5.245391110655635014e-01 2.983496989870988436e-01 -1.192032253624533411e-01
7.696033914347887306e-01 4.581334902058645242e-02 -3.140002867303260392e-01
3.810756637377372691e-01 3.133341602537713100e-01 3.053764216746289728e-01
7.405341686035310511e-01 -5.412737807350231911e-02 1.273767848767928638e-02
7.481690523982630348e-01 -2.305202427702488233e-01 4.005949664255812892e-01
3.499721739766629147e-01 4.428537209363863081e-01 1.022700980424339351e-01
8.495234548692626175e-01 -1.031926046139448744e-01 -2.217355770446930996e-01
6.107740774164237552e-01 1.804264637752089895e-01 -1.198247852533233931e-01
7.977125622359446666e-01 -2.727321963441888819e-01 3.405453015064868194e-01
5.236703039028978157e-01 7.929850901287767428e-02 3.956103046367999698e-01
5.024352835738329359e-01 1.884956688447243234e-01 2.083923553057629996e-01
2.254205015350999042e-02 8.321006755288834489e-01 2.413781235966620253e-01
1.840756267985839134e-01 4.989746944092501302e-01 5.025611652774115701e-01
4.768170359693230664e-01 3.637476652783828146e-01 -1.191858830861002722e-01
5.912407160644073123e-01 1.743329718201672707e-01 -4.300338346654137417e-02
4.617807819617363863e-01 4.383856887371291311e-01 -2.454807979433612508e-01
4.177958697935403864e-01 4.925086791321844903e-01 -2.310808375612862231e-01
3.186848425594013268e-01 3.203353920769884122e-01 4.888890322319716097e-01
4.331090120363113860e-02 8.433226672168481208e-01 1.486108318090141323e-01
3.473410353475698265e-01 3.059539393593383449e-01 4.307013326120400221e-01
1.695306855436984061e-01 7.241352387757676867e-01 2.284722397885191256e-02
4.856853136457351949e-01 2.972050612722767493e-01 7.946056895090435751e-03
3.638346689561557379e-01 4.154182453560665844e-01 1.219897878194757534e-01
3.165014581990310272e-01 3.678026950004302242e-01 3.849294238995467632e-01
7.258627233226077058e-01 -7.874977167495346431e-02 1.172943767282192129e-01
2.855067596773275818e-01 5.602500051144307935e-01 3.438152493736372495e-02
4.103188017191347070e-01 2.066679581564850321e-01 4.610231288634508706e-01
7.973434283560568714e-01 -1.135744554400842411e-02 -2.692332490495162878e-01
7.886489660845135141e-01 -1.759153966492551235e-01 1.432734327097188454e-01
5.682692599774508135e-01 1.618174243457081440e-01 5.984394384729360000e-02
7.889894814083879826e-01 -3.081639458116317565e-01 4.513123346117767776e-01
6.781594306987064336e-01 -1.024528527332705663e-01 3.255244416265367646e-01
3.016427110871676698e-01 4.999684304792684220e-01 1.235953320397938648e-01
7.223822066175720202e-01 -7.793011539972083401e-02 1.265287710709759594e-01
7.107612925104627166e-01 1.107063539520506540e-01 -2.771780136736063382e-01
7.834395872317662102e-01 -2.054766383880608782e-01 2.290615596608454874e-01
3.723368016009459547e-01 2.409071211648471655e-01 5.026701684520368252e-01
4.631098480717533161e-01 2.201059654811642063e-01 2.604882339040473505e-01
3.450451155843220485e-01 4.683344015721955245e-01 5.849377362030940691e-02
7.764300913300865581e-01 -5.209721915917829571e-02 -1.070055265942118639e-01
4.912258050702165701e-01 1.998857052729109962e-01 2.176794168448717426e-01
4.432350790855873468e-01 3.884672208286764072e-01 -6.938301524412773813e-02
1.743410357689896828e-01 5.484876114713073125e-01 4.180113238493087802e-01
8.910696006361699117e-01 -1.494775659513611632e-01 -2.466439224179811374e-01
8.797678950022741473e-01 -2.479058282234439525e-01 1.963788516845201698e-02
9.271432616642621971e-02 6.448118009337570067e-01 4.543572483100162263e-01
5.276700570958580139e-01 2.728366640968881707e-01 -6.959717009877706972e-02
2.057295693401869352e-01 6.890187376225557214e-01 -1.103657721715163575e-02
6.201570626734678182e-01 1.573353123290331945e-01 -9.590916334375779173e-02
5.181026788035466568e-01 2.924237578641579183e-01 -8.473135928775403503e-02
5.514220647496356209e-01 2.217864788996820324e-01 -2.636077899788874523e-02
6.376207182567960041e-01 1.647612274798760101e-01 -1.692144936329749161e-01
5.700802378662100933e-01 -3.732035440874020751e-03 4.410125868139367911e-01
6.359208551423424505e-02 7.318383386840717764e-01 3.442307675861829841e-01
4.076312729684152814e-01 1.783033788356571114e-01 5.359349603978679211e-01
7.150142864896643635e-01 5.761219699562095120e-02 -1.666959754399824634e-01
1.922954856912370558e-01 7.684976849668039289e-01 -1.537798901103350768e-01
7.890246503185064375e-01 -1.063592820612301593e-01 -2.051691633495779724e-02
2.218359821414416788e-01 5.044774809071547184e-01 3.687277477455456753e-01
4.983710909167304859e-01 3.911211736807308492e-01 -2.522227126787284224e-01
2.513818992324609036e-01 4.787741438430022090e-01 3.341544915548623207e-01
6.417405238894802189e-01 2.150696184157063484e-01 -3.000082910210746245e-01
3.783123153407472739e-01 4.621190547792488057e-01 -3.355414586762046902e-02
7.604426713868072119e-01 -1.490836847459856007e-01 1.709174507833030043e-01
7.463234229750757009e-01 1.731024423711207197e-02 -1.727938247802727756e-01
6.038035829740479032e-01 8.350417109479460476e-02 1.290611769277425769e-01
6.139430412751559901e-02 6.994224867157613490e-01 4.270434366256622427e-01
2.910213185926164847e-01 6.119717461573531692e-01 -1.041842573835414926e-01
6.232665982614083999e-01 1.284018863959779377e-01 -3.823938343425421771e-02
1.037941226690418210e-02 9.076105256080015948e-01 1.038392812746205124e-01
5.660551035092517003e-01 1.404013572118686104e-01 1.169971749135184230e-01
4.724111941727350827e-01 3.348161531192096474e-01 -3.744398933549850095e-02
4.834154708077481599e-01 3.502395298150612901e-01 -1.087497687767473159e-01
9.073996723871885495e-01 -1.710700537617169115e-01 -2.484873992992655545e-01
9.195345985411063072e-01 -1.810400699319693607e-01 -2.640585494149146339e-01
8.772466144206504390e-01 -2.310800539853438695e-01 -1.161492717176665010e-02
4.414386358170932501e-01 4.735328492267873446e-01 -2.624679916141658964e-01
5.028407422580180586e-02 6.924326070578155079e-01 4.789754292232053512e-01
7.096848673170277344e-01 -1.096863417080351372e-01 2.414364078549770809e-01
3.479169792951015139e-01 3.057129238411618322e-01 4.294195853313626521e-01
6.902769603566245582e-01 -1.151610411022321867e-02 7.414037061563118203e-02
8.246795054660219781e-01 -1.319397395048989285e-01 -7.494826008332257372e-02
8.413117659404463489e-02 6.528282321896105023e-01 4.631162608397861313e-01
6.129588579382508895e-01 1.091583163909775472e-01 3.976460964572273160e-02
4.874075493553610694e-01 2.339517315785704932e-01 1.502827162124087401e-01
2.868551430351573561e-01 5.308853165057817458e-01 9.870148073975290592e-02
4.549434214023475587e-01 3.049118077301182228e-01 8.841765899751509450e-02
4.281928027654425817e-01 3.233581294478784507e-01 1.309989843985912283e-01
8.684505640322911502e-01 -8.277493444164107927e-02 -3.300974006143727046e-01
1.628259387598080532e-01 7.890817330515268457e-01 -1.074850048176329564e-01
7.964355316632847348e-01 -7.514777725583210444e-02 -1.172153467037831132e-01
1.889022581576748905e-01 5.714007272577883434e-01 3.178031619062262614e-01
3.612354587752707458e-01 2.930142733992341375e-01 4.164349107227910962e-01
3.115848293855859596e-01 3.461891428729432230e-01 4.512020313724369736e-01
1.755886090789555709e-01 6.460854979987793456e-01 1.858803642192850269e-01
5.037049859101274535e-02 6.723042593143052637e-01 5.257483877971982356e-01
8.099666181732820824e-01 -1.174668412583768501e-01 -6.164368868799344897e-02
1.800287192594175745e-01 5.126797203180212259e-01 4.834906383749031367e-01
3.171578136760767053e-01 3.954555393979410360e-01 3.181884206750002497e-01
3.532249548622596325e-01 2.916437761283707242e-01 4.453012317199878667e-01
7.361835126935618590e-01 5.995885742918907746e-02 -2.399999195473317692e-01
1.938537864414766609e-01 7.185860293260414311e-01 -4.210408451110706635e-02
2.114284698853375055e-01 6.533959862485211323e-01 5.397403930290584073e-02
7.324215242672497128e-01 3.947363974455522090e-02 -1.800638394288464894e-01
1.643524855906555726e-01 6.988557423118935130e-01 9.852692388002719237e-02
7.421141206163398563e-01 -3.544695998968548645e-02 -3.598923282656919798e-02
2.798236442217370556e-01 4.785109444144471924e-01 2.436525163651844517e-01
7.912332408339371737e-02 6.497530138288044599e-01 4.863479284230935451e-01
5.595908653591527004e-01 1.073674337416656993e-01 2.149227854975668539e-01
4.877718659323717620e-01 4.089594685252233019e-01 -2.599634315647815219e-01
7.594481794490395288e-01 6.321327279506656384e-03 -1.891543666140803326e-01
3.613518080440725755e-01 4.007582829775169220e-01 1.642115180752060088e-01
1.281723188201755459e-01 5.565275258714621476e-01 5.471261901687611839e-01
2.828791700861926217e-01 5.149121487579992884e-01 1.487762148556023845e-01
7.083117176428678219e-01 -1.368265210670666365e-01 3.092754139924449586e-01
3.333669484691598739e-01 5.875066931419048455e-01 -1.826577035501708024e-01
5.617738285414025645e-01 1.586881986445833059e-01 8.796752513472264057e-02
7.554997459132816173e-01 -2.458207059640311193e-02 -1.042685806176742586e-01
1.885969723439928358e-01 5.963779495610385117e-01 2.603971567399541165e-01
4.242206545976742738e-01 3.888318952185617072e-01 -9.320007599665449186e-03
7.209943615666037919e-01 6.802885247026081716e-02 -2.102028402598690449e-01
7.364455240372039801e-01 -1.609569972367727864e-01 2.755495083989531468e-01
3.805747669582064119e-01 4.791526525536187187e-01 -8.061811473677416018e-02
5.558340642801755660e-01 3.040155218762277678e-01 -2.327048977552247933e-01
5.181802291997377186e-01 1.658480204037617589e-01 2.108898421886069852e-01
5.210222517276269505e-01 3.711361542595689733e-01 -2.780741460899791018e-01
6.686508742346030099e-01 6.277415060899968480e-02 -3.023016744137746459e-02
1.299178323577209193e-01 5.903772287319450918e-01 4.624108123910882218e-01
5.613998626269257608e-01 2.226784058540144384e-01 -6.041095402514498613e-02
3.403318917363970519e-01 3.828151500913337113e-01 2.734937403169646619e-01
7.583162005571620901e-01 -2.195566775722804509e-01 3.424598899271259489e-01
8.852142853200696271e-01 -2.264419778973432995e-01 -4.798196250724429124e-02
3.534680158098723601e-01 3.068686670483694590e-01 4.089345059026456286e-01
2.094176888787804836e-01 6.788887901194458063e-01 8.266648603580578668e-04
6.105568125029116333e-02 8.638281415847260947e-01 4.383152729725678376e-02
3.368315549350013316e-01 3.247539865665037273e-01 4.204250166655668086e-01
2.954936384027229690e-01 6.564431267891808197e-01 -2.224634254343451079e-01
5.390490660703822767e-01 1.375968566618891720e-01 2.100703764907696502e-01
8.205289731171043766e-01 -1.498903566446091740e-01 -1.969202981419087423e-02
-5.209136686466905170e-02 8.265229424782246648e-01 4.935148594397563704e-01
6.154284238568473731e-01 1.343541479289278862e-01 -2.704202737764452649e-02
5.077688152130898497e-02 6.447964896387227141e-01 5.887456455491534291e-01
3.264935674391109544e-01 5.358662167144775390e-01 -3.992869537671286245e-02
1.551324985962761471e-01 6.125881357344264977e-01 3.297142247472281684e-01
4.551184613203415052e-01 4.498981402447390643e-01 -2.510473516817189332e-01
6.898856500635272004e-01 6.520278010511701763e-03 3.323410854054879848e-02
6.506993623900516610e-01 -4.454569145263848930e-03 1.844265968731815530e-01
4.627777418434308454e-01 1.979667901590262402e-01 3.133023064847133554e-01
-6.148766049214511586e-02 7.993674857212291762e-01 5.870928665169414806e-01
2.324649540314152052e-01 4.559337237944562915e-01 4.481469094127299435e-01
8.021067484776415180e-01 -8.805270863581636520e-02 -1.052187408310690658e-01
4.006337919742160580e-01 4.771269131530802010e-01 -1.401449252181378724e-01
2.960695549250488279e-01 3.819588773297831752e-01 4.172960022636425514e-01
2.842110092736784277e-01 6.770067335606050341e-01 -2.343851533756019234e-01
7.471843209000378350e-01 -7.986174568215247127e-02 5.158681594069809001e-02
6.950683550309965097e-01 3.468437140298769733e-02 -4.920274313607105737e-02
1.330342694829599048e-01 5.680420701476599499e-01 5.046350917915353174e-01
1.938208128596212998e-01 6.792935789451048922e-01 4.984729963442856987e-02
5.909139067569951775e-01 1.398082136463570102e-01 3.874490793325383042e-02
-4.561275022675431029e-02 7.840106616382815918e-01 5.721317568605888138e-01
6.500939566398671321e-01 -1.371068017834771169e-01 4.964394988293523991e-01
8.043477898490101197e-01 -1.720445251809777920e-01 8.393187634644354300e-02
3.193061783204614867e-01 6.080030757536291075e-01 -1.855221231794902115e-01
6.372049334649240171e-01 1.567366691682784974e-01 -1.491251348186226344e-01
3.041753128554686714e-01 5.161044385947399782e-01 7.776400622686419073e-02
7.809139027229947683e-01 -1.777461679725438337e-01 1.723332269194766120e-01
3.663271588043517935e-01 3.651814856658539554e-01 2.314327127000154749e-01
7.347853987030694700e-01 7.968990128178886356e-02 -2.816419983762126766e-01
1.247464906065329920e-01 6.811577321905738502e-01 2.667793374876971657e-01
1.423309347025556448e-01 5.696209892341098646e-01 4.711611848208809294e-01
7.357839880660632659e-01 7.756145225350466466e-02 -2.798658919313665172e-01
1.385109036885001366e-01 6.736064926832573407e-01 2.403340240934981331e-01
4.643344100950637654e-01 2.363609144288283115e-01 2.185693775357760993e-01
8.597924945949364517e-01 -1.257332174786456591e-01 -2.019454364344770159e-01
9.037566745458847084e-01 -1.611219675951532093e-01 -2.600700959584184568e-01
4.057730896226213191e-01 2.866752694873070939e-01 2.885695992847245872e-01
6.704954259664757110e-01 2.372010554305977771e-03 1.050500049106711242e-01
5.565710777679192534e-01 1.106621871076768210e-01 2.168956510338884425e-01
5.679179337411466300e-01 1.319810588762033998e-01 1.307117030564921567e-01
7.906001266386650794e-01 -8.829249646508695315e-02 -6.779512871888404568e-02
3.860660091725962584e-01 4.391071780691429005e-01 -4.604159626886036166e-03
3.844823222899833026e-01 4.681195109299241541e-01 -6.734665851990107033e-02
4.453030929383944847e-01 4.275895219441157025e-01 -1.674562198374357491e-01
4.876843376778101646e-01 1.177611573736532385e-01 4.209904049806995618e-01
7.599686762040047672e-02 6.716912176537332968e-01 4.450836255769695105e-01
1.055884688174145158e-01 7.623472871348053737e-01 1.383749499583658560e-01
4.864187635230735607e-01 3.066653594104832292e-01 -1.651701639594064033e-02
4.490275809300012244e-01 1.783894692511173996e-01 4.031147264316698453e-01
1.038348804242428258e-01 6.906841414790698686e-01 3.115047783491390887e-01
7.720249019045418715e-01 -4.247376249083354566e-02 -1.153876148806153995e-01
4.623058647538487165e-01 2.260363282102124949e-01 2.492017401336536209e-01
4.478466528121418655e-01 1.550043103032004155e-01 4.615605969365892403e-01
-1.413063954705997410e-02 8.420458313696856933e-01 3.356176225869649254e-01
8.095626131252806612e-01 -5.845163529260891805e-02 -1.982969126246052760e-01
5.116789514196208311e-01 9.449158019637669825e-02 3.985126519369122655e-01
7.752352470822796437e-01 -2.685460688638713900e-01 4.027695629584683856e-01
3.036085499215404604e-01 4.125618758199469105e-01 3.216095194985694183e-01
6.357294491888865196e-01 -1.423579350825632424e-02 2.552483805153466512e-01
5.816699311342382606e-01 8.242131266102510623e-02 2.025006708345896411e-01
3.806410740899149325e-01 2.833305165817194271e-01 3.769019384321936617e-01
6.551526048785353273e-01 -9.256070483126491166e-02 3.761072949999533788e-01
6.501067043515057486e-01 -2.706444373111375687e-02 2.391756397613530039e-01
6.273113020396998696e-01 -1.033760693620743853e-01 4.905817111931077834e-01
4.788689641753994253e-01 1.577874070767719961e-01 3.556707180512615474e-01
2.194332209057329661e-02 9.582262547839447420e-01 -5.152116987127321190e-02
5.657554845727215120e-01 3.031897262969105999e-01 -2.625592981816977645e-01
2.379551310087644755e-01 5.680532114965598511e-01 1.684800497717831302e-01
5.280001353985774859e-01 1.764479302594470500e-01 1.546531732379136936e-01
2.269623136703138311e-01 7.029894813349754079e-01 -1.117152006111677975e-01
6.469357945548650513e-01 1.108367613798980494e-01 -7.300872060194087132e-02
2.105500975545386566e-01 6.992727040567020547e-01 -5.044838350917236341e-02
6.941072973401207769e-01 1.172034096485047860e-01 -2.390113652636914887e-01
6.061088265071282732e-01 1.243537303642229114e-01 2.619052273024017122e-02
8.475944286418215512e-01 -2.447567516445132429e-01 1.153492521392789766e-01
6.845109661778550070e-01 1.322692059666526754e-01 -2.434843077599958272e-01
4.152349140431516039e-01 1.831394765944687197e-01 5.002712728458612590e-01
6.297991517294650871e-03 7.966771350426151699e-01 3.762204973131495489e-01
-2.299337771170627612e-02 8.732846127184789031e-01 2.909903031950799579e-01
3.269235325797901215e-01 5.220500851045352109e-01 -9.011067163962880808e-03
5.115781955444074214e-01 1.636527403710609507e-01 2.371718493648051207e-01
5.223491608642750750e-01 2.472082127034499754e-01 7.355356759667831638e-03
7.371754460190796943e-01 -2.059050508697774229e-01 3.782767690164811070e-01
9.045054004301971151e-01 -1.821965473326941087e-01 -2.132071063526328469e-01
3.038990827528008642e-01 6.276431048075565844e-01 -1.820716778824078563e-01
8.811222717323808906e-01 -2.024748850028297298e-01 -9.089547479617829384e-02
3.022554698345360502e-01 3.656787324103603631e-01 4.355332303319869869e-01
4.460079619674545692e-01 1.612892875564914397e-01 4.527600285919443635e-01
2.227575349659122739e-01 7.082390522384640619e-01 -1.105154147852542568e-01
5.670949537652577588e-01 9.358733534909136065e-02 2.230932198548949141e-01
1.450082985179005357e-01 8.424090987334478253e-01 -1.750558802762968158e-01
2.152206343923965606e-02 8.985968259076598796e-01 8.921164497815450845e-02
7.214891558027131113e-01 8.804372203882922243e-02 -2.585725616131131499e-01
7.762354438368937459e-02 9.083216162264833304e-01 -1.132490898040068722e-01
3.079468129158945966e-01 3.486542899003266527e-01 4.570946789576534885e-01
8.332332716340067336e-01 -3.140740398792180033e-01 3.233858107737729304e-01
4.826769083773339575e-01 1.014538282055746088e-01 4.751506564781674546e-01
1.451837315807547046e-01 6.299253086508219690e-01 3.210610386350439271e-01
2.219954029929009920e-01 6.166036868326869591e-01 1.061230246597368865e-01
6.083351872255826631e-01 1.105073697646340725e-01 5.142380054810211792e-02
-6.934025193556809380e-03 7.385900128646101237e-01 5.543892814499888910e-01
3.443551050148396797e-02 7.624454772932508506e-01 3.660941187899746097e-01
8.809465042281778846e-01 -1.471426425919649672e-01 -2.196709962675436056e-01
1.808705017365762058e-01 5.897774961760620105e-01 3.005785116538602364e-01
7.603038043763635789e-01 -1.191916394122241249e-02 -1.492584997546765047e-01
8.758603045225692163e-02 6.608565281325127216e-01 4.332820725521528415e-01
3.741844728420403721e-01 5.462128153770980932e-01 -2.168984188441224481e-01
5.522521174157033474e-01 9.454223692492652598e-02 2.684122970129044217e-01
7.340706044454530232e-01 -2.211193558248404356e-01 4.237868741327622812e-01
6.379250885118461500e-01 1.796501124595883134e-03 2.107389914625909522e-01
8.230840443398498296e-01 -2.368964574186969985e-01 1.754984099936266195e-01
4.573396106324935650e-01 4.434144655721533046e-01 -2.430075903597503639e-01
5.541501282349955426e-01 4.560379113909131255e-02 3.767249235140556762e-01
7.557076115084693235e-01 -7.251672853614223382e-03 -1.454441563031093620e-01
7.078074880860745210e-01 -1.475760495719405201e-02 2.555579456500222876e-02
1.202194161997476446e-01 8.777131578568706516e-01 -1.781640672113379564e-01
4.596930766441341687e-01 2.939201340198134282e-01 9.889439673316158252e-02
-2.949259446297598786e-02 7.812401652801986840e-01 5.269645405485506862e-01
2.286531531658310412e-01 5.116246803860702297e-01 3.301814501453853579e-01
2.865515270100477130e-01 5.939876457096016082e-01 -4.782696752705447446e-02
2.317000051014311834e-01 4.635316495121385993e-01 4.328374499395405417e-01
4.127645830291578055e-01 2.431067158233676528e-01 3.680124507635794129e-01
5.342723829902524812e-01 1.202283216824913958e-01 2.659719584577712737e-01
4.961344917143374611e-03 7.832782189203312262e-01 4.118224816850711845e-01
2.709451857382886852e-01 4.693350882074801556e-01 2.935444102258299437e-01
9.230219630518197993e-02 5.880121738567750667e-01 5.884461815775484661e-01
-2.346269644032824772e-02 7.805812411372858861e-01 5.091871283030220408e-01
2.114980850974214899e-01 7.352608572280027177e-01 -1.376073809219296173e-01
3.924376580004284576e-01 4.048486983010572970e-01 5.506223888592813587e-02
6.666725557947571490e-01 1.064643186061722951e-01 -1.260177149647599415e-01
1.434467893802122695e-01 8.259904250060021713e-01 -1.316748603966546027e-01
2.628853047837618750e-01 6.290989100871536843e-01 -5.408110079360471667e-02
5.345318767865400549e-03 -8.140736853178667243e-01 -4.214179331988857080e-01
-7.403824356795264405e-01 1.739800084995541118e-01 -3.419389239184307816e-01
-3.004037056574179188e-01 -6.198854600256693548e-01 1.041796081502007754e-01
-7.039848370059429428e-01 -1.431492481535688865e-01 2.827429370526020058e-01
-1.786501242823641811e-01 -5.813359741402864822e-01 -3.759844944366366182e-01
-6.099141674182777528e-01 -6.522967164621598646e-02 -2.007622267608928091e-01
-4.188152617393007260e-01 -3.382342578919476650e-01 -1.748291674299493892e-01
-9.812109394154522324e-02 -7.471145665738812003e-01 -2.464648054159370438e-01
-3.868538242993141418e-01 -2.783823392645738415e-01 -4.171255277622182289e-01
-2.141805488788005030e-01 -5.297789483271648781e-01 -3.826717761634833570e-01
-1.384541976953861109e-01 -5.784388466752199420e-01 -5.115299085986615424e-01
-1.866310580548310172e-01 -6.776942366873159873e-01 -1.251798605704439737e-01
-2.571713518169884138e-01 -5.832613702547624346e-01 -1.199299057314364564e-01
-2.639428674427968802e-01 -4.993452938275284025e-01 -2.943894582589889897e-01
-4.758356342889115131e-01 -3.016316251221924927e-01 -7.771456569411079596e-02
-4.925388378978229342e-01 -3.446715398901909477e-01 7.640195089280664431e-02
-2.579403552803261404e-02 -8.250454444277152133e-01 -2.960121661315207597e-01
-2.285027556706715479e-01 -6.371932559790113304e-01 -8.570856066694855502e-02
-9.118210553660656137e-01 2.269717175848034452e-01 8.342159323636548496e-02
-7.847285381366009283e-01 2.196509767560811122e-01 -3.066253131854992930e-01
-4.926779481636640590e-01 -2.815565046444615249e-01 -7.068321538107880109e-02
-3.255349888084811405e-01 -5.630127977128307482e-01 5.175193577688536051e-02
-6.145418711332717443e-01 -6.546364369713307541e-02 -1.853898078987948894e-01
-9.194308737363035555e-02 -8.492519780998520895e-01 -2.751165512768567745e-02
-7.757127559989523968e-01 2.162383082582579052e-01 -3.275315800144038558e-01
-1.591123682142706053e-01 -6.107630828713218607e-01 -3.697908914291993532e-01
-3.970462285136064362e-01 -4.538994229856996854e-01 2.579689913590831399e-02
-5.853046798096631781e-02 -7.591213951517274960e-01 -3.452331894774278709e-01
-1.950251683008046022e-01 -7.447300152432204667e-01 5.840740127847592750e-02
-7.965011205508428782e-01 1.201805181783092286e-01 -3.639885995820921205e-02
-5.651647672420194723e-01 -1.140944769616235033e-01 -2.299022941352444893e-01
-6.798396128499932800e-01 -5.228130363870730352e-02 -7.012746052873845316e-03
-1.990185517062913190e-01 -6.242492667249925908e-01 -2.104218868970789968e-01
-1.246509386274481379e-01 -7.003103315038213816e-01 -2.708771277934912125e-01
-6.242161917385730119e-01 -6.679629421564105274e-02 -1.512816783965602041e-01
-5.673853668859825117e-01 3.962898538142978384e-03 -4.987463362784291809e-01
-2.630708623594330553e-01 -4.589648228535349039e-01 -3.915720382542447475e-01
-2.398884830038595373e-01 -5.292212870022647841e-01 -3.016162574479113179e-01
-3.480102012064237305e-01 -5.398092655625761349e-01 6.951644877005563883e-02
-6.435714215340538891e-01 -1.973945902198282476e-01 2.159979105413615819e-01
-1.378875144509956498e-02 -8.848263128052740178e-01 -1.947355713097693730e-01
-1.669410159577139063e-01 -7.501870475616083667e-01 -1.880843712095029222e-02
-1.979087329241017990e-01 -6.635405900133959367e-01 -1.221342362480122568e-01
-4.564484572477526259e-01 -3.302684809499343288e-01 -7.288577025620587846e-02
-5.978561643427422467e-01 -1.231396192636139836e-01 -1.040277851897090933e-01
-2.797085217920426969e-01 -5.195875483562334418e-01 -1.965658402300356211e-01
-7.941317472610093242e-01 6.158747079558082871e-02 9.297123359291935285e-02
-2.632996769486206645e-01 -4.689136958512928888e-01 -3.675835970170073796e-01
-3.274045570917697434e-01 -3.678821290321916404e-01 -3.983748135979639504e-01
-5.729469347029276793e-01 -2.769421015989405321e-02 -4.069308514413892963e-01
-7.147390033977171209e-01 1.384486983599203247e-01 -3.410372129181641898e-01
-3.960670319554502328e-01 -4.205372930119862795e-01 -5.532377527325908068e-02
-6.079980060130241171e-01 2.526026879177632745e-02 -4.184203441537236445e-01
-2.169295096535338585e-01 -4.489753426043027740e-01 -5.627427867677762263e-01
-5.262037289051577638e-01 -1.832029519937766471e-01 -1.931791202863704093e-01
-3.442668216933357783e-01 -2.975351084676770563e-01 -5.087896615425947511e-01
-1.691938296588975099e-01 -5.686813212185390931e-01 -4.358592250490139763e-01
-4.511501225086388955e-01 -4.785675899282866297e-01 2.567880863210266207e-01
-9.120554796646453966e-01 1.497409341065464861e-01 2.646988652028304245e-01
-8.095113550359024635e-02 -8.114378316887485010e-01 -1.511161727834750002e-01
-4.279628146048007897e-01 -2.296677166952112159e-01 -3.992969837149857315e-01
-4.099514289202432216e-01 -4.928217985498980491e-01 1.581212580133605772e-01
-6.623666534824413921e-01 -1.984842042688045038e-01 2.787580896241253492e-01
-8.744453640640877934e-01 1.710686227160388428e-01 9.435619616294871337e-02
-2.837092614515999145e-01 -3.770102302122108062e-01 -5.170220938990618409e-01
-3.438265987703746362e-01 -5.595916386611206050e-01 1.023547982733133965e-01
-4.255087073879954690e-02 -8.520226824628371887e-01 -1.792701950936910760e-01
-9.042188270889600643e-01 1.087640712170366564e-01 3.353760744776811409e-01
-9.846657146141435391e-02 -6.933490266313279138e-01 -3.710344836619609010e-01
-8.049669947577889895e-01 2.009550290672913186e-01 -1.980869110999010363e-01
-5.153904589253193169e-01 -3.384052122720922484e-01 1.349629057234383867e-01
-1.214754991404981693e-01 -5.758525956832143411e-01 -5.719689382829651336e-01
-7.733514548985568338e-01 2.444809440127637123e-01 -4.011132525848439823e-01
-3.725039023829852525e-01 -4.578584048194537792e-01 -4.357387148625719436e-02
-3.964082756396471452e-01 -2.935207229558575159e-01 -3.511306397726089989e-01
-2.522491442443881571e-01 -6.922428543861113281e-01 1.190443344225431271e-01
-1.714738646131270250e-01 -5.712490532426944823e-01 -4.225527562292163974e-01
-3.561046049967369620e-01 -4.631852593459995227e-01 -8.365989377074078970e-02
-5.607934208484183225e-01 -2.735934496831232687e-01 1.289208828405517815e-01
-8.106942310228062443e-01 8.454101709864082770e-03 2.702302924839360410e-01
-8.903693119320166272e-01 2.264627722080554406e-01 1.588751757935397482e-02
-4.618420881270406397e-01 -1.767412009260153349e-01 -4.144751346954773097e-01
-3.894591905275490151e-01 -4.305877998443746746e-01 -5.299997207517084113e-02
-6.391031527953363600e-01 -2.777939422916228876e-02 -1.947908195901148776e-01
-5.885618866939519300e-01 1.821699448669900079e-02 -4.642231444587991973e-01
-2.466357728729107468e-01 -5.926414352947027009e-01 -1.317563235642408570e-01
-7.415189738345188131e-01 1.376501307648453909e-01 -2.533770995425206896e-01
-8.548101750286297706e-01 2.995291651412204659e-01 -2.688233025564068512e-01
-8.946139929883232256e-01 1.726793103909749771e-01 1.552043181210367440e-01
-2.394183206360588623e-01 -7.022266515210398019e-01 1.012759900753421316e-01
-5.088099680859504703e-01 -1.494807714926108533e-01 -3.277278158968883193e-01
-3.838246265331957119e-01 -5.006761976069808995e-01 9.277989353102610026e-02
-5.679797221150851838e-01 -8.115567118103030053e-02 -2.978783448201287043e-01
-6.313618368001513437e-01 5.438126282389208095e-03 -2.972368882924277256e-01
-4.731331653541124282e-01 -1.328860126771453098e-01 -4.808136596823593956e-01
-3.447969945462116548e-01 -5.563383539602890782e-01 9.785907639159885374e-02
-1.151753385605371466e-01 -6.720358918037518947e-01 -3.673248169441892252e-01
-3.858444139237637849e-01 -4.186160598580181413e-01 -9.256426067365614019e-02
-6.588275353745964846e-02 -8.398044304326948151e-01 -1.330832225884913123e-01
-7.725246042384265044e-01 -1.569185752590475033e-02 2.043893911803638663e-01
-2.646840795693823911e-01 -6.704402655042099868e-01 1.079180748173287213e-01
-6.607281428962096248e-01 -2.144669212264000216e-02 -1.403147022922884568e-01
-8.488373518913555626e-01 2.651074969448266039e-01 -2.074977573723044144e-01
-8.587682465149368838e-01 3.017801188522871159e-01 -2.614046379638947371e-01
-1.880050990645580622e-01 -5.592635482500234456e-01 -3.976085901086126029e-01
-6.725436021811979082e-01 -9.083773375647015424e-02 5.973874717856947347e-02
-7.219753334332286165e-01 -4.150945765474645804e-02 1.027959736403293856e-01
1.117536657277458552e-02 -7.483616976016059796e-01 -5.936965048207178963e-01
-9.122212262882101186e-01 1.784671384829107643e-01 1.980826144661496369e-01
-8.510627096908972289e-02 -7.342949593668788300e-01 -3.181253701489413221e-01
-4.207802716703151757e-02 -6.806910509922966535e-01 -5.812711612226827418e-01
-6.833966262886260745e-01 8.107110052694631308e-02 -3.073273869249701362e-01
-3.677741262849614223e-01 -4.435534906994977877e-01 -9.216399408006024918e-02
-7.034727055448157795e-01 -1.167186840193464997e-01 2.193210452055290027e-01
-5.155736414502253284e-01 -2.393605344044993366e-01 -9.596628449341579326e-02
-8.084150574511954623e-01 2.693600479096114886e-01 -3.469366635681960243e-01
-1.669929417750710965e-01 -6.226806275916726419e-01 -3.166871925799674692e-01
-6.463289310070750027e-01 -4.111920697833410659e-02 -1.404603126788652179e-01
-3.355773357981556293e-01 -5.112842701029448600e-01 -3.699093506062729048e-02
-3.551199982948607392e-01 -4.189333085794881839e-01 -1.902527582845083554e-01
-2.878608593456241094e-01 -5.910635256644283242e-01 -3.374207254284701096e-03
-3.268915146081750600e-01 -6.347970605751517281e-01 2.238928276888867974e-01
-5.554225833677967072e-02 -7.918901095026689152e-01 -2.782097724365704128e-01
-2.641259097694561575e-01 -6.857544576561799277e-01 1.419266840642374461e-01
-6.843248067365375054e-01 1.221855488452348037e-01 -4.004584803016851824e-01
-2.969691584073895219e-01 -5.754474515340736174e-01 -1.069689987130872065e-02
-3.653597003001671228e-01 -5.519055224169829854e-01 1.533729440338657268e-01
-2.769430977189956192e-02 -8.536408131829347212e-01 -2.230829488821283180e-01
-2.850856000617764119e-01 -6.091593062111659851e-01 3.003357625427378885e-02
-3.207067844505209209e-01 -3.604225657116792991e-01 -4.372687490498383123e-01
-2.415024742608797015e-01 -5.242121832065267384e-01 -3.081543403817570415e-01
-3.415416303762062733e-01 -6.102958105374788333e-01 2.135551196098617044e-01
-9.172623096585190705e-01 2.291529007876683399e-01 9.575493419850455989e-02
-7.798587138456749557e-01 2.772698702985473274e-01 -4.569101366507672402e-01
-5.693060445869754238e-01 -6.081434057988797937e-03 -4.691146334233063375e-01
-9.082879948706132356e-02 -7.035213466776382152e-01 -3.717254731135533063e-01
-5.897738355997359516e-01 -1.366777409059635739e-01 -9.827544499848842041e-02
-7.113793865062202348e-01 -1.027674983844488465e-01 2.120404588432034387e-01
-5.818398343856016203e-02 -9.531819227139677331e-01 1.072715314720331520e-01
-6.907689987675867949e-01 4.836522316621030826e-02 -2.072592428435105216e-01
-4.157699581844276349e-01 -3.845183311348315813e-01 -7.639662933185591143e-02
-6.621863703834276471e-01 -7.594773375055646758e-02 -8.247368298232634481e-03
-7.422401478834635968e-01 2.328781131867349030e-01 -4.736612657011730065e-01
-4.736458321095378676e-01 -2.748452049266507657e-01 -1.473429261794165779e-01
-2.787685488405706735e-01 -4.640510466479463303e-01 -3.293932502347045599e-01
-1.369961485322532257e-01 -6.082614863062719701e-01 -4.464908265155363432e-01
-3.626201540849033900e-01 -3.355294008407667672e-01 -3.611808180494534004e-01
-1.421884331684339919e-01 -7.271889157259497916e-01 -1.518648052392197745e-01
-5.244847994500934085e-01 -1.984944232967697231e-01 -1.629422805359736215e-01
-2.685751724407267060e-01 -6.209584809175063835e-01 4.720522428687181672e-03
-3.729337034865825018e-01 -3.991798999363198042e-01 -1.793574183206886885e-01
-6.130891578222371630e-01 -1.306832029443973364e-01 -3.759365113924128393e-02
-7.332983367120894380e-01 1.612901110344641953e-01 -3.349713281134146792e-01
-5.185305148929050256e-01 -1.845209838122227330e-01 -2.146804722937792897e-01
-5.409650632169160644e-01 -1.565072993395180134e-01 -2.082899201741355844e-01
-2.552585674616502098e-01 -5.455829123555907545e-01 -2.141308399064337231e-01
-7.843200645919281566e-01 5.970121976010214770e-02 6.594719842114270258e-02
-1.014916073445281119e-01 -7.586582086776456624e-01 -2.086837238886481427e-01
-4.061742781576445638e-01 -3.788462707794452156e-01 -1.203961538587259988e-01
-4.734154007513066142e-01 -2.893340377704883282e-01 -1.142136298614947892e-01
-6.629201960995392273e-01 -1.581103074778065221e-01 1.861578228465519125e-01
-7.251726108710981888e-01 -6.436986910509061299e-02 1.664749152852074976e-01
-2.478854576374274754e-01 -5.056383914135393898e-01 -3.311216102961404006e-01
-8.096780467201417641e-01 9.325598489478180431e-02 6.875116312304753452e-02
-3.668193112092891783e-01 -3.749718716505868743e-01 -2.555317971401756538e-01
-2.575521236255074453e-01 -4.523615899005689056e-01 -4.246871052918718137e-01
-3.348016774877380364e-01 -5.605127722480581776e-01 7.559531249141558662e-02
-4.547627978038405738e-02 -7.767916670380696775e-01 -3.457500488301427088e-01
-7.588609725288388841e-01 4.396475525335217377e-02 2.116919647786132119e-02
-6.334488615535982525e-01 -1.653188585794385934e-01 1.085921070529357463e-01
-6.589364585194835700e-01 -1.713037746436256725e-01 2.042349598056865945e-01
-4.132419987604005196e-01 -2.247843190912398037e-01 -4.578721224199199247e-01
-7.878270227514957424e-01 1.350912030819682169e-02 1.851558569640381624e-01
-2.002095528161797755e-01 -6.537993855430025425e-01 -1.375332079991548606e-01
-1.100245093072362429e-01 -6.560250811067932508e-01 -4.212513614648757954e-01
-5.863175211101323558e-01 -1.625148383656156437e-01 -4.895426083564376196e-02
-2.820383991231262266e-02 -8.712672783520138964e-01 -1.802488927030822807e-01
-6.292207710902083528e-01 -2.079510613361560123e-01 1.946992036338909271e-01
-1.437000953993740060e-01 -5.534105282837193940e-01 -5.532273929762245857e-01
-8.902175320263492342e-01 2.252184781685371007e-01 1.830979502484332902e-02
-8.542791720979039383e-01 9.732064028809632450e-02 2.021361575381634967e-01
-5.769169164681907658e-01 -3.028353789767188609e-01 2.489275552378628076e-01
3.005066242531734266e-02 -8.414131850549430025e-01 -4.366592039733103170e-01
-1.525563831064625786e-01 -6.999459437826667241e-01 -1.823297947811026998e-01
-3.083396153180921473e-02 -8.433162121927421095e-01 -2.371582867725952892e-01
-2.117022065484644444e-01 -6.097340342623921439e-01 -2.037172079882439424e-01
-4.656097709583628674e-02 -9.801839581935930523e-01 1.331525813495405275e-01
