2.242189204034575334e-01 -2.556728367233007324e-02 2.017943701083347863e-01
7.584203896409676127e-02 -6.218452689155986590e-01 -1.423374320489220746e-01
4.002094569247053868e-01 3.347195161782378636e-01 -5.587078606828423805e-02
-4.405216440866823596e-02 -8.494503780649683700e-01 6.743711039247944627e-02
2.273110367279949084e-01 -3.032301192599865143e-03 2.283653541195327097e-01
1.365289168389282604e-01 -1.750535621697772715e-01 3.878137362983246628e-01
4.263976486441092284e-01 2.576998656608298632e-01 -3.449037879065735002e-01
2.827138401293965292e-02 -4.515931645969758490e-01 4.409257406807262081e-01
3.454591373667041387e-01 2.984634938574700636e-01 1.698082109352341273e-01
5.137451440100082589e-01 7.625791397694265950e-01 1.529462480324796925e-01
1.546461549461895235e-01 -4.659939631215065381e-01 -2.682222201941245054e-01
1.329032993204844193e-01 -2.083401733989256321e-01 3.434867326395688591e-01
3.319200055381520964e-01 4.546163614006637488e-01 5.424893630334046701e-01
2.639703035793015684e-01 2.389793449908316769e-01 4.951059603317035651e-01
1.092845054010025685e-01 -6.217491214250563392e-01 -3.225009290837667630e-01
1.366434124079631551e-01 -4.813199327535258587e-01 -2.005488465307744828e-01
3.350187687047714302e-01 -2.560656487047130447e-01 -8.380667105360193325e-01
6.538513687098765348e-02 -7.391681788655044549e-01 -3.110959272089761640e-01
1.278091613788169267e-01 -1.886670736846139951e-01 4.087122811027375513e-01
1.716002135111035221e-01 -2.114686026200665037e-01 1.287989589351707931e-01
2.179367698764081429e-01 -3.662110468658421047e-01 -4.180449373591541562e-01
3.215381626086433742e-01 -1.868936728263249913e-01 -6.326231771236129342e-01
4.466534563764545940e-01 5.682461573199358851e-01 1.418195892239891565e-01
4.208273131832349079e-01 3.590445772777638989e-01 -1.203770608882933357e-01
5.495637339451643621e-02 -6.245283655399240796e-01 -3.485457853459877908e-02
2.774278702306325894e-01 8.407941485666786674e-02 1.252691402226494832e-01
6.424950846691662720e-02 -3.372136129063460497e-01 4.664052903585305110e-01
6.230612658445899149e-02 -7.533431476955000372e-01 -3.216941780123257488e-01
2.913186689174647181e-01 -3.597499512693129176e-01 -8.013784319458631122e-01
2.513934199833681715e-01 2.768458049660358911e-01 6.355985871134024467e-01
2.951381588108846210e-01 -1.175077406254597112e-01 -3.570975215673704573e-01
2.414418670120648258e-01 -1.661575561219018060e-01 -1.608871661373628137e-01
2.327632907660434625e-01 -3.239491484854916115e-01 -4.168978291363715227e-01
2.078248272940174946e-01 7.760449531779718690e-02 4.881975496213995513e-01
1.691246884470628820e-01 -1.256849529586881731e-01 3.067733483802404515e-01
6.337015123134620564e-02 -4.688303150357837623e-01 2.185664418653177066e-01
1.980354591466003122e-01 -1.270013160034797473e-01 1.483376094839535531e-01
2.555207167039638128e-01 2.256880849350332841e-01 5.151659657743845599e-01
4.442957947395793084e-01 6.131818440364581457e-01 2.407684625499334485e-01
3.285372067676193275e-01 4.659594039175985469e-01 5.825001055008963702e-01
2.828368874556879131e-01 1.183810812335322066e-01 1.619266108232572110e-01
3.165739073527399916e-01 2.025597371737481167e-01 1.415344661658445025e-01
2.822043498155084040e-01 -2.231467016317711938e-01 -4.900763321102151182e-01
3.682166979668326512e-01 3.630290626017061428e-01 1.709871297283971636e-01
7.714553585752896570e-02 -4.594700574335310317e-01 1.622417075479226367e-01
3.044725040659357340e-01 6.053906144565520753e-04 -1.807688332592873315e-01
8.285733319885740800e-02 -2.708640002472144093e-01 4.933865364742326398e-01
2.068525817813909786e-03 -7.371019483115401894e-01 3.432213446640227511e-02
4.379828929458800535e-01 3.087549538922241821e-01 -3.094024693407274595e-01
3.442152511963721961e-01 -1.195760430282482309e-03 -3.985494251409260058e-01
1.948479663315398902e-01 -3.827059971845102604e-01 -3.251868835399982505e-01
4.609076325489477322e-01 6.253872736652913433e-01 1.746074184531647422e-01
1.323891072530809787e-01 -5.459735354119540363e-01 -3.016807749276442241e-01
2.564459803755076428e-01 -9.544637158916502440e-02 -1.061017408865586042e-01
2.042425386436648171e-01 1.847066210051269419e-01 7.130520218399174492e-01
-1.709756691120115080e-02 -8.629093308257981265e-01 -1.037518295622402442e-01
1.538008525924993986e-01 6.346656109807402579e-02 7.524055785419242470e-01
3.229206389243397535e-01 -7.462212832353694314e-02 -4.246221600816424413e-01
2.721291337207172312e-01 -3.320956189954185622e-01 -6.448229398213612962e-01
1.717842291720509951e-01 -3.287004043728646852e-01 -9.716886861469387071e-02
1.056017532716429924e-01 -5.475732933210379905e-01 -1.602923907563441053e-01
3.713628364288545924e-01 2.200891209946837512e-01 -1.202903838524004287e-01
2.272645104733665156e-01 -2.779636733546453353e-01 -2.989949678045695780e-01
3.941867990970222141e-02 -6.151632074217862067e-01 6.690920106837222603e-02
4.572893782089682557e-01 3.962522259228941079e-01 -2.456052117123485035e-01
4.032608825715643386e-01 5.319489479627605988e-01 3.061696718290879971e-01
3.219045005464162279e-01 3.904360592852896411e-02 -2.010103901808359406e-01
4.337205851547835112e-01 5.676208158244296920e-01 2.103637039233998141e-01
3.307373250347888094e-01 -5.381108415124245120e-02 -4.268381121811191115e-01
3.757012281501855844e-01 4.586466024201608649e-01 3.141209652535696395e-01
1.091856501236059818e-01 -4.478846849847706868e-01 1.168936514507972098e-02
1.896125217293870846e-01 -4.033316020886498210e-01 -3.365351402591993391e-01
1.401928035505898007e-01 -4.761970671748015915e-01 -2.098588345693018498e-01
3.970545908369493837e-01 7.926693773652770947e-02 -5.290874264041363073e-01
1.929987902701418290e-01 1.313884340376247351e-01 6.713660553466735958e-01
3.679933396638006560e-01 1.605495997171849792e-02 -4.936742718536767938e-01
2.761341748103446347e-01 -9.142774763273249505e-02 -2.045639267571970898e-01
3.624001277887821670e-01 5.284949060900626661e-01 5.198943800719114661e-01
2.584656982646796330e-01 9.421030335366793740e-02 2.469698803791135489e-01
2.308926174309340329e-01 2.925632094916806314e-01 7.763177187349575847e-01
4.076135573433714576e-01 5.286180463833329846e-01 2.763044180494906854e-01
2.155917563136614257e-01 6.012333156455336447e-02 4.127646832230040252e-01
4.748873878489089928e-01 6.795445162035199660e-01 2.031488918982629899e-01
1.972455714283951334e-01 -5.009267122224596580e-01 -5.649899106729966425e-01
8.949979783746581097e-02 -3.017073007306242949e-01 3.983748524545014935e-01
3.403048576953993098e-01 6.170834606870435196e-02 -2.567444346291352653e-01
1.594580207781108247e-02 -7.579704011137265995e-01 -8.056294556009746533e-02
4.631705333047879125e-01 4.672302017319358569e-01 -1.411096498428121016e-01
2.364961890830415414e-01 2.878582611881836187e-02 2.398928688204885751e-01
1.185027691711092040e-01 -4.194512178257664425e-01 1.600982842598544856e-02
3.576575323889835123e-01 1.186278014213737880e-01 -2.410915216955911156e-01
2.860406572402148795e-01 7.254856592086997291e-02 5.669378615538706034e-02
2.126519611344123151e-01 2.560743427210286360e-01 8.046611306213623527e-01
1.878935240832883546e-01 -4.766395195639615556e-01 -4.679476297380207872e-01
1.956464215025861264e-01 8.472137207491558034e-03 4.212035635784500132e-01
3.941135042330071725e-01 5.142186292759276522e-01 3.214738732410976074e-01
2.417758763736994887e-01 2.101257748839622796e-01 5.594238382832936729e-01
4.195681393251435298e-01 6.209901229037183557e-01 3.891039724326837979e-01
2.006063828080005274e-01 1.631632576814483204e-01 6.913179074131090562e-01
3.197778172377064299e-01 3.742181711502602925e-01 4.536801974915629643e-01
3.989274935349750306e-01 1.942212955434223787e-01 -3.185826794490833613e-01
3.224338484301760843e-01 1.067611745433108550e-01 -7.391061999581627351e-02
-4.665034523120831222e-02 -8.594340284457099299e-01 6.228926333756686778e-02
1.266095077517749024e-01 -4.497009954524679443e-01 -8.575936016557819674e-02
3.627277025007769051e-01 1.604203818285636907e-01 -1.882311692662023417e-01
2.923446293128407758e-01 -2.979712091720513323e-01 -6.883537812350908336e-01
2.977865364916420510e-01 3.800836722001758039e-01 5.835307115332737382e-01
1.415144702820189115e-01 -3.106255899570483647e-01 1.007561613440828147e-01
7.743777097365070472e-02 -5.028199320119450810e-01 7.747451096692992145e-02
1.211271506891203886e-01 -2.081483761180521197e-01 4.073610344192498123e-01
-2.395266682655006890e-02 -8.633627737302509431e-01 -6.765394037216561351e-02
1.525432906039942138e-01 -7.412624112464386017e-02 4.951377810244318445e-01
2.484198130639282409e-01 2.441044353560048730e-01 5.888017851018435556e-01
3.369474439400850785e-01 -4.402664549497129626e-02 -4.415509686562391067e-01
1.933431763282536242e-01 -1.415675612429695696e-01 1.456885046367814851e-01
4.453594652947990284e-01 5.653157983270824527e-01 1.431742541467059537e-01
-7.059098170033561992e-02 -9.856455761612231692e-01 -5.081223520115955156e-02
1.573773190582482551e-01 -2.636904248709046050e-01 1.052828802296694038e-01
1.112827699610467735e-01 -4.955253217533351351e-01 -9.104543794232418386e-02
3.204606899136498988e-01 4.246588223443082399e-01 5.467965106366281525e-01
3.499312326251144412e-01 -1.535771110094493741e-01 -7.218042270819107209e-01
2.911810197056851623e-01 3.844786022914333246e-01 6.275869966037931347e-01
1.652728133600676608e-01 -2.712789767359188517e-03 5.635372787759622693e-01
5.002270023543221172e-02 -5.736932648490755682e-01 8.930752951157328035e-02
3.671369871734548318e-01 2.182957670121754012e-01 -1.009428532469325984e-01
9.193640836018725226e-02 -7.055992692570520752e-01 -3.898602829899217026e-01
2.607173389196294488e-01 -2.081113300807373168e-01 -3.453476572923504517e-01
2.714673989396068077e-01 1.173829165021564730e-01 2.213242676049132496e-01
2.252710635865877997e-01 2.098449277082423681e-01 6.478917706917065589e-01
6.869348633378606628e-02 -5.912332738393646370e-01 -4.504041477392593806e-02
1.945499178041747157e-01 -1.687028013429273110e-01 8.710651316700633584e-02
4.555776574193136086e-01 5.921442916100783105e-01 1.395553751123852493e-01
4.209605176547933092e-01 4.122203464641446269e-01 -1.904763589143283059e-02
-1.301234434759779637e-02 -6.974284719303240898e-01 1.917860031817247846e-01
3.441622368251232716e-02 -7.565185099172132555e-01 -1.773836726551444309e-01
2.138758210041346308e-01 -2.235983843475912169e-01 -1.224621184043649114e-01
1.531806279584715935e-01 -3.872241834414191786e-01 -1.091546063700766372e-01
7.273632482448413178e-03 -6.042585810979851368e-01 2.611871993162815930e-01
3.049080351344874429e-01 1.623473456116640012e-01 1.272757983916639746e-01
3.322149879683533036e-01 -7.511320071048405156e-02 -4.756869802745347653e-01
1.438049429313318361e-01 -2.634079662267416189e-01 1.790178346416509692e-01
1.667058547937565471e-01 1.322385029702865256e-01 8.147895245626488592e-01
2.834246912425426590e-01 6.457698812624956819e-02 5.550314918958657723e-02
6.596163444641173212e-02 -7.393957275372848859e-01 -3.146415350605225036e-01
4.756772694552770520e-01 5.335209755558576461e-01 -8.133946413821258048e-02
9.464914328019152778e-02 -7.019904846457774017e-01 -3.975639845176043852e-01
1.734012608598456961e-01 -5.368840032832859072e-02 4.218767939939170875e-01
4.550216663376631387e-02 -4.409241620890709812e-01 3.684783568619675598e-01
2.218130840791593394e-01 -4.766319874078597807e-01 -6.508540480655664595e-01
3.346966557895170724e-01 3.174058449528402437e-01 2.641995601243950498e-01
1.611544120289175042e-01 -7.053139180944401065e-02 4.555986101955830647e-01
8.766407803224576800e-02 -2.625254589964119978e-01 4.834670023713356635e-01
7.439439474103937133e-02 -2.849986681941840128e-01 5.118999893911062582e-01
1.734513955336262347e-01 -3.452604938931321255e-01 -1.379394287774789174e-01
6.060796107203735017e-02 -6.483749507755902641e-01 -1.110955240368302482e-01
3.161371881565641084e-01 3.205687936606511079e-01 3.703566719007703734e-01
1.372028838425688180e-01 -2.561517335528414874e-01 2.285464993022934821e-01
3.379256745481725721e-01 2.737715566647173082e-01 1.630491141621780438e-01
1.704349824498793131e-01 5.910404215048119941e-02 6.543293447321073542e-01
5.774647973353041336e-03 -7.006087890560397380e-01 8.436856869750104793e-02
1.697752371380802650e-01 1.179196317309529479e-01 7.707581599656113669e-01
3.163864989736907551e-01 -3.909319513907161953e-02 -3.212026131018807518e-01
2.245415490536734615e-01 -2.920878398534659803e-01 -3.114158203866961849e-01
4.154822743106079685e-01 5.090575856967928248e-01 1.963323248184344616e-01
4.117704418771530039e-01 4.541519938143436796e-01 1.109820262314339806e-01
4.112229951517720750e-01 3.244815010966713431e-01 -1.349118413248659165e-01
2.319605363875553994e-01 -2.670986536097998479e-02 1.578528156670495064e-01
1.126931317282065942e-01 -9.568539992855136511e-02 6.686676636572420618e-01
-3.171919170043109582e-02 -9.203832252158586913e-01 -1.351967103978759521e-01
2.382533924446530310e-02 -6.729188783048724032e-01 4.016382696098090566e-02
3.341637016256810977e-01 -5.602772485151140403e-03 -3.528009291679428672e-01
1.166421229824678302e-01 -1.617187165948646699e-01 5.206493654573611796e-01
1.135392633500228315e-01 -1.966772649412434348e-01 4.702946849071539259e-01
1.124611010152936630e-01 -3.569274097970053655e-02 7.850487791462609222e-01
1.682502505481109911e-01 -5.680971408293888913e-01 -5.375288292221257480e-01
1.015540420132376304e-01 -4.439817285349991760e-01 6.033500997998208354e-02
3.332984055419731528e-01 2.600674602237966759e-01 1.617039235992346613e-01
9.239396092976528974e-02 -1.915797940104917441e-01 5.941091203827945089e-01
-2.553469482073110822e-02 -7.499196070446245699e-01 1.585824285362408825e-01
3.454232881014357992e-01 3.906678177256311946e-01 3.469476472756363172e-01
1.960820956145537808e-01 -2.821177327996819972e-01 -1.388068392042204058e-01
1.198380233231288450e-01 -3.260134874415854811e-01 1.881221872053485400e-01
3.289450858539430533e-01 4.221316804831445335e-01 4.961922428155349230e-01
1.119430951506855398e-01 -4.682907999155633272e-02 7.664709124533179985e-01
3.494382315327840827e-01 1.951088400867469208e-01 -4.999450493363036263e-02
3.457902538932452335e-02 -5.206648989336828404e-01 2.743568293586128304e-01
3.943737156564197099e-01 6.370445033355641440e-02 -5.444954725888818681e-01
3.596483670928387472e-02 -4.972731278893944284e-01 3.117737814468766189e-01
1.607796199837799589e-01 -2.463788875007495160e-01 1.201569738522281494e-01
6.297065055253432686e-02 -5.616261881164278380e-01 4.263953239317463256e-02
4.735461896639157620e-01 5.897605185295956565e-01 3.808033929178917393e-02
2.609597035014403488e-02 -7.493162995672636439e-01 -1.186928292925515105e-01
4.298564259267639853e-01 4.022514313761985649e-01 -8.615234898966279975e-02
3.344479151397226069e-01 1.081982434556464090e-01 -1.359420622465937478e-01
3.440501719071508702e-01 4.434875615127835680e-01 4.557170988643406417e-01
8.353083806576017123e-02 -3.061270179533172597e-01 4.220824399197994348e-01
5.100502970508626888e-01 7.119481089446854094e-01 7.570751180498912214e-02
2.282803965298455806e-01 -3.094208364519940302e-01 -3.648417691612356739e-01
3.931035012233320969e-01 5.696451161081572678e-01 4.332876435791439551e-01
1.952972021801031577e-01 2.113334302901362094e-01 8.123908755324095177e-01
7.086071818865791183e-02 -4.727723271707048869e-01 1.706064511501954317e-01
1.799224401069972890e-01 1.038784591478683628e-01 6.890905567481598881e-01
1.213774752515730526e-01 4.618686384117541566e-02 8.940969955030495520e-01
1.455018282918363048e-01 -4.692257054877203570e-01 -2.251107626286009411e-01
3.082635729276392289e-01 -2.173571667461913215e-01 -6.194976083289156499e-01
1.835268556976491494e-01 -1.657113665874279662e-01 1.522922685481449268e-01
4.377958970222357027e-01 5.234937178998592122e-01 1.037036478883103657e-01
4.208142543679789238e-01 3.124028370047702285e-01 -2.098151780164100311e-01
4.206619755928412974e-01 3.904236911187418113e-01 -5.926686561812550408e-02
1.349124859495401119e-01 -1.178225012241594094e-01 5.063609368054801108e-01
5.074015426142848562e-02 -6.854716028230446456e-01 -1.290714635732642668e-01
8.410936362208683292e-02 -3.506485534927070713e-01 3.335228469538928930e-01
2.672907527726012256e-01 -2.551156065421903985e-01 -4.710009318695630998e-01
2.382440931784347016e-01 2.060193863417696947e-01 5.705895561632172708e-01
7.987404602795446229e-02 -7.081972738438633286e-01 -3.297963041091990233e-01
2.921027010644881017e-01 2.620110518440073033e-01 3.875933539052445198e-01
2.695662954086727736e-01 -1.425827127251164672e-01 -2.673144825492175247e-01
2.607946122041613149e-02 -7.047394071511592362e-01 -3.305783627286682652e-02
3.197730693065806706e-01 4.519345857745397654e-01 6.028486686306054887e-01
1.536102015475931948e-01 -5.154830088407984512e-01 -3.576082521880330489e-01
3.935282955158714291e-01 3.831627685550453299e-01 7.312503644324329366e-02
1.018226912450030247e-01 -5.437204770022537742e-02 8.065726216522153269e-01
4.016139887822102184e-01 4.408916655390124339e-01 1.403061532504419895e-01
7.726030266151578951e-02 -6.296759561085092383e-01 -1.650134216141569132e-01
1.711937689367677706e-01 -4.751264670958825764e-01 -3.749858048464890792e-01
4.190654305869426777e-01 6.089988144750131394e-01 3.688028695828302062e-01
4.702130800039128755e-01 5.973283647840244015e-01 7.057827133995521474e-02
3.883008052300604418e-01 4.493795034115468656e-01 2.283899957045085471e-01
3.869678138497444353e-01 3.961561834621370876e-02 -5.507850801830015408e-01
3.504448238501107205e-01 2.601739485698575938e-01 6.944134500265695953e-02
2.974830281286420797e-01 -9.600774008804129067e-02 -3.284829934019322106e-01
2.927659882340377662e-01 3.743209885986981678e-01 5.995464801690194578e-01
3.331999008848077204e-01 4.571694288219054214e-01 5.404866662457542548e-01
1.754715241137239090e-01 -5.596025906808445027e-01 -5.601700048900147832e-01
1.968404295079063671e-01 -1.977933021075195807e-01 1.892770985734606309e-02
1.810924177938696145e-01 5.908175203791348612e-02 5.968133177919119348e-01
2.025108947541305049e-01 -1.254116277202754204e-01 1.272532657440004211e-01
2.909958606637533252e-01 -3.077697300590687690e-01 -6.998841631638627048e-01
1.914508077867126679e-01 -1.080467254002582950e-01 2.202223095849814294e-01
3.357404475958394308e-01 6.468289346477681945e-02 -2.264212047944021144e-01
2.643665183369611760e-01 1.036237461580377800e-01 2.332130405889730196e-01
3.179354801782093287e-01 -2.946671922987020298e-01 -8.200190980362359605e-01
1.910379859579670048e-01 -1.858980610980385251e-01 7.304677978434223617e-02
3.821466159948715413e-01 5.086325064016997688e-01 3.752885871082887181e-01
3.612862684300511829e-01 4.094420215287005727e-01 2.974309360045802042e-01
1.322296933819673559e-01 -5.408100868072072132e-01 -2.909120957791314077e-01
3.186006040738261769e-01 -8.816162999800931932e-02 -4.273083301097281850e-01
2.742141436250922215e-01 2.880971537758727705e-02 3.653391809483592240e-02
3.307063487256858281e-01 3.419723704708828027e-01 3.328631898369194819e-01
3.451115497517311392e-01 4.260475164714964125e-01 4.165247335326749956e-01
3.973766875540676868e-01 4.213472678577105390e-01 1.256500316960878216e-01
1.170327375615926452e-01 -5.896296898835341471e-01 -3.026461911535644478e-01
3.692547027663953263e-02 -6.207496569818277132e-01 6.963378208428945559e-02
2.925222318596202853e-01 1.500712903381698216e-01 1.705112142816037346e-01
1.349569183304848430e-01 5.264249855105820192e-02 8.332547709952120574e-01
2.482070442774599039e-01 2.712580393257455272e-02 1.735530611492991926e-01
3.332911599921123957e-01 4.593706491097753752e-01 5.442188108043538586e-01
2.988519356667074245e-01 3.089250135548110565e-01 4.412271382145603327e-01
2.011371239701972291e-01 -4.903830705656945788e-01 -5.657422786433158324e-01
3.067846303516242878e-01 -2.571555526484607945e-01 -6.878976872157434030e-01
3.313610383029060302e-01 1.966008702582238143e-01 5.035520336844966083e-02
2.107402116768565536e-01 6.942784759361939236e-03 3.368710807656474793e-01
3.445954429410386655e-01 4.101245832539147651e-01 3.887508392972868765e-01
2.095777944049594457e-02 -6.529509736408179998e-01 9.394766956081833376e-02
3.157581402806170501e-01 -2.160982272724349187e-02 -2.842622786340223695e-01
9.802098601314843118e-02 -4.755028735384186911e-01 1.889688680260056403e-02
1.124397942607697209e-01 -4.135351876082203962e-03 8.457243690278558601e-01
2.842729259243023110e-01 -1.841184654176504509e-01 -4.263339871870320263e-01
2.131359882222350344e-01 -4.515932757683441823e-01 -5.560094210457900976e-01
2.140579868539086161e-01 -4.893276657835329280e-01 -6.333963154793625927e-01
4.642733559796682202e-02 -6.724866717395425741e-01 -8.089443315614433527e-02
1.310657457054134056e-01 -2.939087907907861896e-01 1.891845074320266940e-01
4.938689917698640408e-01 7.179764325727362451e-01 1.745385481042618647e-01
3.401848069911675987e-01 7.869535272396377401e-02 -2.234978537878971605e-01
3.965392831183716105e-01 4.446475420664173783e-01 1.748807185725828328e-01
4.205746082642625172e-01 3.003622205063030126e-01 -2.316295463308074842e-01
1.022471842656227786e-01 -8.782783238859537267e-02 7.400795902785582969e-01
1.191204794332371142e-01 -4.222160779506347605e-01 7.372703337160754593e-03
1.160786703703739486e-01 1.881398944273455012e-02 8.701419770426207512e-01
2.151749940176603537e-01 -2.635860456207766989e-01 -2.062072074011021272e-01
7.634084555042050524e-02 -2.110702139024452362e-01 6.432767236138772216e-01
1.521049941182415766e-01 -6.043456738893218105e-01 -5.200242409281734535e-01
2.101177942091127793e-01 -1.308507143532314509e-01 7.579293538651171724e-02
2.184644675941192771e-02 -5.854887549245024747e-01 2.186196744083334642e-01
1.059053542611300969e-01 -4.776861130349500106e-01 -2.781158999780344518e-02
3.621244780244127770e-01 4.610749304543781402e-01 3.919975709627910310e-01
1.462760685257790128e-01 -5.785900468170251942e-01 -4.391633745407989009e-01
4.039896547129611104e-01 4.789763386797561417e-01 2.005816699255520419e-01
1.248405559354392735e-01 -1.999973526416500280e-01 4.029777861192538890e-01
9.079737093804288173e-02 -4.791597872407240000e-01 5.083442946781968619e-02
2.015992301354707639e-01 -2.276681574821917964e-01 -6.406727101915075939e-02
2.888512978798210562e-01 -1.385829433471471306e-01 -3.636385242647925953e-01
3.370561123219891764e-01 2.155868937705296973e-01 5.607831416411866721e-02
2.822629415032595901e-01 5.746319340421365135e-02 4.811637915458821108e-02
1.453507364533486168e-01 8.608461690251127674e-02 8.413807565191722126e-01
1.422433942059675438e-01 5.651799799741553249e-03 7.037821631982377202e-01
3.640980327884483225e-01 3.334728882380029198e-03 -4.970786746010905088e-01
4.095213766904378105e-01 3.428093192272275713e-01 -9.056310196253192224e-02
4.256068239438349776e-01 5.494362830413489496e-01 2.192221645794949769e-01
1.444441859850584542e-01 -9.495598051991502309e-02 4.988408778908620111e-01
4.719377172439011559e-01 6.084157144848155729e-01 8.255502152795282655e-02
2.215055282133145398e-01 -4.793740884718367123e-01 -6.544577363185103414e-01
1.998110869451298344e-01 -2.171084212722055040e-01 -3.415937811463030244e-02
2.441399067889243879e-01 1.116982517528719715e-01 3.577862979020926537e-01
4.417183188713568742e-01 6.109997564002979109e-01 2.504806656892374361e-01
1.209708310054881386e-01 -6.306004689374151706e-01 -4.025090761220864177e-01
1.651027795699507306e-01 -7.775177224022110194e-03 5.547391827581803492e-01
3.952022468961798318e-01 1.945223796042047648e-01 -2.979154276537195889e-01
1.344491552963314462e-01 -2.231695238372002066e-01 3.066917743670022900e-01
6.017044693472285016e-02 -7.546637591074208951e-01 -3.127112575750576884e-01
2.801961907311856237e-01 6.079771647586854066e-02 6.566108759420394292e-02
1.269509186010583657e-01 -6.247087754719451436e-01 -4.234518551631306083e-01
5.268892846079959585e-02 -4.593833809857127415e-01 2.942972554457985446e-01
4.866109176617628568e-02 -3.993487034109543532e-01 4.312289705919896687e-01
8.809806324043488457e-02 -5.841173636131284930e-01 -1.360292181844427184e-01
3.124402291885522431e-01 -2.659205172119936122e-01 -7.352176506838237202e-01
4.161977745237825377e-01 5.728231976379928314e-01 3.148441531169029473e-01
1.894419470465591449e-01 -2.436136506615629582e-01 -2.910610579565169748e-02
3.369685738254339924e-01 -1.305887829863634220e-01 -6.077833030418929861e-01
3.004705396030725173e-01 -1.685498307840321841e-01 -4.838070001897835648e-01
2.437377214261955138e-01 -1.806832105090208085e-01 -2.011438917440314389e-01
2.241422196629710428e-01 -2.532972504561427640e-01 -2.348206529914342588e-01
3.751976986409366055e-01 9.289553503827238656e-02 -3.850637529940588721e-01
4.885966881465865774e-01 6.119581664172256685e-01 -4.850201806727711925e-04
1.435677972968901761e-01 -5.381374801278840936e-01 -3.469271389068310785e-01
2.368970455643621409e-01 -3.006468254056717804e-01 -3.944716001669323346e-01
4.857035323095634793e-01 6.242290643489036839e-01 3.866579856211497385e-02
1.800991347467501835e-01 -2.651131179923665315e-01 -1.998121315816702923e-02
3.837960112958628267e-01 1.923396164135995345e-01 -2.405929234464787847e-01
3.351186446704661481e-01 6.034896966667313567e-02 -2.313850380254562633e-01
2.988113069942492928e-01 -2.535143496097707616e-01 -6.379115675988592526e-01
4.010434439973735166e-01 4.549619023165191178e-01 1.703846799677685431e-01
3.545096545903784202e-01 2.182346388620524588e-03 -4.475821156465257245e-01
2.813434862542109616e-01 2.788224764709407947e-03 -5.185002643193541150e-02
1.664686566283185565e-01 1.341131808773333434e-01 8.196663122498202281e-01
2.135188115544773557e-01 -7.051562519929126249e-02 1.732389519758860130e-01
3.607475234240548057e-01 1.605040991711467746e-01 -1.773918314503662996e-01
2.440064909240958757e-01 4.691032583475135756e-03 1.531519507168807859e-01
2.418778950959185325e-01 9.247375524137917135e-02 3.330917770154951385e-01
4.414281738999283888e-01 4.496921635255111682e-01 -5.751443260188469908e-02
2.400999358145290419e-01 1.785095300064024060e-02 1.994739053300832732e-01
3.078941729330276766e-01 -7.269538664726717114e-02 -3.398901262329704909e-01
5.499163638460036196e-02 -4.124074200123735712e-01 3.720291799599321214e-01
2.770818799088134998e-01 -1.778835266294365169e-01 -3.755889725853716055e-01
3.571475118967941675e-01 4.784342900658533071e-01 4.521510189912772426e-01
3.600615599268783273e-01 1.203252918941360300e-02 -4.586192009751977605e-01
2.777044642268783892e-01 1.737705296644618258e-01 2.959006253839692735e-01
9.986449910469288871e-02 -4.587948947088549279e-01 4.101891890458793377e-02
9.977892975954336108e-02 -9.281605529053449377e-02 7.438176296354033212e-01
3.544977788324554790e-01 -3.980394513229732097e-03 -4.593447738299861749e-01
3.475692756020963559e-02 -7.741865332548100165e-01 -2.131271038956250863e-01
1.145459176028347653e-01 -7.845628076875357793e-02 6.917397919102382664e-01
3.079420005252168635e-01 2.053017077027578796e-01 1.933464986140461805e-01
3.103390291285396119e-01 9.803543727192097490e-02 -2.543112621155106320e-02
1.411965615619449332e-01 -2.057579820230949486e-01 3.037183512392744866e-01
2.637114803869962665e-01 3.213452988904493823e-01 6.545673735754946598e-01
3.513336637518599814e-01 7.882593952856643826e-02 -2.833706296925682100e-01
1.011433081595433936e-01 -3.382372689022773438e-01 2.654805213833884014e-01
9.315404413495320668e-02 -6.479548541357504909e-01 -2.858033392836168973e-01
-5.551424155460407683e-02 -9.284042668286266453e-01 -2.226803923640087446e-02
1.358191689251808110e-01 -3.607987419716183752e-01 3.518414361712821764e-02
3.086887610009599325e-01 4.257187713362330928e-01 6.123140961181130493e-01
3.300332056359285282e-01 3.348633144922665839e-01 3.228505634562354731e-01
1.680296770118682170e-01 1.107035690310091275e-01 7.663234945438214263e-01
6.744071089597214463e-02 -3.730316327525863840e-01 3.804587084477217274e-01
9.880028797548508213e-02 -2.936789544052059719e-01 3.636262346186036054e-01
1.764639421138344821e-01 -7.147259600100390464e-02 3.712313834144663205e-01
2.641654245178596261e-01 -2.572346210860488314e-01 -4.582132375661467916e-01
1.920806404994625238e-01 -2.282419110669743345e-01 -1.383664012995244885e-02
2.828010712471114574e-01 2.028932938058626914e-02 -2.612470721749142813e-02
2.306714010622588629e-01 -4.041469713270821607e-01 -5.595215697559702273e-01
4.050301215199318960e-01 5.350553616957487435e-01 3.025899581629121204e-01
5.733255586501408846e-02 -5.949892402306189432e-01 9.018689117215376166e-03
2.960021955548408079e-01 -1.900990227100795849e-01 -5.010644884978560087e-01
2.900674089678400014e-01 3.222043540239249437e-01 5.140841166436195264e-01
2.565549589786653706e-01 5.432171894756489261e-02 1.807252912319743388e-01
1.827684567205794253e-01 -4.925344490434680478e-01 -4.708126525415454178e-01
2.256464413266109359e-01 -7.232985166141901734e-02 1.043556408165145777e-01
1.337316880193267221e-01 4.687133140250109714e-02 8.287869278454017552e-01
9.605253654364014071e-02 -4.944649213250549846e-01 -6.877095640902750745e-03
3.122942987855592545e-01 -2.942345732510995293e-01 -7.887671990284617074e-01
2.658365663954248559e-01 6.095529784602532475e-02 1.434018542126654638e-01
-1.779847712089346889e-02 -7.451776712166450212e-01 1.259627586474570959e-01
3.389177549735610806e-01 1.175764046708396571e-01 -1.420496418411546780e-01
3.936995912223793526e-01 2.995211846894025864e-01 -8.831237701561102382e-02
3.681508552862225447e-01 2.549411132365609900e-01 -3.608561677499817766e-02
1.788555494136556956e-01 -3.944993971361845375e-01 -2.615755309323442579e-01
3.753274141806396957e-01 4.562722545657470485e-01 3.115803350524313786e-01
4.035540591989135728e-01 2.854858273377973710e-01 -1.683901637328688305e-01
2.900131413614607800e-01 3.030817921717247204e-02 -4.579102017555211623e-02
3.850224930550817937e-01 4.292549432250731267e-01 2.074488832995330656e-01
2.133566573585991555e-01 -5.078260218077839533e-02 2.119823723029950202e-01
3.774494266042294210e-01 3.027856659781176241e-01 5.586009196414554179e-03
1.419876092100805232e-01 -5.466970462395664976e-01 -3.548318907181783888e-01
3.052102554290332947e-01 -5.739868408393612037e-02 -2.960609683397483760e-01
6.484593069691106659e-02 -3.567692061661566494e-01 4.256604554390004402e-01
1.161968664667319823e-01 -3.992371609792528253e-01 6.723715748374373136e-02
6.838060777800496724e-03 -7.801765828568073546e-01 -7.406197116955001714e-02
9.983318899993511020e-02 -2.407931875804152355e-01 4.595472566668579173e-01
1.630747732973018560e-01 -3.665734460526987593e-01 -1.228814872975843159e-01
5.979834290433984345e-02 -3.217002562513490704e-01 5.201806092894227795e-01
-4.961162723765347171e-02 -9.028300626320509004e-01 -5.021000250275552308e-03
3.523131126481411357e-01 5.010481601943754804e-01 5.216193828455260029e-01
2.621098124725330103e-01 1.356518946505996456e-02 7.255472682984484556e-02
7.718405377855820648e-02 -3.882309067550959170e-01 2.987465634629672406e-01
3.079460446551555153e-01 -1.612136013570658888e-01 -5.100420844287730793e-01
1.712472892888233789e-01 -3.192557788076300640e-01 -7.614841537962460660e-02
2.333851322361656100e-01 2.659732140933618316e-01 7.118481890808461277e-01
3.731825860477622908e-02 -4.609845998986564219e-01 3.741151201321447628e-01
2.681070604540331526e-01 -4.989337627685944132e-02 -8.156826334612901630e-02
9.154657185802884956e-02 -4.711089566708316911e-01 6.224421921222458159e-02
2.785037094169937055e-01 -1.114212434366329274e-01 -2.557111379222655745e-01
3.860735703561468113e-01 3.547334252616859973e-01 5.876899847820907241e-02
5.227049170138029499e-01 7.709145376316945963e-01 1.206242961512213746e-01
1.734616850475404759e-01 -3.824941874398413155e-01 -2.094488033625439560e-01
4.897692553359309642e-01 6.118117564668578146e-01 -7.089392433936658224e-03
8.392510012670030550e-02 -6.501677341764429130e-01 -2.402802953446194767e-01
2.145873823078586762e-01 -3.734028700088650177e-01 -4.137839899256016696e-01
1.171597136795899524e-01 -6.635891500676351917e-01 -4.452639720342240759e-01
1.968036298004092188e-01 -1.028673234280579052e-01 2.012953047553827091e-01
1.744287598647785154e-01 1.981967265598283054e-02 5.574024980089586911e-01
-4.501647747372092279e-02 -8.522060277225523839e-01 6.734917146468001603e-02
3.440904185546639349e-01 -1.358482990746156527e-01 -6.562832302723171640e-01
3.078430840582345174e-01 2.649804104680310024e-01 3.084072552926123700e-01
3.196833775394872235e-01 4.341024729418386796e-01 5.691113698575060997e-01
4.892944026288573167e-01 6.608583726192881480e-01 8.959503993059829419e-02
2.559676531894046203e-01 1.395235402387334789e-01 3.474003547063596598e-01
1.153149572736988093e-01 -4.549932631707795383e-01 -3.500649166026457287e-02
1.615927431557110105e-01 -2.627352409665458799e-01 8.438306722653396430e-02
3.294869675338388260e-01 2.428378161480391692e-02 -2.702260648061487469e-01
1.495679309149040292e-01 -3.883901976081657881e-02 5.789017326860840251e-01
9.422624830378630023e-02 -1.472160666375574856e-01 6.693648748957536920e-01
-4.433038958404417196e-02 -9.313832407757174359e-01 -8.829698657961486397e-02
5.169344269613238563e-01 7.155694386562309051e-01 4.553245143169189907e-02
1.164850833026964128e-01 -5.136639779667478978e-01 -1.539096558919582913e-01
2.232442358063809196e-01 -2.022070709050486081e-01 -1.319326341797813218e-01
4.874981225960729053e-02 -7.134032621009533948e-01 -1.719406535575446204e-01
8.653534743646217053e-02 -2.472762067921775442e-01 5.188183122788054824e-01
4.213059389079354400e-01 1.974551851270023861e-01 -4.330587649577611886e-01
3.301404899471699350e-01 -2.215920732146387517e-01 -7.456021661412102208e-01
3.537609057034799692e-02 -7.662233805645014550e-01 -2.011843073106099056e-01
2.534615116633394116e-01 -3.347672263355757627e-01 -5.492794680090572479e-01
3.740008997003733127e-01 1.680552432395935880e-01 -2.343732941177682494e-01
5.023011525005518507e-01 7.026747516689622053e-01 9.970080021596798570e-02
3.445738917012848845e-01 5.023425947273321701e-02 -3.017859347545095439e-01
2.731707115585872425e-01 1.477851082216119494e-02 1.523412589599168476e-02
3.910679502309665767e-01 5.200880814689292642e-01 3.491617506964191375e-01
3.452056809460670728e-01 3.496358677148491689e-01 2.693781684960363521e-01
3.034542856546983969e-01 2.015066377048045088e-01 2.102647904758301878e-01
1.132046690438826275e-01 -5.541144222331088054e-01 -2.138461289556837785e-01
4.041403184104046947e-02 -6.007455805892746303e-01 8.920984861215761064e-02
4.753715937209010978e-01 6.421219119633765349e-01 1.287212566468837749e-01
1.232608156466075411e-01 -5.074488164441223192e-01 -1.785224192059907400e-01
3.396582131016116779e-03 -6.115407536457030391e-01 2.681203319605133806e-01
4.007019363223948694e-01 1.816949177096510992e-01 -3.521908025307666779e-01
4.768139472547964219e-01 5.248559047121531540e-01 -1.040981582995811061e-01
1.585052695986175764e-01 -2.079764295649139116e-01 2.061188755824744923e-01
3.611055545936482924e-01 2.648423798925516048e-01 2.090934694028111565e-02
1.535607581451584047e-01 -3.517248546880855642e-01 -4.307904015917091850e-02
1.460776840071330018e-01 -2.973367699533824293e-01 1.016498456677350920e-01
2.769549676164382301e-01 -1.107729158434430788e-01 -2.461149244245042500e-01
1.245487148101528524e-01 1.199525169056281024e-02 8.113792514535710376e-01
5.646464372493043005e-02 -4.215421089119261167e-01 3.465555054402452706e-01
3.257012638195753151e-01 1.121693069874753618e-01 -8.115252788583049437e-02
1.725110588546976687e-01 8.639075187672094758e-02 6.954984873291532033e-01
3.621770921267862819e-01 -6.958128560710995225e-02 -6.266500415608563523e-01
4.248161604436991867e-01 4.392692049514761998e-01 1.206823688712222592e-02
1.036471439244578130e-01 -2.289714563731499453e-01 4.616660930897455439e-01
2.157474364233729625e-01 -1.893347130362828257e-01 -6.680111763841570238e-02
2.816131503132922043e-01 3.791656876543006982e-01 6.689886235527203739e-01
2.053123336770799612e-01 -2.116623583964548361e-01 -5.337506578563367549e-02
2.618927884685691154e-01 2.397397471419418849e-02 9.370022800518293393e-02
-1.447431102914692978e-02 -7.509969767364522708e-01 9.686862100441349932e-02
3.424320196257207294e-01 1.456543710103751221e-01 -1.071178653185495822e-01
3.259575801959300745e-01 -2.255246063263398049e-01 -7.305914232404725484e-01
4.286209567922291686e-01 5.535535925146395364e-01 2.108689813787524570e-01
5.147275466139352718e-01 7.022963769596682893e-01 3.196181051386529776e-02
1.406422282374210075e-01 -3.143688750306422586e-01 9.827636650156752751e-02
2.226442880045031436e-01 2.080580929627710018e-01 6.586283526241181185e-01
1.713662429475063254e-01 -4.115547382193139869e-01 -2.539176275720268494e-01
7.994491602674562436e-02 -4.848899290379282134e-01 9.836286300436386520e-02
1.533775031283200474e-01 1.008951125445777808e-01 8.265164413851068259e-01
2.822119609593491951e-01 -2.733018490807165995e-02 -1.143327150519872770e-01
2.211255558120139852e-01 -1.249121815408966024e-01 2.782688229531483579e-02
1.940239544643440339e-01 -1.981634132912680202e-01 3.340608496245747044e-02
1.799829694681622239e-01 1.469803051986186826e-01 7.714793876539047801e-01
1.574618521343772448e-01 1.427110962328486110e-01 8.847380268886071431e-01
3.088894959696578679e-01 1.719249999670870444e-01 1.241847817709077206e-01
8.215094110813657424e-02 -6.266575411845216603e-01 -1.855950451627751130e-01
4.845220756848365173e-01 6.182098950048080521e-01 3.348596097791401577e-02
2.212205284127675142e-01 -1.433130464126323132e-02 2.395266278916403646e-01
2.922235436509283968e-01 6.282422768992422524e-02 4.689173883819320286e-03
1.199401324694735343e-01 -4.544901747307102946e-01 -5.898360465389802104e-02
1.273754203683692410e-01 -6.289586376326303796e-01 -4.338968642256770814e-01
-2.152011935579126872e-02 -8.247878161955159992e-01 -6.744285859698968301e-03
1.366081499957531864e-01 1.194814899053322707e-02 7.462549247059596658e-01
3.123777128185706298e-01 1.058160958822167153e-02 -2.042549048381939458e-01
3.146914949636026582e-01 3.979383746290809931e-01 5.266302537294800246e-01
3.089736617344893133e-01 1.247914583227704120e-02 -1.822560955862208010e-01
4.493563495585138345e-01 4.817433772633445965e-01 -3.876100556828506599e-02
3.104721884023349809e-01 3.978176314740701214e-01 5.491523502240904797e-01
2.328227979574026829e-01 8.654591372210057587e-02 3.705480489892338802e-01
3.118323779795832418e-01 -3.114862447736736484e-01 -8.193832421407574174e-01
1.394414556370433822e-01 3.720444360131225370e-02 7.794439943267832405e-01
3.469754400535999261e-01 4.735770029691981353e-01 4.976853584298657762e-01
1.831488200937415600e-01 -1.517076454335813951e-01 1.812049869447828754e-01
2.322504090639736507e-01 -4.647217627845547927e-01 -6.842837935540563299e-01
1.341857364130623620e-01 -2.362656210752472341e-01 2.829800711728104323e-01
3.240295691239086229e-01 1.967876843289871266e-02 -2.496328124841188656e-01
3.365571825671361816e-01 -4.584187157912678751e-02 -4.429299104269600051e-01
3.590875592706128661e-01 -1.316928155817956303e-01 -7.291849325897251655e-01
1.057212769216027137e-01 -5.460526627326504068e-01 -1.580187667876048196e-01
7.518863939053750667e-02 -6.678212509539628305e-01 -2.270446960854284324e-01
1.765433757344014587e-01 -1.483594160077651714e-01 2.232521946150569647e-01
5.720870846066540560e-02 -5.684189016591697508e-01 6.067678349876547139e-02
2.881025781514194306e-01 3.588444571419983076e-01 5.949947722847577225e-01
2.401928960491308274e-01 -1.844817604352092244e-01 -1.893170778155477685e-01
3.131940025814148321e-01 -3.001127526975444493e-01 -8.048997171971277176e-01
1.210358568208375202e-01 -6.438853672410435047e-01 -4.283543323079998522e-01
1.370987342833376588e-01 -1.872788636876981105e-01 3.612796830191692954e-01
3.200141292223758760e-01 4.550982095317621656e-01 6.076198847342408893e-01
2.776198492243092120e-01 -6.409754147314351835e-02 -1.601274010396563363e-01
1.689527049485340104e-01 1.763922656704735303e-01 8.874066954944854757e-01
3.280691959023359083e-01 1.918178057976689110e-01 5.892838707588168856e-02
1.581883765254677721e-01 -3.874164146622831040e-01 -1.365292188232465342e-01
2.984376477870219202e-01 -1.029439876646654796e-02 -1.691415610951377546e-01
3.414004508026847740e-01 -6.310995916730259558e-02 -5.021871975892110429e-01
2.431094656195644244e-01 -1.290780457962525662e-01 -9.872216804375807953e-02
1.885464717043754679e-01 1.455354764295620773e-01 7.225255460242310246e-01
1.730529886665873318e-01 -1.173290356236810772e-01 3.016244225004816037e-01
3.574176741599415785e-01 4.493958573173714166e-01 3.949674464869227797e-01
1.757651509354102581e-01 -5.195518294123828706e-01 -4.848934489462856101e-01
2.081397915990206293e-01 -1.413699474046321292e-01 6.627278289652659138e-02
1.323054612325003654e-01 -2.411238680932841771e-01 2.837966970076683526e-01
2.180055877030332434e-01 -5.451980164860532885e-02 1.797397639640378186e-01
1.250314517987188290e-01 -9.712717219106223321e-02 5.993629090416963123e-01
4.506017215740652782e-02 -5.774395477771857577e-01 1.088800121858935488e-01
-8.058566194688095152e-03 -7.196734607956216667e-01 1.223817618325595408e-01
1.421788116172523486e-01 1.376793913389355584e-01 9.574999991895135620e-01
3.702912043083756988e-01 4.600760192047889663e-01 3.460392012798198524e-01
5.057935392699958871e-02 -4.791933225434865662e-01 2.676571666161408070e-01
2.258295587919371128e-01 1.114271680091438732e-01 4.560098290346479288e-01
4.020496986012470075e-01 3.410369666597757865e-01 -5.367121326563888822e-02
1.139893849923876434e-01 -4.328251982732780334e-01 1.468399565934273843e-02
1.438885984373825533e-01 1.564853887176346006e-02 7.140943255718736893e-01
3.257017298497440483e-01 -9.635696391145588680e-02 -4.813305503067081825e-01
1.449129443651231142e-01 -2.945293067133031850e-01 1.133187404027152234e-01
-4.298446935619495285e-02 -4.951787359057910343e-01 -6.020928952569819526e-01
-1.503773149505711615e-01 -7.851480842459814813e-01 -2.660593481609299649e-01
1.236833678612659221e-01 -2.758153902107556843e-01 -8.734340354791098049e-01
1.054065010851584633e-01 -4.565919373940413584e-01 -6.737002949008004116e-01
-4.240817171837825694e-01 -7.398989367200645706e-01 -2.602509123386174683e-01
-3.718224775556261963e-01 -5.958960817342215943e-01 -4.269146181840508536e-01
-1.839791859537333596e-01 -3.501716826025703111e-01 -7.310929981615043038e-01
2.955109524424871098e-02 -4.987261233500496771e-01 -6.127908098005777626e-01
3.529682916230729439e-02 -3.661146147369932491e-01 -7.577723163487392055e-01
-2.346059665731816957e-01 -8.806477455680884470e-01 -1.455910499900938404e-01
-6.813779014831107539e-02 -1.696893077703527375e-01 -9.500720606950355807e-01
-4.992138756543651468e-01 -8.242192640027616868e-01 -1.537317237219520683e-01
-3.597302726579135190e-01 -7.949639480563649441e-01 -2.134321029204262754e-01
-7.028651080299117004e-02 -5.602715887137517115e-01 -5.260189215405823848e-01
-4.558697682635365345e-01 -8.145776978966653425e-01 -1.728805742661075617e-01
-1.108749384406395311e-01 -5.403924744322143869e-01 -5.394405427899044980e-01
2.517018365808395552e-01 -3.686972657535966813e-01 -7.983663669998289913e-01
-2.576142319561315897e-01 -7.627589211399493641e-01 -2.688384870568965579e-01
5.086321852193461529e-02 -6.346814324843471633e-01 -4.696084918919685713e-01
-1.071715416790624820e-01 -9.010075612453075644e-01 -1.490630816324958197e-01
-1.803256296762498559e-02 -2.056137144815090578e-01 -9.211562308148107947e-01
8.192196885317003241e-02 -3.834905425235045073e-01 -7.482761574016240091e-01
-2.282359242777904362e-01 -4.748396104216680014e-01 -5.870045141403034128e-01
-1.325381894883087275e-01 -4.580826548477094362e-01 -6.243690025005955713e-01
-2.340234835439054251e-01 -6.764515566194914120e-01 -3.671773253878787835e-01
-4.300162491416902044e-02 -8.575602770377163120e-01 -2.090534792321385449e-01
-2.879516910207221558e-01 -3.894244856588378045e-01 -6.676703829132349943e-01
-3.015770585769526058e-01 -5.251528405052979798e-01 -5.177282872607807951e-01
-1.116666466187049844e-01 -1.920688136718147754e-01 -9.170707003493475673e-01
-1.438483671779856032e-01 -5.125830553707426684e-01 -5.629903232914156286e-01
-1.937710091089409406e-02 -8.640265538385758504e-01 -2.067775783310780990e-01
-3.850159554816973140e-01 -7.730617283868836953e-01 -2.321165896531726947e-01
-2.655615577339794364e-01 -6.956709052403510229e-01 -3.400079276292097830e-01
1.357815735611475894e-01 -6.240895739325368341e-01 -4.981248048768246450e-01
-8.836185616915111229e-02 -6.336649580144615435e-01 -4.427924843808745403e-01
-2.463509660858367867e-01 -7.348536517788639699e-01 -3.013629032672590080e-01
-3.499888176209765001e-01 -6.649229806181334856e-01 -3.564268743832938457e-01
-2.979764409894905541e-01 -6.852235620029766272e-01 -3.448389502896185288e-01
5.113316963681885374e-02 -5.029268053351809709e-01 -6.125625865319275221e-01
-1.293822153367298333e-01 -8.588605311845641799e-01 -1.903215438229860224e-01
-2.031660253185127163e-01 -4.994461376493494198e-01 -5.653436875274954199e-01
1.101484883143497018e-01 -4.291375595041729274e-01 -7.044279817897121099e-01
-1.313595152532764931e-01 -6.709024472636557768e-01 -3.937827998146317676e-01
-1.277589582719585023e-03 -6.389789830724857955e-01 -4.544917345955187260e-01
-1.767511553314282113e-01 -3.395387779680489881e-01 -7.440747767047999339e-01
1.529753031195559831e-01 -2.604182323886709560e-01 -8.960075043976711839e-01
-2.773822648853009887e-01 -4.469969671929198696e-01 -6.073472144295823938e-01
-7.169686496333907422e-02 -2.210028665795377156e-01 -8.937041131374904301e-01
-5.509209219881444630e-02 -5.762584184052897962e-01 -5.117266403099961503e-01
-2.128409814632730435e-01 -2.794039753894340117e-01 -8.020594730423382668e-01
-5.806773963421221763e-02 -3.257281893474904266e-01 -7.828529231613967632e-01
-2.923578917761252005e-01 -8.387261634935964105e-01 -1.794779920561670461e-01
-1.442221833274332232e-01 -2.490831757598851726e-01 -8.487051191294340269e-01
1.957460749597158545e-01 -3.646029597851715431e-01 -7.915863434480688854e-01
-2.316563881656066304e-01 -5.451072260169627093e-01 -5.101069511016981251e-01
-8.663876033592836368e-02 -9.117529759248388377e-01 -1.415260840578174417e-01
-8.855941943697286101e-02 -2.353726467755610507e-01 -8.747373630021793023e-01
-4.011733527388144926e-01 -8.692910588284074036e-01 -1.245070623310309682e-01
3.269075013763291654e-02 -7.371944033002039154e-01 -3.547797036613040134e-01
6.050725540916249839e-02 -2.637891783117750077e-01 -8.738090110067074923e-01
-1.097267717001954440e-01 -5.252929335618422568e-01 -5.560476170934965934e-01
-5.143741086190250361e-02 -7.561278343643456079e-01 -3.173746468884265926e-01
1.439608571854813779e-01 -2.985739169824391248e-01 -8.528165243371084170e-01
2.366092471266864061e-01 -4.406999647218838856e-01 -7.172463640246083960e-01
1.514361172721586934e-01 -6.024257657433071955e-01 -5.247603570370824588e-01
1.262321282081423912e-01 -4.339455104062311386e-01 -7.024385319951123030e-01
-3.106131748856149066e-01 -4.594920507748412875e-01 -5.871314377880048063e-01
-1.190346355444667076e-01 -4.393592261668974874e-01 -6.473841109715554598e-01
-2.642511881530721918e-01 -6.068703337120328056e-01 -4.365830469110013601e-01
-8.045856495823343335e-02 -2.022358624398135907e-01 -9.123016857138663838e-01
-3.398637002902790000e-02 -9.230299962223779131e-01 -1.398533789233226132e-01
-1.456163012597803674e-01 -7.216798098712581266e-01 -3.358512200262084857e-01
-6.666329099880904940e-02 -5.790093745761027977e-01 -5.064226318693247908e-01
8.265366129616884272e-02 -4.766908999411582082e-01 -6.473385570522560695e-01
-1.836696713453789265e-01 -6.529447425831953478e-01 -4.027699465182430494e-01
-2.981086366711174218e-01 -5.716488327464666064e-01 -4.679946388449411909e-01
-9.924262447447920743e-02 -4.034641463485600377e-01 -6.902844571253036188e-01
3.370174432441247481e-02 -5.895359047032286970e-01 -5.151316032698897152e-01
3.257604288980150281e-02 -3.456653452624809386e-01 -7.794058295824081162e-01
-2.864794358513872430e-01 -6.101580100555500374e-01 -4.285598840625538530e-01
-4.058588143694872863e-01 -7.414724344910315068e-01 -2.621985044583645674e-01
-2.448681789154048827e-01 -3.837817066270267641e-01 -6.824299260407684642e-01
