-8.716402371319303954e-02 4.701634148188645890e-01 -5.640403174503428874e-01
-3.205667518707563390e-01 -3.529098167212472714e-01 -7.340520617807284876e-02
-1.690888425513847881e-01 -6.515917501709929116e-01 -6.679534019595444183e-02
-1.152739526793150476e-01 -1.253977447761965569e-01 -3.112114733748826412e-01
-3.153507433052757380e-01 -1.252421366604420661e-01 -1.660412857870674774e-01
-3.728892059143684157e-01 -3.056757292264052350e-01 -5.385923962409413374e-02
-1.460583777592884547e-01 5.095879020861777686e-01 -5.366761818081251523e-01
-2.422644023011365222e-01 -1.376753089497690374e-01 -2.142407104257759987e-01
-2.022285744594770895e-01 4.831503408287593504e-02 -3.158866014152843515e-01
-5.257609880181800949e-02 1.443712353548694538e-01 -4.620027495390624517e-01
-2.256233495379799670e-01 -7.932993216765689137e-01 2.954468806963151534e-02
-1.260935389415831220e-01 -2.958534621037016699e-01 -2.368355118909073187e-01
-3.858136795109995965e-01 -4.458308967714721960e-01 1.021947417916537273e-02
-1.017719655350559776e-01 7.384826580619806569e-01 -6.581514052023339501e-01
-2.576107806869283867e-01 -6.895962581336853026e-01 1.229229111770249565e-02
-3.322185994887789651e-01 -6.152796253801648962e-01 3.744539460743839809e-02
-2.929229472904339437e-01 -2.178427553934639549e-01 -1.461826358411390803e-01
-2.885998332200512273e-02 6.184412690229359466e-01 -6.642289349696297585e-01
-1.051292765932520662e-01 3.780180221290947995e-01 -5.150389849486325389e-01
-2.426603447567788618e-01 -1.846509056505536428e-01 -1.956205437777622236e-01
-7.685162547831657365e-02 2.227328805333393946e-01 -4.749632547911077918e-01
-2.757462375703415569e-01 -7.239455034246771170e-01 3.886156589303080972e-02
-1.513126556135298006e-01 7.461213655505248843e-01 -6.251721060395498686e-01
-2.342130875239754537e-02 6.067092015797551641e-01 -6.635981647059596700e-01
-3.019657701277921880e-01 -8.867321441474089461e-02 -1.900285532558366464e-01
-1.692522214063311714e-01 -3.123915935049874359e-02 -3.087764105838128881e-01
-1.965451359258354458e-01 6.765684079848187371e-02 -3.275604326685848666e-01
-2.156995725111364726e-01 -1.592918504676725522e-01 -2.250873779920425644e-01
-2.188277377884126629e-01 -7.188963591288173305e-01 -4.424685990922267234e-03
-3.707246148789707374e-01 -6.832107265574235422e-01 9.190686805002772075e-02
-9.873960802015439853e-02 5.586032359284524018e-01 -5.901525274076717675e-01
-3.491287679172128677e-01 -8.376959181581364877e-01 1.365205690472107158e-01
-1.755028761039239271e-01 7.045482288341055055e-01 -5.913886185395553774e-01
-2.049851813021388858e-01 -4.743796193456137344e-01 -1.098981060527521453e-01
-2.247813775174518358e-01 2.209193319669712843e-02 -2.892822020158034579e-01
-3.297788143414460693e-01 -6.434053699770673207e-01 4.665080555480287383e-02
-5.623390499666900549e-02 3.952523634539680253e-01 -5.572568535481177143e-01
-2.280882382474689329e-01 2.383981856409718159e-01 -3.712978099073938609e-01
-6.632207084458979773e-02 6.968348038728584826e-02 -4.228771331352935148e-01
2.068825883046854219e-02 4.540930400080572804e-01 -6.360560406134855294e-01
-2.948955062981381547e-01 -4.066069328778509906e-01 -7.108343293175406474e-02
-2.017316172257990203e-01 -7.816673666029206879e-01 7.662753044070669435e-03
-2.689950882753262551e-01 2.851692665216130074e-01 -3.598574613010429579e-01
-4.007663560001247238e-01 -6.929281366947249721e-01 1.175057731356700247e-01
-3.195604985107123319e-01 -6.733261284141900047e-03 -2.092349642419085720e-01
-1.365172499296861235e-02 6.234922893482678363e-01 -6.772394609918226394e-01
-3.686246647847529756e-01 -4.838296503582293906e-01 1.257182939533751584e-02
-3.176510597008237458e-01 4.006363982461535328e-02 -2.288840033903215831e-01
-2.564092003140077125e-01 -3.307389324638440598e-01 -1.286280651047064516e-01
-2.823973657743590326e-01 -2.727289243212880753e-03 -2.377741619370824511e-01
-2.521396862850079357e-01 -8.903308723147158599e-01 8.665992483698034543e-02
-1.628589925384435477e-01 -5.320426197683738589e-01 -1.179728475919434166e-01
-3.913935455948199249e-01 -3.965415767804938429e-01 -4.965954080232965959e-03
2.191379707604378460e-02 6.417684937440143456e-01 -7.101881123324150780e-01
-1.537725585420355590e-01 -1.324026399433788359e-01 -2.805325240539816023e-01
-1.097526429318377433e-01 -2.894291603977759419e-01 -2.512041309781766762e-01
-8.974274610621578441e-02 6.322072534359253204e-01 -6.254079384566162414e-01
-3.364270746446813565e-01 -2.878861367441732377e-01 -8.726881211180240183e-02
-1.385804914578759317e-01 7.225330531897684594e-01 -6.252084693113805214e-01
-1.169954458639233252e-01 2.882646368750820809e-01 -4.713983382395340871e-01
-2.041902042869572775e-01 3.081606937721354522e-01 -4.158704294702061932e-01
-2.921573941719118883e-01 -5.435220751223162061e-01 -1.963826901307902731e-02
-3.509550266477964864e-01 -7.046053327968170299e-01 8.590608962505322244e-02
-2.149875271230852203e-01 1.707642019238274356e-01 -3.544123676926255739e-01
-1.443238381178561236e-01 4.991441580296851477e-01 -5.338594522361208572e-01
-4.059716485484505255e-01 -6.583238293366142635e-01 1.077794443967443477e-01
-2.302238623572093468e-01 -7.982208219984934239e-01 3.480476088370499516e-02
-2.084186489374495188e-01 6.215289969753766686e-01 -5.350966524808299374e-01
-8.637969932834428655e-02 6.694573596124917536e-01 -6.423863711190304082e-01
-1.421151002528553697e-01 1.047504713104931429e-01 -3.815460941596846012e-01
8.044012662770867392e-03 3.871411153441796094e-01 -6.007491363149322083e-01
-3.102134854841475109e-01 -4.742651810634530007e-01 -3.356007954151375705e-02
-1.491197222212050644e-01 3.573219916333510993e-01 -4.750305201568330027e-01
-2.447726425319536048e-01 1.208307023925656448e-01 -3.133049541526559678e-01
-2.663353448080176267e-01 -9.103235141331571523e-01 1.047665670323413012e-01
-2.238738878197013005e-01 3.672160192313798088e-01 -4.246295317500304312e-01
-1.351972772124465372e-01 -6.562371542697749138e-01 -8.958348798390218526e-02
-1.013805839187610913e-01 1.439451354923058646e-01 -4.264104608857979262e-01
-9.810485869338517184e-02 -2.272536942139659066e-01 -2.839236602858489222e-01
-1.240436744900512839e-01 7.566004931247849452e-01 -6.490556004404388624e-01
-2.025479954857848652e-01 -1.651780859595700091e-01 -2.323366200373026547e-01
8.538863569896844308e-02 5.927856746065599536e-01 -7.371468633611205634e-01
-9.856990614647738458e-02 6.010383470191893451e-01 -6.068364952588568562e-01
-3.438320869266773411e-02 6.941121201816523312e-02 -4.459545268089691317e-01
-3.952863190848232011e-01 -6.821336151925102564e-01 1.093152616012265516e-01
-3.100502421117364849e-01 -8.360715533287245149e-01 1.075204830684521884e-01
-2.019128479390698283e-01 -2.199859559068753911e-01 -2.114082629182088557e-01
-9.827172450865541420e-02 7.441799538595206265e-01 -6.629155802853821111e-01
-3.063492902719038846e-01 -9.229215383464703937e-01 1.387282471168234665e-01
-3.910111681856929255e-01 -7.760875631742765179e-01 1.428786308519094383e-01
-1.874041803278573837e-01 -4.129084341712563888e-01 -1.466495605647414602e-01
-2.929706428614701763e-01 -4.492701894972993271e-02 -2.136303500922970278e-01
3.114893804962702920e-02 6.946189545718887137e-01 -7.375171725660414346e-01
-2.068718965352111250e-01 -3.561955209603525629e-01 -1.546512752604573271e-01
-1.000266139458043935e-01 6.029599809031125357e-01 -6.065290457174726813e-01
-3.791783935928910165e-01 -5.984850117466626873e-01 6.497808700627233369e-02
-1.581094780135885447e-01 -4.457288726729958239e-01 -1.551053283495365254e-01
-3.257296182214006741e-01 -7.789551312425389840e-02 -1.769850698970882319e-01
-1.890678975006925000e-01 -3.611579369778509796e-01 -1.656381292720207898e-01
-1.245776879764258632e-01 6.536044169908820090e-01 -6.084725813009356221e-01
-1.825836228990284846e-02 2.922279934718380878e-01 -5.446159502028090627e-01
-3.609066323977183632e-01 -6.357272023014980400e-01 6.624924534313855751e-02
-3.106957328115890205e-01 -5.066086871632824451e-01 -2.058760625678494882e-02
-1.381599280971009813e-01 -2.627592665142202688e-01 -2.409921978129592190e-01
7.045637595758677194e-03 1.568340786162172595e-01 -5.101444961149019797e-01
-1.455597714167999879e-01 1.888402304038294954e-01 -4.118626765673494283e-01
-4.643755058040338612e-02 6.669109344658517013e-01 -6.703856418714607690e-01
-2.123061451520230902e-01 3.496797302768899218e-01 -4.261825406104917668e-01
-2.418546095052978850e-01 2.330519845938482659e-01 -3.592187172862033040e-01
-1.104502608964351429e-01 -4.839993319767293412e-01 -1.747645216996050466e-01
-2.633872612258604806e-01 3.130370004216381230e-01 -3.748037481792930725e-01
-3.392461153025078113e-01 -4.059580063161730146e-01 -3.914364680253512585e-02
-2.358495515437847856e-01 4.627905231035495670e-01 -4.532357249084850714e-01
-1.237040662502758986e-01 1.789170170845769126e-01 -4.238545586713190483e-01
-2.741086629824697751e-01 -4.729947250716867724e-01 -6.026350907895536291e-02
-3.533492514383223537e-01 -4.440080389101881408e-01 -1.405706198777530169e-02
-2.259789858510036775e-01 -1.818197226767736055e-02 -2.726955367713691514e-01
-3.168984008250174678e-01 -8.653153146695554687e-01 1.239041071572489217e-01
-2.080315246348439506e-01 -2.690072445772725973e-01 -1.878357469597415896e-01
-1.516717026476304964e-01 -6.860895564545983483e-01 -6.597486009649697336e-02
-1.957084829661392411e-01 1.259531305953076608e-01 -3.509185298403123543e-01
3.089409592063292048e-02 5.948148220417331933e-01 -6.983824895210906103e-01
-1.311501890346247479e-01 -4.718160490787564471e-02 -3.302120357323956590e-01
-2.466613430273761898e-01 -8.826861555592725728e-02 -2.303306019710749108e-01
-2.111907373012675559e-01 4.575793068028395916e-01 -4.691012267620263132e-01
-1.543907561788837590e-01 -5.254139453089099465e-01 -1.267066517629338029e-01
-2.471664469172758782e-01 2.074816920035749412e-01 -3.453838847794470923e-01
-2.291352176774015537e-01 -2.332041616882525592e-01 -1.864896461342777367e-01
-1.281677581245793951e-01 2.480312540412612787e-01 -4.475870904739756573e-01
-1.405838177443199666e-01 -1.216061145541885713e-01 -2.943193798025230401e-01
-1.452041168841405605e-01 3.398075472457255664e-02 -3.516851636853143837e-01
-1.263589224480941020e-01 6.923034233694822515e-01 -6.222823541149656856e-01
-1.248398625088667363e-01 -3.638411087346521411e-01 -2.112125720256526895e-01
-1.208247513104916820e-01 6.372161856405996749e-01 -6.048010535724702708e-01
-2.966866991307406387e-01 1.347138615538549244e-01 -2.810398538679145797e-01
-2.750398720146904896e-01 -1.904936343339965477e-01 -1.698368346972847220e-01
-1.537142475503069650e-01 -4.317812074904943676e-01 -1.637389552809119797e-01
-3.142286831330561858e-01 -5.111500118181547814e-01 -1.625081918821738233e-02
-1.608298480784569606e-01 -2.456397730517109190e-01 -2.312177270952889829e-01
-1.406329080189348546e-01 1.919267562974344421e-01 -4.166435197258062106e-01
-2.122184424984922824e-01 -8.144163873096228468e-01 2.805556479036854997e-02
-1.905916596464644064e-01 5.567451657101987195e-01 -5.227542060168732796e-01
-2.133390458830381198e-01 -2.614474278240447869e-01 -1.869334499098884161e-01
-3.375161778008787805e-01 -2.495215081112704958e-01 -1.014504916267812001e-01
-1.643898470230077402e-01 6.745246389650016994e-01 -5.877382503898375132e-01
-9.208445466326292683e-02 7.031898653972208368e-01 -6.514099213786890274e-01
6.919629332889548450e-03 1.989213983351406090e-01 -5.264780855685217142e-01
-7.176764236281048259e-02 2.851901168667738684e-01 -5.030282432262040970e-01
-3.518820651535146116e-01 -5.301516066993330334e-01 1.849645121883823976e-02
4.158991830693035269e-02 3.637547738511681117e-01 -6.159725138292222457e-01
-4.200309263621761491e-01 -7.617422632273000982e-01 1.583449565364569989e-01
-1.156308438437838176e-01 -8.966287160852771942e-02 -3.248983558918895342e-01
-2.620083841681143944e-01 -7.573893801226228017e-01 4.194144327752447748e-02
-1.130708542446249021e-01 4.076469110340393831e-01 -5.208373966330966942e-01
-3.193577640942534251e-03 2.580028995298060401e-01 -5.421943812718409417e-01
-9.036840957710570721e-02 5.840052203763281824e-01 -6.061423921099828860e-01
-9.501938631491477216e-02 4.829073372502011852e-01 -5.633117601066873759e-01
-6.362057943437478269e-02 5.148136473514252076e-01 -5.985551973862326403e-01
-2.267969765892939027e-01 -2.345076521220597066e-01 -1.876782169436790604e-01
-1.909198859112456181e-01 -7.979120339503120718e-01 6.154444544747275300e-03
-1.884852102034228483e-01 5.217175357292024307e-01 -5.106132953535766905e-01
-9.104254584414932239e-02 -1.316640372569894413e-01 -3.263549750081986556e-01
-2.842593403929795648e-01 -2.048717952606136650e-01 -1.575334039823706733e-01
-3.258438585776661234e-01 -4.001066961668011124e-01 -5.115556204790482064e-02
-3.085086383653854458e-01 -6.819435547611878423e-01 4.625126344630531294e-02
-3.136238004419886205e-01 -2.010572892378692245e-01 -1.377071052706985155e-01
-1.881327545441595916e-01 -5.279533495478766492e-01 -1.012231177582703368e-01
-1.116072978016555556e-01 7.398758557678349890e-01 -6.515558860596346591e-01
-2.166527628750760520e-02 9.573519431471626392e-04 -4.284712686710906993e-01
-3.061341671704110104e-02 -5.913817794640265080e-02 -3.985230645001204275e-01
-1.978048009149069031e-01 3.571382146919801492e-01 -4.396194750250724814e-01
-1.762331579520339531e-01 -7.250572173685757571e-01 -3.293871880423989568e-02
-1.787700109922579217e-01 -5.367762404307531154e-01 -1.045760737824097536e-01
-1.778085292810110615e-02 5.939215858873158060e-01 -6.627019228621787716e-01
-4.371359790479568685e-01 -7.959464094210745300e-01 1.841096591883282507e-01
-2.137994925666185375e-01 -4.108473387420814027e-01 -1.282942061652866117e-01
-9.974802579730321361e-02 7.180267718953687872e-01 -6.516373917014434136e-01
-1.035273670207423335e-01 5.749391348833744475e-01 -5.930524792554339175e-01
-1.438511476149233748e-01 -3.219019748377052181e-01 -2.137799634249114289e-01
-3.232911749233710053e-01 1.059217638230343546e-02 -2.132884055890035546e-01
-2.914717356960428440e-01 -8.302343638328979480e-02 -1.998508098959621004e-01
-1.079183995653912875e-01 3.326540756853236802e-01 -4.953106311659106198e-01
-2.422825893661921873e-02 3.647770836791466853e-02 -4.404730849999078379e-01
2.555379791192939898e-01 8.554947413991504934e-01 -3.614875613325181369e-01
2.931489519993180637e-01 8.245701171522213935e-01 -4.086460326687358369e-01
-1.932413386325155386e-02 8.189990007083811641e-01 -5.248075040330134611e-01
2.612036643060321461e-01 9.517672261368227415e-01 -1.732785919708055844e-01
3.545881932767563915e-01 8.523476221226107263e-01 -3.341731717733705809e-01
2.024258738211043018e-01 8.898534870783333384e-01 -3.129113896940536321e-01
3.089845596853357801e-01 8.442979776096780631e-01 -3.651298569067475408e-01
4.962890643851563394e-02 8.854044394766533710e-01 -3.730511791416881717e-01
2.612096307579773180e-01 7.579049899929846124e-01 -5.484221048386463959e-01
2.880589273625641100e-01 9.490351981844939999e-01 -1.695085106768607075e-01
2.231390038157926303e-01 8.428542506591649719e-01 -3.968748209573530472e-01
1.305616695148040067e-02 7.530396898597769839e-01 -6.415261178916601414e-01
3.249560388659333832e-01 8.072252357182755356e-01 -4.314834990112608182e-01
3.120205868599393306e-01 8.555398119006132340e-01 -3.423517339359941625e-01
2.455175941579954280e-01 9.211884951557853807e-01 -2.377420079310848255e-01
9.692619366072557918e-02 6.859404827215371814e-01 -7.430857864322656381e-01
2.582462321060192689e-01 7.645043861239813054e-01 -5.366509194665620708e-01
1.903486491355164678e-01 9.077188885532980755e-01 -2.824128136331151562e-01
4.387834937795171558e-02 8.677383959751872045e-01 -4.091763472832619652e-01
1.972984861490614805e-01 9.608335975734434431e-01 -1.772859829579339075e-01
6.667544440488710686e-03 7.532933002844239834e-01 -6.431898989427939917e-01
1.867837472980927449e-01 7.412138642235034380e-01 -6.058212691630286972e-01
3.310438561330802387e-01 8.855108424311191051e-01 -2.779388259946455886e-01
1.186048778497353212e-01 8.913728911971182667e-01 -3.382395798637146678e-01
8.857797397435875075e-02 9.165622407123867887e-01 -2.996218115736693499e-01
1.640572849172394487e-01 9.411082061854507685e-01 -2.266673714133003170e-01
7.860904138129336249e-02 8.580217207118550071e-01 -4.162663870170025260e-01
2.326654404388580621e-01 7.521862599623957424e-01 -5.691149523955132405e-01
3.588080459398304001e-01 8.748179917101243097e-01 -2.892673110468560460e-01
1.178048479634570544e-01 7.518663225877615375e-01 -6.084705002659874795e-01
1.538659923711172273e-01 7.881660934081082814e-01 -5.260647799014637194e-01
1.270771516172873594e-01 9.159896097247360869e-01 -2.877461714504718215e-01
-3.402490710368830801e-02 7.355921848577772204e-01 -6.911669972298932763e-01
1.741856446413420356e-01 8.652087515794316674e-01 -3.701257050879820376e-01
2.002894575257744003e-01 9.307368331493315328e-01 -2.345179555822391460e-01
3.633482940243061288e-01 9.039073953175524867e-01 -2.314448124840624843e-01
1.492328685634798091e-01 9.324130914043373686e-01 -2.484929050674150319e-01
7.264347629175479937e-03 7.822721458695894858e-01 -5.869112591702170256e-01
-7.951914667645652857e-02 8.366848275480529562e-01 -5.108840227952431423e-01
-1.345952967293310709e-01 7.974697953483668167e-01 -6.053438668555154445e-01
1.829513683174075200e-01 8.355246418328707847e-01 -4.246116238553306887e-01
3.410451423563128914e-01 9.037850972895756785e-01 -2.392031523228596301e-01
2.196272310111534176e-01 9.913375695048503022e-01 -1.107270097118329272e-01
-5.856064874166799772e-02 7.571590125292144702e-01 -6.577073416183863985e-01
1.791383179447360308e-01 9.583031396785336442e-01 -1.883071763704526891e-01
3.531924194309503107e-01 9.167688272685272644e-01 -2.099815175849232829e-01
3.980828919976999725e-01 8.643250863332632150e-01 -2.963269405337951024e-01
-2.384713047470827033e-02 8.029677061341015110e-01 -5.573552551262154209e-01
1.659514545198029489e-01 7.352493977337216657e-01 -6.243888276261666537e-01
2.960620170477333557e-02 8.383941311846503375e-01 -4.707740888155435011e-01
2.367575211770645283e-01 9.400408331087655167e-01 -2.042148966015811251e-01
2.581609975438349247e-01 8.738240019010422577e-01 -3.251337468714444179e-01
8.391220962565161534e-02 9.335613605359505129e-01 -2.683000937575458211e-01
1.239804924021987442e-01 7.508552234706805661e-01 -6.083443724743072822e-01
1.897474263504006498e-02 8.728654141217129236e-01 -4.076536585932694079e-01
-1.283547907295768953e-01 7.747235363086757420e-01 -6.472558766854179524e-01
1.724871200240418734e-01 8.093078868371834655e-01 -4.788730733877042400e-01
3.230118006473102765e-01 8.173621968691816564e-01 -4.125230129088565123e-01
2.537925444346224579e-01 8.994929087882275187e-01 -2.769347353964505820e-01
1.480122580549153577e-01 7.218355476205157162e-01 -6.563961034268782635e-01
1.811044120521684148e-02 8.765143666212500406e-01 -4.008840029503829006e-01
2.140416425974809855e-01 9.207202805128040790e-01 -2.492632384779903676e-01
2.069535706712347101e-01 9.848645604608388116e-01 -1.275271786633486726e-01
3.165637478926189852e-01 8.892515396077130818e-01 -2.755835289636123786e-01
3.956512394437300961e-01 8.585910097215337933e-01 -3.082431008227501379e-01
2.978247291041561870e-02 7.543049240379652298e-01 -6.334368428615317903e-01
3.511808205332775934e-01 8.652478152041078729e-01 -3.103589551767044208e-01
1.523165526875251974e-01 7.329649048977333603e-01 -6.334079164357354630e-01
2.344764112338143178e-02 7.752100846271816614e-01 -5.951193795212355031e-01
-1.020280254540583548e-01 7.996371857295301311e-01 -5.901664928662053722e-01
3.525034246729936149e-01 8.893202567368103661e-01 -2.633299920592033216e-01
9.381874200621419246e-02 6.960830205022374706e-01 -7.245067995860432486e-01
2.577375426353825660e-01 9.703725376887608611e-01 -1.384441337360356183e-01
-5.642797500094636452e-03 7.471004174103743622e-01 -6.593254636500408550e-01
1.142526522510237397e-01 9.272488656726054490e-01 -2.702832564300133855e-01
1.002013014449618378e-01 8.708294996504838403e-01 -3.841999419379129588e-01
3.428924308480957306e-01 8.754614390455537354e-01 -2.933896664182504277e-01
1.452264496364187307e-01 8.129071999635082424e-01 -4.811015815649454797e-01
2.728238748170280781e-01 9.246851646633147404e-01 -2.217665825516473288e-01
-1.308815261519019786e-02 8.719048701393193879e-01 -4.203255477468473278e-01
-7.376972490784473868e-02 8.121753705752298158e-01 -5.563736384751253317e-01
1.616337907757474657e-01 8.949217029150094982e-01 -3.168608370023002219e-01
1.920725250435298403e-01 8.490451648676512475e-01 -3.953717844909856449e-01
2.833547735952542945e-01 8.336162470678800673e-01 -3.944438010210500889e-01
3.449771697358007816e-01 9.184752141672116732e-01 -2.094500357702068494e-01
2.094105936243634281e-01 9.230912866401137507e-01 -2.462368804343672557e-01
-9.698775150439936654e-02 8.123915868611688573e-01 -5.637854536920565707e-01
4.980359951745121083e-02 8.939643934844889728e-01 -3.564277776174938905e-01
3.297055852875098170e-01 8.801427667317801573e-01 -2.887779926940066688e-01
3.469105205916213075e-01 9.117322754738503843e-01 -2.218463732715911796e-01
-4.509754542716979363e-03 7.595917005049762638e-01 -6.347712912411412889e-01
-7.773075569351367564e-02 7.788608150990858903e-01 -6.221769480134169417e-01
8.460210212366479909e-02 7.687786165612676692e-01 -5.869408222858122359e-01
2.085852850834473138e-01 8.866105579254127678e-01 -3.171095820211016769e-01
2.389640358382338348e-01 8.208596720719424367e-01 -4.340998872471420467e-01
9.793127699233634964e-03 8.489658362430012595e-01 -4.569985415474799861e-01
-1.452526760814300787e-02 7.609888431986995272e-01 -6.354453662979810957e-01
4.473120115855691581e-01 8.623458923297815382e-01 -2.835545154910965038e-01
1.078802451210595648e-01 7.117706678107755813e-01 -6.894072089042144746e-01
2.023161134816815754e-01 8.620726535238663057e-01 -3.667074857080577788e-01
1.208179338043309098e-01 9.332497586225014796e-01 -2.564567206093963381e-01
1.882422293751007392e-01 8.928750960039243401e-01 -3.118476287620297605e-01
2.669800056264325372e-01 8.287809616125498824e-01 -4.093229769557000242e-01
2.207569736156093088e-01 8.442106818647731048e-01 -3.950533053739135880e-01
3.450740481942971560e-01 8.843827659645825401e-01 -2.753901371901327777e-01
-1.120975148331588706e-01 8.108949357905279598e-01 -5.717773720395447068e-01
2.509430435848711283e-01 8.094771505604847484e-01 -4.520864750080118011e-01
1.885061795241211591e-01 8.692680199807140129e-01 -3.574409953130658346e-01
-3.969855936434849714e-02 8.501449708857465870e-01 -4.714077228412054676e-01
2.088914985369119126e-01 8.146776575792933350e-01 -4.562046740455083516e-01
-3.284094839907716890e-01 -7.987899259281641129e-01 4.555918174292106215e-01
4.725527181438864133e-02 -8.495301551010228103e-01 4.840956405822284814e-01
-1.907839172970276220e-01 -9.466181005893762324e-01 2.159413089570861588e-01
3.431748730422127386e-02 -8.493585642715857364e-01 4.800644546135515167e-01
-1.046827193388679689e-01 -7.358894524937112935e-01 6.527626661564649435e-01
-2.288927288210186317e-01 -7.486188975662392275e-01 5.862402400626659515e-01
-9.952127254868180228e-02 -8.606011991689890284e-01 4.131719049615975581e-01
-3.204982681551747370e-01 -8.468854533685383768e-01 3.651895262104526418e-01
9.605197098057358107e-02 -8.245901833535143055e-01 5.488138871837799915e-01
-1.522803939585469328e-02 -7.679794650055057348e-01 6.208331894780659832e-01
-3.803373835833824823e-01 -8.705751780258406125e-01 2.991666244138438957e-01
-3.152703561042494163e-01 -8.423842025114711696e-01 3.756630592935513158e-01
-2.983050714849105889e-01 -9.237231582665201834e-01 2.239844057849769421e-01
-2.293163664839436289e-01 -9.669233986464275121e-01 1.636532755442261788e-01
-6.190484363710680935e-03 -8.018577965882424108e-01 5.583226477734924975e-01
-1.501307721171094844e-01 -9.297906508819349103e-01 2.622145085216038840e-01
-2.156039365357344806e-01 -9.212619893329662135e-01 2.566377883681069672e-01
-2.420758835365069972e-01 -7.718145188301577253e-01 5.369080846396591111e-01
4.659506640442095948e-02 -7.925036084254891700e-01 5.942258562426477875e-01
-3.052773114835106716e-01 -9.232027785247465257e-01 2.226400303091329858e-01
1.035715304329295067e-01 -8.346213190543640970e-01 5.319384478059521193e-01
1.392422120776240224e-01 -8.294120157462262499e-01 5.540488870337152427e-01
-2.956934183631191107e-02 -8.851454398743868746e-01 3.892671060003844441e-01
7.433421980279530938e-02 -8.525550087222842910e-01 4.873745079826738436e-01
-7.344332712809623076e-02 -6.885971511455173388e-01 7.548140628753858827e-01
-2.940377550891470904e-01 -7.971486812042435366e-01 4.703595881835525017e-01
-3.362228401105679110e-01 -9.073363163721837044e-01 2.429071450684096578e-01
-3.487438677554471900e-01 -8.721397748125687688e-01 3.067937813666193891e-01
-1.944010480029262078e-01 -7.341693445419368302e-01 6.258340008485598904e-01
-2.292088888644792377e-01 -9.843501489581346631e-01 1.299667737832279346e-01
-1.972418594196324593e-01 -8.576918811333148485e-01 3.858457561984733331e-01
-7.316504447333961256e-03 -7.316900361057274704e-01 6.937255153269920038e-01
-9.220944248442335123e-02 -9.113981089997905682e-01 3.173399896161304135e-01
-1.350965637008740838e-01 -8.210288290939941058e-01 4.777512785264763084e-01
-5.282683450536268706e-04 -8.652022230414552206e-01 4.376535294925719133e-01
4.549452270738229415e-02 -8.438094630732775325e-01 4.945720237467244873e-01
-5.034074023990094127e-02 -8.348710697590254748e-01 4.795486434263918629e-01
-3.491378591543328747e-01 -8.410810907892447563e-01 3.667630027274686455e-01
1.515964269848659070e-02 -8.439978893015921413e-01 4.839770390532087130e-01
-4.150353276482472015e-02 -7.595481893078176450e-01 6.282873280226902724e-01
-3.001474328068736708e-01 -8.494057718399196100e-01 3.671756883529196935e-01
-8.293781857226187326e-02 -8.376925923166601562e-01 4.630953967603766985e-01
-6.250367438424392352e-02 -7.625076083801117788e-01 6.154782722737560663e-01
-1.569166460404487207e-01 -7.863097851693472418e-01 5.375778207443809853e-01
-2.367792290925427590e-01 -9.754213624248723180e-01 1.446919161834628875e-01
-6.208900117540278041e-02 -7.915584414357861309e-01 5.594014462935713583e-01
-9.479510076742850289e-02 -7.768344322886181486e-01 5.768640363353323419e-01
-1.815382349631384021e-02 -7.693145984291965833e-01 6.172628411238256785e-01
-1.158238505497925785e-01 -9.689314726705289260e-01 1.980424757774721933e-01
-1.689088253031146014e-01 -8.371274182268666486e-01 4.351955772418558688e-01
7.806040279349918398e-02 -8.427381145526225970e-01 5.076279626247072185e-01
-2.222872681268846240e-01 -7.547262124377692727e-01 5.766495638597597395e-01
-1.320883260888102151e-01 -7.864577055937285177e-01 5.456648634352421201e-01
-2.601670998058359663e-01 -7.715542940726112242e-01 5.313104341245107332e-01
4.535160882209627459e-02 -7.552822664029458233e-01 6.658340430700389057e-01
-1.668859679886695591e-01 -7.896152788667578637e-01 5.278191860561339821e-01
-3.243946002510346149e-01 -8.729918360760533513e-01 3.133566720924301219e-01
-2.374787825370130723e-01 -8.190125916199785250e-01 4.471247939612962852e-01
7.676739930536427559e-02 -7.854296105884721602e-01 6.180903882917488934e-01
-1.050719456045130090e-01 -9.238226549584744873e-01 2.889592315961937441e-01
-3.854780700614394706e-01 -9.115022668145423834e-01 2.182343593949083449e-01
-2.848787493609278854e-01 -7.852166663967182769e-01 4.965382475325737510e-01
3.282472772523687549e-02 -7.943610061550345769e-01 5.859875694278058322e-01
-2.591503824702655057e-01 -8.673815530575824662e-01 3.462166500123087798e-01
8.825789200027570058e-02 -8.526942944493579590e-01 4.918006960352341861e-01
-1.266576474033321020e-01 -8.430414156581491625e-01 4.380004166553743139e-01
-9.785510084000167974e-02 -8.756923069665749626e-01 3.845308031824419270e-01
-2.369513736363616785e-02 -9.066313753998211933e-01 3.496704316070145535e-01
-9.400645497696205610e-02 -7.669702861685961937e-01 5.962182521962189341e-01
-2.204343284802903202e-01 -8.342650843374189717e-01 4.233576792233950115e-01
8.105798729484592346e-02 -8.210182895353160815e-01 5.506692273328828158e-01
-4.891641110864100583e-02 -8.086093349987716339e-01 5.308484449795732862e-01
-1.486786533368877894e-01 -9.745958605831602783e-01 1.760010437008664441e-01
-2.748230905979733851e-01 -9.227867773870775947e-01 2.337156457898395823e-01
-2.222654596023979912e-01 -7.671822341883909324e-01 5.525530967943708127e-01
-5.551183933038639218e-02 -8.347614774550318195e-01 4.780167774652729351e-01
-4.389349540064304556e-01 -8.868005270916791138e-01 2.480068480271429843e-01
-8.399838109596011182e-02 -9.375537536824274376e-01 2.694949945555186743e-01
-6.227307829229334485e-02 -8.167515747003110116e-01 5.105877821714844833e-01
1.838515236694113902e-02 -8.533135978527081056e-01 4.670378757699600314e-01
-1.098549340340591735e-01 -8.957436162301308791e-01 3.416823219655460431e-01
-3.285532276850924860e-02 -9.146924549432927654e-01 3.309820753938778615e-01
-2.282759425304647094e-01 -8.530793749580205532e-01 3.843053185515467041e-01
-1.297753249374659079e-01 -8.232401941480481655e-01 4.752666088475671624e-01
-6.840068066639616584e-02 -8.040023367278511524e-01 5.331924931397630241e-01
-1.239947472595915035e-01 -8.234357817353623599e-01 4.768376091828570584e-01
-1.592273395752035470e-01 -7.302169365088256869e-01 6.453446015375718936e-01
-2.705083001818776034e-01 -8.574316002875923548e-01 3.616405149418706610e-01
-2.537805327770380481e-01 -8.198601526775720627e-01 4.399869443286000270e-01
-1.800130725023278422e-01 -9.597415115657623730e-01 1.941784518633747902e-01
-2.412431217058437771e-01 -9.885423952665816083e-01 1.177957859475266267e-01
-1.388698884239965847e-01 -9.675722950967409197e-01 1.929004236812342232e-01
-1.461097861290288069e-01 -7.395165525707869669e-01 6.317726447904437048e-01
-6.537463521798300183e-03 -7.415558357403337908e-01 6.748967979468429856e-01
-1.466705860296267094e-01 -9.579664348503730276e-01 2.088580934756164853e-01
-1.794083953139819498e-01 -8.883467360859708117e-01 3.325394064034330466e-01
-3.582961261909936579e-01 -8.900506186944854292e-01 2.689127827990513975e-01
7.253374230168893599e-02 -8.614779793925041451e-01 4.695003363185030199e-01
-5.151518323342453576e-02 -8.860701063958600354e-01 3.800765936144183121e-01
-2.411822429596164469e-02 -7.963594317382909349e-01 5.629165273903314892e-01
5.979571337124735264e-02 -7.611958891254779758e-01 6.592617452685501922e-01
1.063585061020125462e-02 -8.303422376895819301e-01 5.088766445337175037e-01
1.549271460618517442e-02 -7.683877448314211378e-01 6.304036149277565393e-01
-7.750485052889583004e-02 -7.021755498637722859e-01 7.271685754919708922e-01
-2.391786886165096770e-01 -9.833922706302419270e-01 1.284580888020004918e-01
-3.023066787890145712e-01 -9.060386858022607681e-01 2.568563442989926227e-01
-1.862123129244059316e-01 -9.228373007079708756e-01 2.635016290149821971e-01
-2.972867979423360896e-01 -8.412142075023866239e-01 3.839920406725422231e-01
-4.268479704914236450e-01 -8.766974523499158067e-01 2.716337526747060194e-01
1.545433139811200861e-02 -7.506967984398009719e-01 6.646246681271823498e-01
-4.000717857220065232e-01 -8.857767547898524052e-01 2.630944653734588745e-01
-5.537763673339112132e-03 -2.266211115184480762e-01 -2.209446197486034935e-01
1.472802008465063338e-02 -6.250807262021353949e-01 1.488300902178613938e-01
1.275104527972904522e-01 -1.100229519010862134e-01 -7.528609063667873746e-02
3.599300454205732192e-01 6.357379800358416988e-01 -2.735307591850927311e-01
-8.618414825963724435e-02 -5.098617893309008720e-01 -1.317197599080106030e-01
1.369417215139257793e-01 -1.276222485994168154e-01 -4.336130632738405266e-02
1.899514721107483650e-01 2.576051599829347616e-01 -2.682380644230671352e-01
1.628337010335819124e-01 -6.337855450155610582e-01 4.266345370607097509e-01
5.787769202778330485e-02 -6.360740459837511684e-01 2.368293834927535924e-01
2.826758879881347553e-01 5.378420264692679309e-01 -3.328922674215945010e-01
1.011673880771378903e-01 4.079951265249948111e-01 -5.560059166838392519e-01
-1.302115552172006252e-01 -7.895634477544015706e-01 2.143913756351424268e-02
1.842504020948945165e-01 -6.693119550486212876e-01 4.954233918785226898e-01
1.139760016151075833e-01 -8.428628530946908892e-01 5.119913452846471813e-01
2.327904352080099604e-01 -2.096563012170376272e-01 2.002265230118444594e-01
1.776402092107490097e-03 -3.542017989390608412e-01 -1.010407494743331969e-01
7.089536345693571440e-02 -2.236104006821895418e-01 -8.384347721925097807e-02
2.381594477262108100e-01 2.794525813724663688e-01 -1.984246396623288999e-01
-1.757757949631333083e-01 -9.794771837121590830e-01 9.680825524559595607e-02
2.415840590017626077e-01 1.209448253328814782e-01 -5.979814483402247360e-02
1.736207333861958801e-01 -6.866971426422040503e-01 4.905253659115386133e-01
3.095098280807934699e-01 2.753795474760534212e-01 -6.469213243426372162e-02
4.160101834240075014e-02 -6.349504034207249792e-02 -2.710670499164892222e-01
4.031730852594929138e-01 6.324002474767523863e-01 -1.917541534726274199e-01
3.505238215335115814e-01 7.759085157602230165e-01 -4.077699295562367543e-01
8.189393297395540505e-02 4.900656975564628426e-01 -6.597492114841279065e-01
2.633101054706977751e-01 7.418520101821656221e-01 -5.386367017285884629e-01
-4.919964937088981000e-02 -2.976244406060994940e-01 -2.414035422212568449e-01
-6.193314953697414554e-02 -5.630999115769099728e-01 -4.296249859921030811e-02
2.086011666854800106e-01 -2.828616355932979040e-02 4.578041582752808390e-03
3.930025844185088268e-01 4.376915521960811351e-01 -4.772929555818909708e-02
5.685481686895886566e-02 1.809994133707459318e-01 -4.473830286562628378e-01
3.878808299967625439e-01 6.266249160844024058e-01 -2.148644976602109014e-01
6.195835655051975394e-02 -8.300889318206779999e-01 4.063065105306225555e-01
9.393484652923601852e-02 -7.176090337302960531e-01 3.707830980055950021e-01
1.595729030280650801e-02 -7.390424530766691591e-01 2.462457855222792702e-01
3.113861258001645593e-01 6.593526783862047047e-01 -3.819235780334456209e-01
2.018351406208925558e-01 2.754764038642183999e-01 -2.614553479366594213e-01
-1.751280107018788820e-02 -1.628155286651634392e-01 -2.961031462952229409e-01
2.991776622906885952e-01 3.175074446407551432e-01 -1.187465394549887671e-01
4.963216441394464190e-02 -3.212129802504158360e-01 -4.117495174367419297e-02
-9.510577376315441922e-02 -9.512052386839937590e-01 2.205528153486385756e-01
1.659429205086592751e-01 -1.811133725936906469e-01 5.428411965531787509e-02
-1.647953598623757288e-01 -8.611316738553461692e-01 1.803430336735295861e-02
3.427703713211891490e-01 9.326640802134199271e-02 1.481467411850910521e-01
1.893483526586000332e-01 -4.227711579312170564e-01 2.988474716652044783e-01
3.486620337491038724e-01 2.412428016810980180e-01 3.533249338263570738e-02
9.382103386985522764e-02 -4.997195314176203218e-01 1.886140945997145102e-01
1.296495546006968258e-01 7.845733869071704059e-02 -2.287799953511284179e-01
-3.339675483422895746e-02 -5.610434306023702744e-01 7.445690492935253847e-03
3.288582584828458333e-01 7.725970667945990522e-01 -4.445795856187697015e-01
2.193660803130707271e-01 4.803732094162305732e-01 -4.005435372214668499e-01
5.839771444005360801e-02 -1.702807098338359748e-01 -1.512081306724238072e-01
1.279532507314556922e-01 -6.601594808921852631e-02 -1.112278297042828684e-01
2.607904977545015268e-01 -2.368581328986328338e-01 2.740888589782466411e-01
1.967309455164260035e-01 5.053766917449598051e-01 -4.627702519738065012e-01
4.523381919130154416e-01 8.301458010259357145e-01 -2.670862102629055213e-01
1.672221816892776880e-01 -7.887726667413188508e-01 5.640815618913564977e-01
2.379334623553752692e-01 5.416375603731548027e-01 -4.177900166225292367e-01
2.814605720039456416e-01 -2.450298308588444995e-01 3.186697801395949603e-01
3.093676854547608990e-01 3.695289216954987244e-01 -1.435766027564614467e-01
1.448301924305968602e-01 8.610691249039251205e-02 -2.074387289250554656e-01
2.006372348560446772e-01 5.813628038084116545e-01 -5.190914432021065394e-01
1.752747677620665745e-01 3.876188553051875818e-01 -4.036224264168906672e-01
1.233868138975729861e-01 -8.105391615251935633e-01 5.021877123035176638e-01
2.899992817525638422e-01 -5.456620075648726392e-02 1.752093206743732534e-01
1.942601678583109892e-01 2.002609749950519935e-01 -2.124791046240074310e-01
3.300771138093072654e-01 2.255886278841575943e-01 1.445754653992407587e-02
2.076601096197001062e-01 3.824946106907132770e-01 -3.401869403471941000e-01
5.548310241133509735e-02 -4.093791445459687289e-02 -2.645471722157157757e-01
1.900301489307760494e-01 6.234558274726048621e-01 -5.736189057918722467e-01
1.819260270448384287e-01 -7.324858252582579221e-02 -6.599253162780325047e-03
7.677711909792778178e-02 -4.307637716277996076e-01 9.989563005357202097e-02
2.610523601549105330e-02 -1.296532071665354446e-01 -2.441230183673105680e-01
2.086181188478170370e-02 -8.292844782365671463e-01 3.305663272862109925e-01
2.584497309302690171e-01 6.886737467748724750e-01 -5.031052761346624935e-01
3.545157201410842895e-01 2.836032698448090472e-01 1.064950531614488813e-02
-1.339156749777911382e-01 -7.489687972567597996e-01 -1.922782454438801136e-02
1.368375058732281546e-01 -3.141843470745404598e-01 1.122476960460937340e-01
2.249609771446576534e-01 -2.130852533127053083e-01 1.887885053849227002e-01
3.504819275979133564e-01 5.330319775833215479e-01 -2.050184897207120160e-01
4.839273622902775379e-02 -6.648116544512181481e-01 2.435028192486022591e-01
1.117639424811714410e-01 2.127840196155050823e-01 -3.736276655822332038e-01
1.376826842235159554e-01 -2.269436718325436586e-01 4.093620536685862316e-02
1.735553483211075831e-01 2.153331348780715415e-01 -2.628861187119891363e-01
1.414713163552509256e-01 -7.922433579444987384e-01 5.199425349053377055e-01
-2.688729600456467653e-02 -2.933763156653635962e-01 -2.041946613910488040e-01
2.694404314508464515e-01 4.070693872428724491e-01 -2.478594299649472255e-01
1.020652017868420650e-02 -8.135851756691728776e-01 2.979923989290562125e-01
8.153189328231195965e-02 -7.217317899352704291e-01 3.515703758296260251e-01
2.944105125330429354e-02 -6.946503221658623106e-01 2.338035007412512245e-01
1.086489231811114536e-01 9.055058968622023419e-02 -2.772396412212129180e-01
2.650956558852037362e-02 -1.743257169208005664e-01 -2.060781178679618464e-01
1.740618208775036313e-01 6.004324389232116310e-01 -5.835602099905835560e-01
2.923031631608055680e-01 6.688848691539824864e-01 -4.247415833591611789e-01
2.160142406002074078e-01 -3.511950278595407648e-01 2.877825630893617870e-01
3.047953345632841565e-02 -8.000004609278759116e-01 3.236790961095297736e-01
1.707826915463253326e-01 4.749307807842649831e-01 -4.847426335566775157e-01
2.971273311885861898e-02 -5.675024269577751967e-01 1.281176315818045308e-01
1.283073927366127909e-01 6.002299698330453293e-01 -6.669677567806707730e-01
2.274159168410746501e-01 2.027099900651412392e-02 -1.604721104935381273e-03
2.743017131979928469e-01 -2.052858345587107169e-01 2.724026590155569361e-01
3.709524598345030344e-01 3.640484054413098969e-01 -2.650689237837159165e-02
-1.834140335841554503e-01 -9.774630719282908498e-01 8.117398344244022845e-02
3.592406807284698189e-02 -4.204551562274106979e-01 1.666322605737307824e-02
-3.403059669824867739e-02 -1.002435813887239402e-01 -3.785294150168084237e-01
-1.144453947135652960e-01 -7.607753480055541306e-01 2.619700320295186360e-02
2.320618846458208373e-02 -1.166209096478603019e-01 -2.603018859898674764e-01
9.571814509155679440e-02 -7.246150695067088421e-01 3.798913246678085054e-01
4.770335163149586749e-02 -4.063302132416988233e-01 2.638383250444380559e-02
2.227939207060381788e-01 5.825524459136245392e-01 -4.796127487963247615e-01
6.615300117787954910e-03 -8.715985481352428454e-01 3.398799410144093813e-01
-1.749039104168519099e-02 -7.574001606335224457e-01 2.004797423545466861e-01
6.377712133209263723e-02 1.516511422823025590e-01 -4.102295517116625323e-01
1.149786550998590368e-01 -2.956369124714045005e-01 5.683046114153549044e-02
8.808550097780710672e-03 -3.996500557980052215e-01 -5.024141319636381275e-02
-3.914595442648205470e-02 -2.324315946025728719e-01 -2.774821334655961369e-01
-1.293730497726362783e-01 -8.517570826144433838e-01 7.490913791397248167e-02
1.062422447071742770e-01 3.538455635594813242e-01 -5.015153128649929570e-01
1.951954501981109369e-01 5.829816115646948571e-01 -5.303834745128948036e-01
5.509410389633134786e-02 -2.640584818865365779e-01 -7.892812063908119513e-02
1.426281852636346673e-02 -5.925908514990687465e-02 -3.245414337853115838e-01
1.602154536860966594e-01 -5.958980343448717631e-01 3.902118194520080574e-01
2.490824569958559054e-01 4.232115863308601456e-01 -2.985264822874221791e-01
8.370394937943852198e-02 3.101352687583389112e-01 -5.061817618749766545e-01
-5.020006117576701447e-03 -2.924400317834131569e-01 -1.650330064228801297e-01
1.104129570200654276e-01 7.985372823265828035e-02 -2.650843687870435006e-01
-7.695052743198828316e-02 -4.277459758552291103e-01 -1.834288203698598019e-01
1.876856248760471191e-01 1.128910323941369059e-01 -1.515251185891257901e-01
1.692091185573081635e-01 -1.330545898684676598e-01 2.011603140005017998e-02
1.445802795637917137e-01 -4.294200702236953271e-01 2.226251069540585159e-01
5.845836166448095672e-02 2.542079906736788852e-01 -5.055909536851965758e-01
1.321391695553555401e-01 -5.745094562937887867e-02 -1.107343806486142251e-01
9.951647174026635734e-02 -1.368797645947564812e-01 -1.039925505709453912e-01
1.680466777860803729e-01 -6.986510813540111053e-01 4.903264232579581661e-01
1.420408417698382220e-01 -1.002767027812117157e-01 -5.688354021516081604e-02
1.061535138553094948e-01 -1.536242288749119916e-02 -1.933491150437516015e-01
2.268748652207941141e-01 -3.712679415570775410e-01 3.243839941786473835e-01
3.970751652205738169e-02 -5.369686278114411682e-01 1.208754527556070574e-01
1.416812648169004929e-01 -6.901021374103876171e-01 4.350271573885606258e-01
8.634959121342233868e-02 -7.872526584545198602e-01 4.150875046541819269e-01
5.706264506297711869e-02 -8.647120604056005577e-01 4.262778602879203071e-01
1.746055883109750573e-01 -1.922734914252642313e-01 7.942754649283706447e-02
2.431494700029522282e-01 5.137385622497622206e-01 -3.849636192032147575e-01
4.433612484942864862e-01 8.447573295920046688e-01 -2.956860012643684477e-01
-1.940815344218838057e-02 -6.697857117985887010e-01 1.238092269315984317e-01
8.074059947489579947e-02 -7.961154316134253506e-01 4.122432915831743538e-01
2.279305990708510588e-01 -1.779687344997283802e-02 3.112617271851043574e-02
1.781002333653651515e-01 3.599680169778304850e-01 -3.753699163124845639e-01
8.582908121836747839e-02 5.511121819113750098e-01 -7.035414961987129789e-01
-9.904736682668859038e-02 -7.206298952262309987e-01 2.079781681980714600e-02
8.122382186727428177e-02 3.143179969283518838e-01 -5.142050758081411210e-01
1.419114749592053672e-02 -6.588982782949436012e-02 -3.191349691107482900e-01
3.242453838602955551e-01 2.071247812148140355e-01 1.922439847266428289e-02
-1.623033605005234220e-02 -4.708215088714282626e-01 -3.654251524855955252e-02
-1.243332350481337820e-02 -3.907275944540938295e-01 -9.649377091459902800e-02
7.050008742924999960e-02 4.149848151614138336e-01 -6.178610147905356786e-01
6.494371981565121368e-03 -5.192140931509588997e-01 4.538022636258086384e-02
4.531368919760039166e-02 2.633880638893875692e-01 -5.372678156631085500e-01
1.195921911930430404e-01 1.804700998424377811e-01 -3.323427245544760544e-01
1.459645044471591935e-01 4.955350154763278892e-01 -5.472831438710391572e-01
2.929458325317499390e-01 7.070467517646368272e-01 -4.554369270494017519e-01
6.945082297942874183e-02 3.584106962572081723e-01 -5.725321792782646080e-01
1.880964825687647668e-01 5.590885233280284972e-01 -5.233974038647771776e-01
7.067635724860894808e-02 -3.224433401833987634e-01 -1.707414466848455924e-03
1.705028309819133295e-02 1.741077376762615037e-01 -5.143360862767666353e-01
1.693443606988381533e-01 -3.956147406168609160e-01 2.396289622778334516e-01
2.761623551629808215e-01 -5.508606093755664262e-02 1.503684482114949206e-01
7.771297216471760583e-02 -3.130229854897425557e-01 3.278904368255147316e-03
3.535929798237279487e-01 4.482003126244792357e-01 -1.284921926580958329e-01
1.792537966095443525e-01 -2.787141111555175299e-01 1.601053161543708192e-01
6.945142293838880987e-02 -3.154326523926210823e-01 -9.799598492198604432e-03
-1.412274413800535845e-02 -6.210000984405987801e-01 9.272251865087839662e-02
1.599967943669506343e-01 -7.134632732394124988e-01 4.879919954066059273e-01
-5.019033557473229906e-02 -4.271843914340545112e-01 -1.350167061959190173e-01
2.245481603372800616e-01 4.524136807794168491e-01 -3.677285637069933610e-01
3.938045299173770775e-01 5.553506363570859250e-01 -1.445223915499186662e-01
3.460566864299237655e-01 1.916208675524281591e-01 7.201311368487894882e-02
2.666349510072893447e-01 7.207143674723353044e-01 -5.149112239300924765e-01
3.214403884042491000e-01 3.710006778892540602e-01 -1.227532578588262369e-01
-1.700686965263907557e-02 -6.182515288733697600e-01 8.515892419904357025e-02
1.077799060732693159e-01 1.344437808327036410e-01 -3.154825414962860730e-01
1.691094768575485685e-01 -7.782898227695153048e-01 5.587746616052002846e-01
1.953425483218678704e-01 -3.507335477305878468e-01 2.496375454081758705e-01
2.293641742249830640e-01 3.991955320649877570e-01 -3.144886018663956562e-01
1.712763014527323158e-01 4.375389816280298438e-01 -4.526148249058802309e-01
1.125027300717619666e-01 -3.642077481114063819e-01 1.095718542707495718e-01
8.847221507396706153e-02 5.120027626589107594e-01 -6.660528952784713352e-01
2.662171693130008232e-01 -2.932141247645769777e-02 1.106859803008502924e-01
4.020648555331168827e-01 7.460054827362274654e-01 -2.886510432614787791e-01
1.926504705835225823e-04 -4.451073499660758159e-01 -2.801779798461980289e-02
2.250236067425099296e-01 -3.553823380198086190e-01 3.077362379045664453e-01
1.852325714547529284e-02 -2.079037378940915837e-01 -1.926249370019626206e-01
1.151234883160081462e-01 4.781299765745393171e-01 -5.890833422039909451e-01
3.832633798314255547e-01 5.864358101507284315e-01 -1.897366778965892675e-01
1.934574070728642126e-01 -2.630123356239189580e-01 1.729374581301404423e-01
7.391395796821523256e-02 -3.805644754742202318e-01 5.274388274448331415e-02
8.832753953557544169e-02 -1.683296330456358209e-02 -2.246826008817931764e-01
2.621281387298590726e-01 -1.398290805334684306e-01 1.955025726841944089e-01
2.599612316391446409e-01 3.234322810212729715e-01 -1.953285099743350683e-01
2.255957499579377967e-01 3.519595706989852024e-01 -2.819250415994979941e-01
-3.965419319961698691e-02 -1.504044246203364577e-01 -3.469119867589455786e-01
1.399201786900747535e-01 -8.000863720755398978e-01 5.236589310678387843e-01
9.975121619570995191e-03 -7.248653342329782756e-01 2.234791329593228126e-01
3.306455570134936295e-01 4.529648495397360364e-01 -1.743876529407342446e-01
1.054685132603988273e-01 -2.422751607767965609e-01 -5.103882014506448683e-03
3.577152535236112763e-01 2.758693406184698493e-01 2.295254488843483445e-02
2.532745036279342998e-01 -1.100411905136695484e-01 1.544541310361347564e-01
8.553043966395965092e-02 6.035393420289485861e-02 -2.942512207126540824e-01
4.197446900506899281e-01 6.031743814651833180e-01 -1.370771502281950549e-01
-2.240503683308118707e-02 -9.124119043945236873e-01 3.209539148096889338e-01
2.634748853233302990e-01 4.294198103275828626e-01 -2.774213050486395993e-01
2.643807278685054718e-01 3.746751754182734984e-01 -2.300490184823910933e-01
1.431449653101107833e-01 -5.623933405556228449e-01 3.310502578761921333e-01
3.161465288033173948e-01 1.114695378965518957e-01 8.431313797413585165e-02
1.011232454089683319e-01 -4.099935182028100478e-01 1.270217215479486905e-01
-7.231337878750646042e-02 -4.374533165299463455e-01 -1.668517724830479443e-01
6.512580310295769392e-02 1.581172827971305539e-01 -4.131659236758100651e-01
1.490366999732960773e-01 -9.392772116896373757e-02 -4.940674299467070346e-02
2.842699715260377236e-02 -7.082534942677823353e-02 -2.890095808663848409e-01
6.709229388066596800e-02 8.491163167998058703e-02 -3.484392911492699696e-01
2.371181420186765920e-01 -3.254201548593486648e-01 3.048068995683517191e-01
