-4.094968729376965988e-01 3.716734700624189647e-01 -2.544186070653506881e-01
-2.117190299862765357e-01 -1.342788646838010136e-01 -3.760083868286983044e-01
-6.079689932398217866e-01 -2.961186418686720945e-01 -1.149587455338769298e-01
-3.303648592055620503e-02 -1.317279542558164040e-01 -4.926794561056702659e-01
3.302439173045109144e-01 1.655024143146489046e-01 -7.342175787500235806e-01
5.303489748188942865e-02 4.299100749491399642e-01 -5.571956837346390135e-01
-5.131672853792524913e-01 -3.552933314016537003e-01 -1.759615197068497838e-01
4.940733180825788995e-02 1.151929993260963903e-01 -5.501578193600986655e-01
-1.713180408157496115e-01 -4.443923624735714450e-01 -3.977780260617327923e-01
-7.306546459348134404e-01 9.727480717631942220e-02 -4.071439769559703770e-02
3.538197928067500220e-01 -2.652971589551638143e-01 -7.432139654300728981e-01
-9.849279545646588696e-02 -3.648844439411549900e-01 -4.464937638211936566e-01
-4.247614132985448876e-01 6.852760181253890748e-01 -2.491083027916883574e-01
-1.087140829669490660e-01 -7.570177692942743342e-01 -4.340031541449920760e-01
-6.150163609998282599e-01 4.162783806211109994e-01 -1.209297283909011311e-01
-1.746272773563692926e-01 3.933129115318302338e-01 -4.080484538252150961e-01
-6.117612959920957216e-01 5.629863725520743017e-02 -1.177127899655927429e-01
1.195202785663656286e-01 -5.013176451313243742e-01 -5.867750869589102303e-01
-2.736677746351487417e-01 -4.782913715759181672e-01 -3.304672573031298133e-01
-1.528266387367833712e-01 4.469648685376627073e-01 -4.230747273263147368e-01
-5.275432465894516199e-01 -4.195782027041288775e-01 -1.656238498752675703e-01
-2.436467602305147084e-01 4.603057128747524152e-01 -3.639907763138598429e-01
-2.862283284989378673e-01 7.269010266558777467e-01 -3.401520307972771828e-01
8.253284221322083891e-02 3.102763004197426899e-01 -5.746749521887419832e-01
-3.278776373335380301e-01 -2.174638486700237738e-01 -2.989526738267939687e-01
-2.349118465703579073e-01 1.847479407096519755e-01 -3.656034699179335212e-01
-3.232337113727156708e-01 -2.742850207248859751e-01 -3.011407942485217482e-01
-5.560629559212612039e-01 9.909237882107994888e-02 -1.547043216832541812e-01
-7.050451500130278104e-01 1.153524690923196094e-01 -5.769898610275208534e-02
-1.684912021018574735e-01 -1.829678394778400941e-01 -4.035024292270920632e-01
9.017488536522329234e-02 -3.242589425020247496e-01 -5.702475090640780619e-01
7.139721600083248632e-02 8.127618120216306696e-02 -5.640082099106807911e-01
-3.791018770696187867e-01 1.210860775857057828e-02 -2.689231393466286479e-01
-1.194502904172301955e-01 -8.531347098796485673e-01 -4.255689485482711532e-01
-1.135480006454684943e-01 -7.558228883216108196e-01 -4.308655939849362904e-01
-1.926664458601615171e-01 -3.013939917684776981e-01 -3.859649882969246604e-01
-4.053261184603948464e-01 1.605359391931043544e-01 -2.540080078837178568e-01
-9.764694008163470051e-02 -7.325425341026742254e-01 -4.415903012011134221e-01
-4.205693390610529270e-01 -2.979677248558255664e-01 -2.372545295578116498e-01
-7.681275405789094179e-01 -9.350116906311907450e-02 -1.342346924463809835e-02
-1.572055279792275440e-02 1.385494811680355043e-01 -5.079928347234112795e-01
9.560500189617992736e-03 1.535600931824749327e-01 -5.247175241552677338e-01
-2.053794779858585107e-01 4.184087147904141379e-01 -3.883476573347705019e-01
-2.034416501679462974e-01 -2.274932482407293899e-01 -3.800281776432353764e-01
1.721128303632091794e-01 3.033153947370146875e-01 -6.330440890573411084e-01
-6.803224374638255911e-01 -2.225353711619807162e-01 -6.882265291301901955e-02
-1.369333122173322093e-01 -4.681962155150820037e-01 -4.198690892376794048e-01
-7.282611984102658198e-01 9.118805420529256522e-02 -4.218637647326262813e-02
1.930505147855903769e-01 2.907157469997894705e-01 -6.465239870295622637e-01
-5.873274885149590840e-01 2.301395458002628847e-01 -1.362412913995814934e-01
-4.937201554592672292e-01 5.914976759698794551e-01 -2.027046305141624316e-01
1.786696999102440134e-02 -5.062651979406322944e-01 -5.203485061035484360e-01
-8.290662868108421568e-01 2.272776282715238960e-01 2.159372274249498833e-02
-3.212419961170610017e-01 6.124815680462736278e-01 -3.155993730278655596e-01
-5.518730665056392759e-01 -5.629226167446435558e-02 -1.551335157865744163e-01
-1.988474689348078417e-01 -8.285835338512997916e-02 -3.851731837172008288e-01
-2.642829724878846265e-01 3.180062855058116145e-02 -3.441622188204419563e-01
-4.694687958954107954e-02 -4.657613602922111018e-01 -4.786429499516944852e-01
-8.434457178865579774e-01 6.842661739961458656e-02 3.333690070578086695e-02
-1.253637221704266835e-01 -8.540351659019935690e-03 -4.342417397118543132e-01
-6.477189167766875810e-01 4.432925010661562526e-01 -9.998432280200024447e-02
-4.439096921444115607e-01 -5.382981527497645580e-01 -2.184531480894450761e-01
-3.627574404221595716e-01 -5.135131128611432061e-01 -2.717922356680873563e-01
-4.010997719610110424e-01 -3.457102744194257560e-01 -2.492546521491717515e-01
-3.916851782076444799e-01 -1.431703494048287284e-01 -2.584053717774282832e-01
-9.674756997620439503e-01 5.250835773165711540e-02 1.145324194936501311e-01
-2.886655872358680208e-02 -2.138688671181004641e-01 -4.941824653660697453e-01
-4.436587959775356582e-01 2.503461254828873717e-01 -2.303194125376853696e-01
-4.808757597787371996e-01 -4.398075743646186198e-02 -2.016589744301595377e-01
-6.052656095420011484e-01 -2.465415330521196213e-01 -1.174590140780434194e-01
-3.063881212160307968e-02 -3.713588811792815636e-01 -4.906886901553670355e-01
2.393509838116146815e-01 -3.763044856385965309e-01 -6.668484023897286450e-01
-3.927067559202116614e-02 7.092697135992592772e-02 -4.916172976582867116e-01
-5.058149013494940283e-01 6.703437536380607575e-01 -1.959798850584785479e-01
6.402235257548602454e-02 -5.691919197191500635e-01 -5.495422097625183300e-01
-6.815553564863002789e-01 -2.607653973756686172e-01 -6.745059177104031911e-02
-1.111650300543198105e-01 4.157621734293210913e-01 -4.498059105540267444e-01
-1.746487387599156005e-01 -3.574087973129815975e-03 -4.021451385312833082e-01
-7.582804238658091833e-01 8.071672975817832663e-02 -2.243625040579907276e-02
4.228173399866854698e-01 -7.882418077370569043e-02 -7.910184397308168691e-01
-6.353060888459702849e-01 -3.377940979613986427e-01 -9.649632222286042005e-02
1.535809394836261388e-01 2.380140920209256605e-01 -6.199785957473478160e-01
-6.591954754166431396e-01 1.082857035805168400e-01 -8.752203384763822258e-02
-6.848132914164672957e-01 -1.418739372809158517e-01 -6.708820835305379093e-02
-6.490890840449536903e-02 3.525689386341020887e-02 -4.743529020977174659e-01
-2.603653575489375260e-01 -4.247596338789804693e-01 -3.399446190536705714e-01
-1.157793758253009980e-01 2.770608786231394394e-01 -4.447357894846634130e-01
-2.500967429672614761e-01 -1.343107571837522107e-01 -3.509572509808897567e-01
3.362485249034700696e-01 -1.632401053598164231e-01 -7.332588976653374724e-01
-1.047496165972664900e-01 -6.787738782747640420e-02 -4.468169004972221692e-01
-3.315827536564733974e-02 -2.548344860795241987e-02 -4.941764948371620281e-01
-2.723327449134936851e-01 3.489869801749305167e-01 -3.436144602460773356e-01
-4.911413569299223347e-01 -4.800573505383527451e-01 -1.884873789638774888e-01
-4.166822123645821940e-01 -8.654483076108751387e-04 -2.442004381726278484e-01
-1.545448515373581133e-01 5.864726969141198509e-01 -4.240233030147064208e-01
-3.591460404213592250e-01 2.793539267254611658e-01 -2.859146953797596646e-01
1.584192606708348383e-01 -1.553864467971408925e-01 -6.172991889264266563e-01
2.648013779205529716e-01 1.375536265769999357e-02 -6.892488890123840140e-01
1.728733937966363265e-01 2.001090003421902019e-01 -6.320090853334093817e-01
-6.131767915358182774e-01 -2.079870880445206238e-01 -1.128671700660787425e-01
-2.426234097001628565e-01 4.187768495254621803e-01 -3.640425216043138290e-01
-1.934092978431533605e-01 5.114163505257934839e-01 -3.975411878869371529e-01
-4.549005316099963281e-02 2.692732207988290938e-01 -4.905008722959959266e-01
-8.934717822761056860e-01 -6.121449644985217653e-02 6.791461840938627093e-02
2.693554783173144895e-01 -1.793204033385812843e-02 -6.917513304003423125e-01
-3.103128629920861581e-01 5.480499767052787741e-01 -3.217771695274180277e-01
1.091512404492689242e-01 2.451180379254060682e-01 -5.910829743479119047e-01
4.363589402730138622e-01 -1.448837807543435774e-01 -7.988773400409858727e-01
-3.111142695375478384e-01 -5.911802672464792074e-01 -3.043493078571695154e-01
-9.073517444048662117e-02 -2.221642455715079900e-01 -4.536752614029111452e-01
-5.140482685452151257e-01 3.475691678780878369e-01 -1.858160671199025338e-01
-4.698035329279841577e-01 -4.864934383940433538e-01 -2.023199235033568133e-01
1.389182575249973397e-03 -4.394815709830868777e-01 -5.105837831024203632e-01
-4.258894955534049953e-01 2.307589392781538018e-01 -2.416274936854126698e-01
-8.458857079422734682e-01 -1.372977345220558754e-01 3.798227147641327489e-02
-3.363388845474843958e-01 -5.528154478618579892e-01 -2.884534823734564712e-01
-5.498764818304673063e-02 1.188458747632570311e-02 -4.804820882146628169e-01
-5.346983541268446327e-01 -1.701887615814142440e-01 -1.646540533853376176e-01
-1.881110970804432793e-03 1.725480863983309687e-01 -5.175308866720913503e-01
-3.569651178099900179e-01 4.035293743847858661e-01 -2.891808787813414106e-01
-1.387391171985603855e-01 7.040428991433356209e-01 -4.360849303961822909e-01
-6.781074439627922390e-02 5.043098670237359249e-01 -4.794189174610790083e-01
-4.537632790369401370e-01 6.945154004643527834e-01 -2.303147301843721517e-01
-1.933831813684031009e-02 -1.971472414114787408e-01 -5.006500557018651598e-01
-8.784131602614808632e-01 1.349255944791364660e-02 5.697669648532965869e-02
-1.604520817392532106e-01 -8.658583651046368734e-01 -3.986166423166557227e-01
-1.345871289361225687e-01 -6.445174955006710560e-01 -4.187841493369207080e-01
-3.188504423638799934e-01 6.884128189323975855e-01 -3.182871602410194400e-01
-2.085232938486124288e-01 4.615678569081202443e-01 -3.869359911194524826e-01
-1.636058193664083615e-01 -2.943413358998916429e-01 -4.050386698570794253e-01
-2.610656064211115956e-01 5.364500013906082360e-02 -3.465864650111067369e-01
4.243985780095507754e-01 -1.725503436327682077e-02 -7.929641859120372116e-01
-4.297896324583562189e-01 -3.087147126119638152e-01 -2.310766047772863374e-01
-2.935885491556695648e-01 -5.526854868333528487e-02 -3.237413034413728630e-01
5.086933329907478152e-01 -7.227813971493492196e-02 -8.471702575574937555e-01
-1.270222274764831183e-01 1.492499919761889338e-01 -4.355005785168830079e-01
1.032414467885429954e-01 -3.871717382480405756e-01 -5.778430272165030468e-01
-4.023990717689583940e-01 -3.692871230794315951e-02 -2.529884794943908499e-01
-7.442534545630687948e-01 2.041506091336638563e-03 -3.042477034099971486e-02
2.272496451520997496e-01 -3.598218751765550616e-01 -6.591939577320337085e-01
-2.646817167220578138e-01 4.180562929720065268e-01 -3.496334934363624636e-01
-6.789603852400923900e-01 1.132301335630284816e-01 -7.469405873579040844e-02
-1.511300472079422919e-01 4.014237969000676864e-01 -4.235063876930706961e-01
-1.761813981262370932e-01 6.050122751867541560e-01 -4.101753709954608640e-01
9.689166051883060793e-02 -1.918269606629170176e-01 -5.765969408109242744e-01
-5.858979824688770321e-02 -6.113617582211843260e-01 -4.688826252130849359e-01
-2.380486882032926410e-01 2.149952127403030322e-01 -3.640047600605548772e-01
-1.608064167838803293e-01 -4.125719295289315691e-01 -4.051115573710157292e-01
-5.851848588051685243e-03 5.139306121341488121e-01 -5.200047176206833432e-01
-9.279307245429374573e-01 3.655573219207779861e-02 8.895655531959244244e-02
-6.215260757177981654e-01 3.211276979090060824e-01 -1.152686610831074321e-01
-1.417481942286482055e-01 4.745652583210494685e-02 -4.243778654949625362e-01
-3.357902947464662669e-01 3.829620906631525101e-01 -3.026973368437710366e-01
-6.294685514861226849e-01 6.717680796394229215e-02 -1.063159771209354620e-01
-3.938290086125899592e-01 -3.599613103166381389e-01 -2.537891015792615446e-01
-6.916753354754507921e-01 1.581315686152211797e-01 -6.706078515624686043e-02
3.744900527522838224e-02 -2.094384222988527056e-01 -5.375350189021543823e-01
-3.958499787265310488e-01 3.613933637718323988e-01 -2.631739348243159471e-01
-1.294951531085497265e-01 -5.920531571888207889e-01 -4.228863900227394779e-01
-2.648946397653440532e-01 7.426895735975981294e-01 -3.543116618604553736e-01
-3.584103719136084720e-01 6.162693850179755684e-01 -2.913942994622957805e-01
-4.401453347731661969e-01 -5.088707912438134029e-01 -2.213469593862923690e-01
-5.220308718744380849e-01 5.619238205389430751e-01 -1.837862587177335472e-01
-4.943875548648795082e-01 -3.037511463515286669e-01 -1.889846197288276020e-01
-3.444009912800429229e-01 -5.374094867787048146e-01 -2.834196292267318062e-01
-4.667083129851515300e-01 3.045335571699586130e-01 -2.160781479701103791e-01
-2.651322194784383468e-01 -2.849389661866567613e-01 -3.389078621119577250e-01
-2.454097238928395000e-02 7.544509944725799611e-02 -5.012990052817470898e-01
-1.786440173174702328e-01 -4.008807997642040433e-01 -3.936417264202319855e-01
-6.212530322525215698e-02 -7.987414706132616171e-01 -4.637943796986025990e-01
-3.500584987773771584e-01 8.688885693082275541e-01 -3.005944525548633894e-01
-7.312799202842466817e-02 -1.041680288223326145e-01 -4.669190872515169843e-01
3.982162744504635921e-01 -1.499974038428851797e-01 -7.739042223151825217e-01
-8.852942594880225391e-01 1.356800184929340680e-01 5.965515512032712464e-02
-1.690295904532377602e-01 -3.696202562014060944e-01 -4.003813133271370006e-01
-3.258618004584867833e-01 -3.217181803134009366e-01 -2.987214870226444496e-01
-3.289526058713359569e-01 4.349031657276207774e-01 -3.079313094298635201e-01
-4.521045674675319703e-01 6.514444019315602796e-01 -2.307583175869996617e-01
1.783625610466390843e-01 -3.916882854053668206e-01 -6.268105521367973720e-01
-1.215981393185569803e-01 -1.670246105520880597e-01 -4.343479775530217912e-01
-1.243416652097131953e-01 -2.457761292947703846e-01 -4.313885948524947556e-01
-2.316255810210035848e-01 -4.334519023538802029e-01 -3.585752340744643440e-01
-5.416747807251865998e-01 4.238848995934603181e-01 -1.689155717021246228e-01
-8.505273502781240946e-01 1.855096256409075883e-01 3.622199899321003336e-02
2.552368472724196313e-01 2.367136747316400391e-01 -6.863141611526414332e-01
-8.681453986024691982e-01 1.611170594147214308e-01 4.808395637696707969e-02
-3.029048117137846940e-01 -3.701825139465703685e-01 -3.129872783215124632e-01
-7.789055082325289092e-01 2.641812128731113596e-01 -1.169581935787293928e-02
-6.920500147250289169e-01 -1.199074855403242379e-01 -6.269046533286025402e-02
-1.066342871677102982e-01 3.112578623782434328e-01 -4.512125937401746945e-01
-8.146453147147181273e-02 6.415416550372672333e-01 -4.725428945996462127e-01
6.255603004553256241e-02 4.233583199056471513e-01 -5.633132865243730691e-01
-8.007277595553714544e-01 -4.693810311595909834e-02 7.165055140362776125e-03
1.465463935023712527e-01 -1.588105959398939115e-01 -6.094984853056004681e-01
-3.990438748650622647e-01 4.011320064139557440e-01 -2.616788232840241979e-01
-4.826524040072270316e-01 2.330513272528753344e-01 -2.046100975226235186e-01
-1.172261092915142036e-02 4.539700851878276100e-01 -5.152828978812171723e-01
-2.983731849135219660e-02 -5.022887955642599822e-01 -4.892690208464786084e-01
-1.105283996656622990e-02 3.190673403582327539e-01 -5.137182961041113494e-01
2.181995460738215542e-01 -9.778233580478574993e-02 -6.571749363817013245e-01
-3.036625190437760094e-02 -3.140582604664304833e-01 -4.917168706008569479e-01
4.414320659399447733e-01 3.042426078625124625e-03 -8.043838111851048245e-01
-4.197562072508995712e-01 -3.351780812052696512e-01 -2.372331379540127128e-01
-5.802012494673431942e-01 4.724448098882563229e-01 -1.444883786079194932e-01
7.060292085397149031e-02 -5.220106364271247523e-01 -5.545377201334358297e-01
-7.445825392688923405e-02 -4.280067994619994320e-01 -4.612454100547738745e-01
-2.733189339164683873e-01 -7.192329934768627586e-01 -3.271196872821193757e-01
-9.048933510691524740e-01 -8.232919437587531142e-02 7.568324721014636769e-02
3.345109562838759903e-02 -9.373210415767185832e-02 -5.366423609767375646e-01
-4.935771400556245303e-01 6.277941146330745514e-01 -2.033365761114006298e-01
-5.728690235231924666e-01 -2.965385534088593178e-01 -1.378636635291932422e-01
-1.315016566794501018e-01 3.047572782094291610e-01 -4.348842101656111292e-01
-5.481527884379343990e-02 -7.079950020575170866e-02 -4.793676721250202943e-01
-2.738068146287869764e-01 4.706017512701652916e-01 -3.444568872688094086e-01
-2.552763909928114638e-01 -7.695452562880653602e-01 -3.381502029970978040e-01
-8.300523179027685661e-01 -1.512783140517172942e-01 2.785464115279250030e-02
1.232382181281139882e-01 1.283070462697472880e-01 -5.985447770510976540e-01
-4.583909623772203235e-01 3.220036285326083880e-01 -2.217664481603872362e-01
-2.294845866138094104e-01 2.339224856535511710e-01 -3.698757474975447046e-01
-1.737830424937390761e-01 -1.523195618418657638e-01 -4.005030162252352643e-01
-1.946594691926786802e-02 -2.880389367123822181e-02 -5.030647519983072469e-01
8.236401335897505782e-02 -3.140406273301232232e-01 -5.653006686590887897e-01
-6.540748751160639918e-01 -1.285807410549965613e-01 -8.734965199162861293e-02
-9.243954586482808211e-02 -3.093838907826910178e-01 -4.512685198294107414e-01
-4.046413873224013469e-01 3.193998305575835306e-01 -2.568123005983763973e-01
-6.243708736766611089e-01 2.030123694704976944e-01 -1.116590643752190526e-01
1.779848304196782749e-01 -3.983208964165540489e-01 -6.264655726538915781e-01
-6.458530230694929652e-02 2.715199436520637222e-01 -4.780699807950694047e-01
-2.969327584356344918e-01 -7.086367567791601596e-01 -3.118632379117211029e-01
9.170886003849375301e-02 -6.100208907710934492e-01 -5.670084456278507989e-01
-3.015092288627572725e-01 1.075586375939871636e-01 -3.209873119129738606e-01
-4.478636339496973040e-01 -2.958679867381133755e-01 -2.194696131015196616e-01
2.921956690176514757e-02 -5.179821276791228835e-01 -5.275849339249193415e-01
-1.107803266946512100e-01 1.826628198460632235e-01 -4.465981189593300482e-01
-1.371343522969387108e-01 4.243364537719314100e-01 -4.329819306507436960e-01
1.010070084800697779e-02 3.777701542075432434e-02 -5.233520586185139711e-01
-4.360733279934470574e-01 -5.216447414994246357e-01 -2.238153710376414030e-01
-3.110812056370429457e-01 -2.729814736167683886e-01 -3.090925620242845895e-01
-5.499315880310248206e-01 7.710540018168278442e-02 -1.583802505803262040e-01
-2.367913936791649077e-01 4.035496654803709671e-01 -3.676233585027599005e-01
-7.577233322712351171e-01 3.057762577026010287e-01 -2.613948814244185584e-02
-5.783433160991199307e-01 -8.227613089286026082e-02 -1.374697609311561763e-01
4.562206289833308781e-01 4.262226329588518839e-03 -8.140549959131071489e-01
-2.010832341226685416e-01 -4.186176111891747875e-01 -3.787315633220371680e-01
-2.185423417923629263e-01 2.624188455571268563e-01 -3.774410370706657303e-01
-6.823746162803662196e-01 3.926518128061682322e-01 -7.661172225273857328e-02
-2.746598413799821725e-01 -5.945786105682947520e-01 -3.280941386499231505e-01
-1.408065570172642965e-02 -1.361381183827062025e-01 -5.049872405549533649e-01
-6.898694006336705264e-01 3.654945051737868433e-01 -7.131659736803255822e-02
2.090243761735180450e-01 -3.070498540779714181e-01 -6.480806691753389082e-01
-3.226570932444723372e-01 -2.406167754791456725e-01 -3.020167705205099029e-01
-2.018234849071673387e-01 -7.122236285518813714e-01 -3.738916261296358345e-01
-1.846360085113983862e-01 5.435620056789297605e-01 -4.037448647560727966e-01
-3.682072638785912622e-01 -2.711385591414283182e-03 -2.758145773614609220e-01
-1.595599675323207123e-01 -6.742850472144757967e-01 -4.020416691958320077e-01
1.589513634809154030e-01 2.037215533135686707e-01 -6.229752271245337925e-01
-2.716628408959511076e-01 -7.008619895714816028e-01 -3.284732879078786083e-01
-3.650285531107658188e-01 -7.433120392059253123e-02 -2.768267000402238609e-01
7.335744065275635883e-02 2.083223047798801741e-01 -5.671729321988969730e-01
-3.215474596128928830e-01 -2.017527604464738056e-01 -3.033177659759409006e-01
-3.562256053435139402e-02 -7.172363659707824413e-01 -4.823032097720759692e-01
-1.948018114929394862e-01 2.087130735018379313e-01 -3.921405007768712370e-01
-2.635661733199867185e-01 1.996091694586450416e-01 -3.471201710258968731e-01
-8.124851544383137059e-01 -1.996930127553665432e-02 1.443939202684414724e-02
-4.098564597697006984e-01 4.720189492521930097e-01 -2.556728917930921607e-01
6.446317313669279458e-02 -6.382731360899551731e-01 -5.488048720766783850e-01
-1.859529903173698373e-02 3.939460632129298534e-01 -5.099061390839949581e-01
-2.969002513031166468e-01 -6.565720265466640226e-01 -3.126570320779703538e-01
-2.211279695767247658e-02 1.307398666331791581e-01 -5.037044773211990512e-01
1.898674470759466881e-01 1.891690856493725287e-02 -6.404131171398543820e-01
1.067726286214452508e-01 -4.193479148293451919e-01 -5.796705161062006839e-01
-6.305181138343507463e-01 -1.912178664869564060e-01 -1.017966322255421247e-01
-5.449778653620425128e-01 5.773885154110319773e-01 -1.690373183636850740e-01
-6.837105855841077995e-01 -2.172448005650351455e-01 -6.668957906756350917e-02
-2.368251506601313783e-01 -6.013305592551191348e-01 -3.526901585117570015e-01
-2.415324704255332813e-02 4.982988247544797161e-02 -5.011719912901942964e-01
-2.318174614189748295e-01 -5.157060001658723136e-01 -3.572294381778624572e-01
1.265588142352778722e-01 1.370573311875894484e-01 -6.008421057368733553e-01
-4.004675054065981454e-01 3.700915304705822972e-01 -2.602889610658877806e-01
-3.270858906871217386e-01 1.997790207332545143e-01 -3.056608406391769783e-01
8.678200209085353001e-02 2.570866196823310412e-01 -5.766592798449418078e-01
-1.025656446065534161e-01 -2.416298402804891721e-01 -4.456641970101535288e-01
7.973811310112194350e-02 -6.328172173148634005e-01 -5.588563931026784282e-01
-2.364458332427463866e-02 -6.013618784801593592e-02 -4.998722574493995596e-01
1.588376658252928231e-01 -4.229185863767631615e-01 -6.136024563662456632e-01
-6.439982832348787323e-01 -2.058425956700443427e-01 -9.278057579108073272e-02
-7.016648597559399514e-02 -2.815807056494332248e-03 -4.703561204501707227e-01
1.133662714396685423e-01 3.305293905808169841e-01 -5.951016906697911280e-01
-1.169904773702053757e-01 -3.500694203065057852e-01 -4.346394261266873782e-01
-8.869109836017017301e-01 -4.724231928296537125e-02 6.342479403830805773e-02
5.078403011706962566e-02 2.708002474592845488e-01 -5.533654621102307436e-01
-1.846022830072186760e-01 -6.047460821774547357e-01 -3.867274232069132789e-01
-4.450891712278894352e-01 -5.601126431221532531e-01 -2.173595553418267157e-01
-4.210354817297026764e-01 -5.787020853267738074e-01 -2.327845129420226533e-01
3.479215920128299611e-01 9.529045431626993745e-02 -7.447146438285443537e-01
-2.158470401626294832e-01 -8.176632194694701816e-01 -3.631733011520386079e-01
-8.341342650380693113e-01 6.931023403853593667e-02 2.724583260742998239e-02
-9.757530574559897252e-01 3.216479020016106000e-02 1.202372538037634608e-01
-2.339747589329909672e-01 5.158481218140025248e-01 -3.711282568541021676e-01
-1.251100643778360888e-01 4.917952562946453776e-01 -4.418316667805831655e-01
-6.616878032231768847e-01 1.694903398012316265e-01 -8.680339240641149479e-02
-8.968631836860704309e-01 -1.620904232334309178e-02 6.946049661704102596e-02
-3.105475739867852858e-01 -5.315027394120700466e-01 -3.056047524843180097e-01
1.040079705974037011e-01 2.651956217264571647e-01 -5.880236833850808198e-01
1.381155196891694914e-01 -4.669818340646588739e-01 -5.994224423378342603e-01
-1.393929035138283534e-01 -2.035987027809418592e-01 -4.221899120710291275e-01
8.226413203708167476e-02 -1.953564563992813696e-01 -5.669965967668278983e-01
-1.312265637546453090e-01 -3.651175932548987868e-01 -4.251236691779986532e-01
-2.237168721489174450e-01 -4.708641598291014585e-01 -3.631824124154651723e-01
-3.057543061036947507e-01 6.572799794610240109e-01 -3.263735578634935353e-01
-2.045464667596730846e-01 9.277937293029693555e-02 -3.840594648753015705e-01
4.914681821745144064e-02 -4.485752844305834763e-01 -5.416221556818616722e-01
-7.396041796419614567e-01 9.832576830304110005e-02 -3.488827535711980926e-02
-1.417369250829903504e-01 -6.643537581808346415e-01 -4.138228471509464157e-01
-1.285565654536823810e-01 4.653142221756894625e-01 -4.391890527668888544e-01
-7.474300776289435899e-02 7.584687119394831201e-02 -4.685360980475028470e-01
-5.301403160232530665e-01 3.372748422112412658e-01 -1.751593915526891976e-01
2.375369473655110086e-01 -4.958559763757814515e-02 -6.705124080963432709e-01
-4.455465034548920095e-02 -2.549309659439945586e-01 -4.833329126194259029e-01
-4.446559024755882827e-01 1.644438466820397626e-01 -2.283938790354172743e-01
-2.866626170773179383e-01 3.310261175460904592e-01 -3.339942649106666384e-01
1.338264178198398102e-01 1.147355336205503756e-01 -6.052547326562429664e-01
-5.583745293851061220e-01 5.975003278009554109e-01 -1.605912160394780686e-01
-1.731301186615111787e-01 1.902362304663380022e-01 -4.060123050616353257e-01
-1.839392249958793635e-01 -3.843052494976939570e-01 -3.904312937866105671e-01
-2.339514102574829779e-01 7.837686541486231784e-01 -3.751191030054773501e-01
-1.335298409476726456e-01 4.597521402078794117e-02 -4.297203313661515645e-01
-3.778012686331093661e-01 6.476804808378279210e-01 -2.792031898198381046e-01
1.146066773577231190e-01 -4.431850673868624746e-01 -5.844303983763627919e-01
-3.595381790516631315e-01 5.157619254362152406e-01 -2.891667298317096568e-01
-6.093612920983072501e-01 -6.257740743900098990e-02 -1.175153963531012230e-01
-5.848819246366021574e-01 -3.595522843014269387e-01 -1.290873193235493599e-01
-3.491437065366622128e-01 3.517178396408273677e-01 -2.935174072391843469e-01
-8.534558258427452082e-02 1.554919444959976292e-03 -4.605129753249038727e-01
-2.002881039687254838e-01 -5.976112510050886062e-01 -3.765945347592598025e-01
1.063521357985428295e-01 1.184888405658534594e-01 -5.873768683188790307e-01
4.412693077097304961e-01 -1.615132496371319004e-01 -8.018357720282716095e-01
-2.807214798069350148e-01 3.102453378669390860e-01 -3.375639211851836352e-01
-3.209088609830920147e-01 9.517974857148046863e-02 -3.081407117309998278e-01
-6.411116866465472741e-01 2.332556972680508989e-01 -1.011804417845618698e-01
-6.462138610893158885e-01 3.931353808102369674e-01 -1.002224637054063144e-01
-3.774052929945530543e-01 -6.411390408315629230e-01 -2.603371894661527519e-01
2.223895116645624725e-01 -1.482501208918691749e-01 -6.591610150944250401e-01
-2.169855123179999790e-01 4.012334504548140668e-01 -3.805170767921325914e-01
1.103440797789879552e-01 -6.843677070210867075e-02 -5.872088269990051179e-01
-5.104793439650871095e-02 -2.601966777954637378e-01 -4.790163507872588489e-01
-9.615432579309315386e-01 -2.132217878829404181e-02 1.117556311069436148e-01
-6.024409540827280196e-01 1.123892089858738591e-01 -1.246288624597566286e-01
-6.133326614471852345e-01 -3.378242897680962531e-01 -1.108388059118762536e-01
-5.881951190725288603e-01 1.337149136305506580e-01 -1.342441334423537802e-01
-7.978278509989113546e-03 -6.625835028114946956e-01 -5.011587143861228055e-01
-1.154456750802770465e-01 -7.198294801744724580e-01 -4.301610034099638269e-01
-4.559562922706229537e-01 6.251321803187694925e-01 -2.278537028649020857e-01
-3.910296735679734126e-01 6.403906952567173239e-01 -2.704603114721437218e-01
3.234430829662225393e-01 -2.121640604796931062e-01 -7.241743051281008814e-01
7.715389012163184623e-02 1.013283058143683302e-01 -5.680633689557823551e-01
-3.171715607989585295e-01 8.920454856031206914e-01 -3.224046871772687783e-01
-3.017356279623885015e-02 -4.535668476370601221e-01 -4.897725135471956426e-01
3.404078302235766240e-01 -2.102381328290766349e-01 -7.352764500601161046e-01
-3.797799448003130185e-01 -2.752845503161804319e-01 -2.642159825711805632e-01
-6.499837235024228388e-01 3.132051156264114011e-01 -9.657565913518548206e-02
-5.681045567994438272e-01 -8.242180771997840993e-02 -1.441508454756550428e-01
-5.915744414271257856e-01 2.984368275348076582e-01 -1.344825822173940921e-01
-6.891845759843223673e-01 1.419699506115728316e-01 -6.844678493857940527e-02
3.694807704772005985e-02 -2.496521988581306972e-01 -5.366113209481384594e-01
-6.224513464318773837e-01 2.663280331651134980e-01 -1.138515415439732975e-01
2.737787257408695329e-01 2.028280823352387463e-01 -6.979143643158307597e-01
9.567546090206654336e-03 -4.013706000816984476e-01 -5.164876460066152308e-01
-7.711800300881199721e-01 2.709709678403315336e-01 -1.683929827067112348e-02
-3.363911764654404363e-02 5.130192247256674110e-01 -5.018533359428654084e-01
6.061724951015518004e-02 -3.155256081382056266e-01 -5.510836540354351332e-01
-6.034780189257852312e-01 -2.453474066188577607e-01 -1.186435650506542511e-01
-2.517629403803005039e-01 3.064152923708832743e-01 -3.564094807741267079e-01
-7.416376064265801649e-01 1.696106962225200909e-01 -3.461875581867449730e-02
-3.670734998903376067e-01 3.390484824224441751e-01 -2.816259192081804752e-01
-7.578714434561746593e-02 -5.088911666753374030e-01 -4.591777674967144618e-01
-1.147176976534798054e-01 -5.055857416814668603e-01 -4.338152923537708650e-01
-3.764519020611488687e-01 -2.852785169048954739e-01 -2.662400307264684018e-01
9.787470772575279643e-02 -4.010086441997123829e-01 -5.741346203924555525e-01
-1.388777198857786555e-01 6.267000552970882765e-01 -4.348467878495307914e-01
-3.111851761500165625e-01 2.782184052745405034e-01 -3.172038129978446142e-01
-1.157003257103053628e-01 4.062439814616100597e-01 -4.467043042873288794e-01
-2.726984618719993092e-01 4.699323877507839975e-01 -3.451704207634118671e-01
2.754243138452315831e-01 2.369142444385285706e-01 -6.994943012527298221e-01
-1.525561880668817594e-01 -4.103224141401589087e-01 -4.105301904180356787e-01
-8.160638622199253289e-01 2.063859819038824928e-01 1.341652796665680249e-02
-3.082657482831582252e-01 2.831643403063006659e-01 -3.191828313935412553e-01
-2.263035851449219094e-01 -4.561626963709114468e-01 -3.617121130899304537e-01
-7.333032220018124159e-01 -3.025800896911027757e-02 -3.709313909929539549e-02
1.854132755434590996e-01 1.984936972513491604e-01 -6.401703967828965558e-01
-4.874225972413386287e-01 -1.846394258953457101e-01 -1.952983940480645386e-01
3.469731393174771417e-01 1.071949959027871796e-01 -7.442721994637030436e-01
-4.451784693966053807e-01 -2.614013698045618006e-01 -2.217337684870586412e-01
3.676221356533982965e-01 1.445071817316248286e-01 -7.583042883898837294e-01
-4.617799362816278619e-02 -7.724596703668284992e-01 -4.745938132061376380e-01
-5.228008070018245190e-01 9.778305269097882502e-02 -1.763964230077499085e-01
-3.309441584496430194e-02 5.459584598359882301e-01 -5.026976615581413288e-01
-2.608780716379149878e-01 4.289702684398396526e-01 -3.522782338998278751e-01
-3.725382223512566093e-01 5.919323156043176937e-01 -2.818113568257950008e-01
2.519275162114579802e-01 -8.363705213199972011e-02 -6.794004248544385227e-01
-2.957071057213629950e-01 -5.755890060024213550e-01 -3.146375324635641846e-01
-5.696591085602399351e-01 2.605517912367415478e-01 -1.482254267532521763e-01
-1.636701569685984625e-02 1.171435502352887875e-01 -5.072532253909677324e-01
-1.735070316788153988e-01 5.100364594779965843e-01 -4.105117142547670128e-01
-1.145399399590225076e-01 -8.216137616961335932e-02 -4.402144097793463939e-01
-2.364810310707374796e-01 -2.935611300488508713e-01 -3.574816924012196306e-01
-3.504707791343820711e-01 -8.565793406835305046e-02 -2.861610647314817846e-01
-7.345784607165222191e-01 3.363150212825026797e-01 -4.170022517094965769e-02
-7.734776604882251938e-01 -8.425159346468721888e-02 -1.006848491013728406e-02
-7.883157889803134033e-01 -1.003608195330300545e-01 -1.440063856306237234e-04
-5.329882287288905118e-01 -4.863024858875066303e-01 -1.610795881593080070e-01
2.103626321126184640e-01 -2.328108177122642786e-01 -6.500558165850607306e-01
-6.477966971537962859e-02 -3.228067557516218766e-01 -4.691240447053047213e-01
-3.502822237233215175e-01 3.404337404114184951e-01 -2.926068097853417593e-01
-4.155287157766086037e-01 2.000464089790672528e-01 -2.479346519903702917e-01
-6.411538250460707689e-01 2.813670205610850905e-01 -1.018668482240408235e-01
2.487740783449521598e-01 -2.566186944537984238e-01 -6.747752191174760661e-01
-3.134857715076156542e-02 4.887619694381218349e-01 -5.029885156783409084e-01
3.490260400217135572e-01 -1.842010323508630198e-01 -7.412882570280033834e-01
-1.409443150099881359e-01 2.162672102739402955e-02 -4.245193075042264508e-01
-4.134165451837938932e-01 4.277588211041571942e-01 -2.526923172411686958e-01
-8.634723604200991165e-01 -9.532092785123227885e-02 4.883889707205345959e-02
-3.093659223653504875e-01 8.374432587058798783e-01 -3.266895096935893417e-01
-3.686474578853336515e-01 -3.808693326305530591e-01 -2.699158543202442861e-01
-1.438381091468624307e-01 -4.356322892401336411e-01 -4.158452610572580532e-01
-5.232507904100414109e-01 -4.903259705141796432e-01 -1.673758987053899916e-01
-1.992988788240488418e-01 2.131884523651917662e-01 -3.892714947468623454e-01
3.130469527817498765e-01 5.390301833408067678e-02 -7.213364392828262028e-01
2.030584902754285770e-01 8.365378185465883742e-01 3.717791456256272498e-01
5.416829950597978893e-01 -5.006825285719656016e-01 1.705881144025959972e-01
-1.116715708680526692e-01 -2.909632201503792315e-01 5.939467033813005115e-01
3.302054782326435678e-01 5.266812921444823381e-01 2.933831230486356190e-01
3.898386174892306544e-01 -3.528295683220917245e-01 2.675090376245536361e-01
5.253713033851808989e-01 -4.924846914039537893e-01 1.811137599262648001e-01
2.425746591545731579e-01 -5.304004897885691294e-01 3.662690219934414682e-01
4.325130225420053542e-01 -1.826527432644095561e-01 2.371285416859295614e-01
-2.577869228141480007e-01 1.642364368590165657e-01 6.825674227785004655e-01
3.364621335020673287e-01 5.607219534556900919e-01 2.887940339982959514e-01
-1.116457107609072907e-01 3.182171864710752612e-02 5.891400987600008410e-01
-4.088554128429122692e-02 5.504949285117425317e-01 5.352556547791822439e-01
-2.197953447308995667e-01 -1.514126407291194187e-01 6.624526432558265343e-01
6.495294471851897899e-01 -1.020965573466422853e-02 9.291443358354435633e-02
9.650932165942635588e-02 7.236732297709627115e-01 4.430028032413014238e-01
3.006863678441754617e-01 3.501219498919491135e-01 3.152713424961931521e-01
3.251529735985587699e-01 1.144937480932122498e-01 3.027974416853089212e-01
1.238521366523970546e-01 1.410071721200153450e-01 4.338010936926900429e-01
2.043506163740929360e-01 5.884959971402128343e-01 3.746163537680377020e-01
-6.881997899951838860e-02 -4.511025937711716366e-02 5.623276113614241734e-01
4.697739750599702613e-01 -2.415966395478412188e-01 2.136814868237557064e-01
5.779573684227513886e-02 6.543683850607473484e-02 4.780401073913478904e-01
-1.554210272815625682e-01 -2.295841102463834771e-01 6.215929277772646033e-01
-1.676077528461585031e-02 8.288458080102360792e-02 5.264472112420196526e-01
4.255472080629208453e-01 1.008227659739382581e-01 2.374689844430983021e-01
9.300122708702385915e-03 -2.334334899202032410e-01 5.141299890692631047e-01
3.518578504941096141e-01 -4.290020279462212760e-01 2.934309017760909910e-01
5.753879722690604659e-01 1.571474236841409189e-01 1.388261590761738495e-01
-4.398530563401130689e-01 1.232639190168932780e-01 8.020172243211067808e-01
1.911936513693029693e-01 7.862115767149611134e-01 3.802705772622924085e-01
4.425009809888921231e-01 1.656438973144045146e-01 2.254407167514894117e-01
-9.520966466712514620e-02 2.597781108652656434e-01 5.750290488082209217e-01
2.241432389454023344e-01 -2.768667566363652299e-01 3.745378210125581697e-01
6.199322912445222045e-01 -4.484291575677898378e-01 1.187363059133897669e-01
4.559754987290554618e-01 2.818086487326990422e-02 2.186851415068860327e-01
2.388140238891632572e-01 -6.986539507725271214e-01 3.712204093730416821e-01
3.589523464895195692e-01 -3.975291775898396329e-01 2.883330237985252675e-01
-5.124501144885029215e-05 6.428710126709138439e-01 5.072307368378723424e-01
4.977501089003683044e-02 1.390364516102010894e-01 4.821834286560208183e-01
8.946854585818835304e-01 -1.688477348523945709e-01 -6.475467380507785031e-02
2.955171065441365985e-01 -7.587715732422037895e-01 3.351001180357179310e-01
2.286267887930936715e-01 -1.531248754240232754e-02 3.677300912009380807e-01
5.369282841414021457e-01 -2.809203698526005488e-01 1.704307081723731299e-01
2.801692714350680347e-01 6.135454015024174312e-01 3.247547944343561199e-01
1.483100201571615484e-01 -4.964674740616106252e-01 4.272957847802104636e-01
3.676265631698629188e-01 -7.151094770859686145e-01 2.873835112687818660e-01
7.385401861688077607e-02 -4.604606901453887069e-01 4.753618884047510762e-01
2.012264578231023893e-01 2.660935317666460742e-01 3.814396658227460768e-01
2.540478878737137958e-01 2.717876268441138821e-03 3.508691787642815307e-01
8.281409202165962435e-01 -9.984509467487126533e-02 -2.234231469451432653e-02
1.621631196567800137e-01 -3.310938932387338385e-01 4.157993776322376767e-01
7.240331108520288161e-01 1.516126033930023653e-01 4.188168346826581095e-02
5.534603901162442607e-01 4.593984043601234135e-01 1.486541393072654260e-01
5.336669265185327582e-01 -1.027001924413528250e-01 1.699149617714969529e-01
3.821660332122748804e-01 -4.042151017432294435e-01 2.732797361667246849e-01
-1.181586286650664203e-01 4.301644450060921332e-01 5.874804320678087555e-01
1.379334092289948299e-01 6.477765076829903323e-01 4.170898629588012385e-01
-2.634129959589819880e-01 2.286221201982508444e-01 6.852843819209870624e-01
-1.103198386131579029e-01 -7.016469512209097537e-02 5.897879999723817379e-01
8.367833213855474517e-01 -2.004395123221365538e-01 -2.649085901686210054e-02
1.981229266694890800e-01 -3.526020737514931058e-01 3.926461331003630595e-01
-2.681338246344430742e-01 3.565221184431094370e-01 6.864679789456277215e-01
-1.398472841381461496e-01 -8.994750387912912870e-02 6.093552924607010812e-01
3.316814166134841035e-01 3.157006155833737004e-01 2.955504085623249511e-01
1.947890847408255688e-01 7.549483443051238085e-01 3.783876018834900212e-01
3.417471813971068029e-01 2.860662996725648610e-01 2.894198189469577853e-01
-2.933041453432434428e-02 -4.776088617982896523e-01 5.429689372067153519e-01
-2.420991568662510252e-01 2.319125110456705385e-01 6.713231645110763202e-01
3.879478997096175164e-02 -3.259615498399855982e-01 4.962506450533438196e-01
8.174405614983913937e-01 1.552736732324325741e-01 -1.914340752396713474e-02
3.907318112716409164e-01 -7.215499099739032529e-02 2.627611548360583305e-01
2.927663395061386176e-01 -3.043345302710457334e-01 3.301523760661470019e-01
1.720046941258883966e-01 -1.516408001003863859e-01 4.067125303799707381e-01
2.036932945678215576e-02 -2.347219827619974608e-01 5.069237963421444615e-01
8.731962906846089112e-01 -2.040384771046055250e-04 -5.323029906837008912e-02
3.349941264551398179e-01 -1.388122752489092115e-01 3.001324735580728209e-01
7.903868676331853027e-02 -4.824631734160929608e-01 4.723041382254892784e-01
-3.693737184529711226e-01 1.878642264115938931e-01 7.550539641527924672e-01
-1.298705520746318842e-01 -6.486339561709679458e-02 6.024708650858258130e-01
6.604047844357016084e-01 -8.313639822539066471e-02 8.689780921092206400e-02
-3.065610405033925567e-01 -6.580336115079506165e-02 7.178177358587420898e-01
5.471441445628429934e-01 -5.145376998528078394e-01 1.672289979062564769e-01
4.930084674587760230e-01 -3.581386613903267402e-01 2.002447455615864180e-01
2.787988358965914903e-02 -7.930133829117080868e-02 4.997151104282504530e-01
2.096240976330120409e-01 -7.322388585832369234e-02 3.809932376784813113e-01
-1.323924854265683126e-01 -1.744216835932146659e-01 6.057427394228187545e-01
6.266443409243155349e-01 3.253898413318232485e-01 1.028725776916300655e-01
2.599447937973984879e-01 -4.051533048168126094e-01 3.530723313723884704e-01
3.315158768699266179e-01 5.181460584150000548e-01 2.926544258303498403e-01
-2.625653236372816890e-01 -2.164131936411433088e-01 6.913348397505630905e-01
5.744311468709528690e-01 -5.223290524625371356e-01 1.495332980469331330e-01
6.336220701098231878e-01 3.856957132850539205e-01 9.742307209263539880e-02
-1.529442337803298690e-01 3.853918561492206130e-01 6.108507519321005885e-01
4.674435544467188675e-01 -1.864286275409048343e-01 2.143840209396962737e-01
9.771688730544479673e-02 -6.083355108351637397e-02 4.538556762597765193e-01
2.923831153326513221e-01 2.770787577467577201e-01 3.217750758894817875e-01
-3.941936242144119529e-01 1.276667113155164901e-01 7.721481615280583188e-01
1.418915420811394379e-01 7.641182256212144530e-01 4.127798663611053631e-01
8.539572174926535197e-01 -1.308117080952971023e-01 -3.873413489329080583e-02
2.875459947826240481e-01 -6.417826158259226643e-01 3.385672105499852869e-01
9.455025875373886945e-01 4.050779029289117150e-02 -1.010316130181995731e-01
4.518883339119748599e-01 5.541363792226321472e-01 2.135484749746782152e-01
-3.670704689895641359e-01 2.281022230669064177e-01 7.529534599102197800e-01
5.430480521639223790e-01 -4.511657962258817101e-01 1.689623208693397660e-01
4.507411932006857302e-01 2.604401253369765801e-01 2.186553444338545094e-01
2.564745652647677510e-01 -3.665323223945571307e-01 3.547644007575800340e-01
2.757901079304547198e-01 5.717000454989130259e-02 3.358691638463695561e-01
1.561579473739259649e-01 1.423135762325059561e-01 4.126944182551471330e-01
-1.390927926869640896e-01 3.569767013426151103e-01 6.022310097056444711e-01
6.472534603076298687e-01 3.353973727827960216e-01 8.927168495528013670e-02
-4.134473748210882316e-01 -4.008294183350122331e-03 7.866697441658851986e-01
-2.440006404201190415e-01 2.347507170671360999e-01 6.725222231733735123e-01
6.672821147360894489e-01 1.239828100957687529e-01 7.933531171186737618e-02
1.171923950179577512e-01 -6.881156682302896899e-02 4.412616200560458002e-01
-1.888672693968123165e-02 -2.918227703120522890e-02 5.294978365842429868e-01
-3.262776524972313408e-01 3.311539414330218201e-02 7.292197236235885560e-01
7.834877209476404092e-01 -3.103742496414789720e-01 9.928597179830791694e-03
-4.216638763324174338e-02 1.392722078750849302e-01 5.421937449811885523e-01
5.122300812328990371e-01 6.605072276428091381e-03 1.822856915499973807e-01
4.975865387934014783e-01 3.727024317815328391e-01 1.864116884012241571e-01
-3.569202462657207475e-02 2.644709476262351866e-01 5.361098775667468841e-01
4.436800180760602230e-01 2.512789382442063291e-01 2.234003953795273001e-01
2.899269899069347733e-01 -6.078687016937318610e-01 3.365098000898318897e-01
-3.260735177323646483e-01 -1.092499352053809270e-01 7.311990001212331780e-01
1.379614681053615011e-01 3.205756011148769291e-01 4.219267999483989895e-01
8.607296011007827818e-01 -1.606587591163889106e-01 -4.271184665225206262e-02
1.930218408988235504e-02 3.022287941236673214e-01 4.996526868265952492e-01
1.561158031458613205e-01 4.351805533975903195e-01 4.083761478976706272e-01
2.198593676753919646e-01 -2.456633698181655279e-01 3.768710552754617749e-01
-6.165840211540519339e-02 -8.886688201187487035e-03 5.571154522606757142e-01
-1.071749847731530147e-01 1.853148264811563251e-01 5.839442320450729529e-01
2.166264051069761998e-01 6.800457144655002173e-01 3.652449739960511588e-01
-1.813098307579808222e-01 2.047420331236511348e-01 6.320467248268757388e-01
-4.863381649553163988e-01 5.607329865581352213e-02 8.333569318848368379e-01
-1.026843306699155578e-01 3.451458238566551540e-02 5.832506901371099506e-01
-4.136305842437308922e-01 1.011362850163685656e-01 7.852291182338291264e-01
6.730141232357020331e-02 7.555749603404460224e-02 4.716851963092792976e-01
-2.546861506742482684e-01 2.238784620068337006e-01 6.796584121948886503e-01
5.849975692105570113e-01 -4.184425984388823738e-01 1.410946280978079836e-01
-3.114886907404706418e-01 2.502882571082422625e-01 7.163438053386899096e-01
-9.526888366514489614e-03 5.300108826395311112e-01 5.150905700027680334e-01
-2.403400394713257893e-01 2.314555837338527489e-01 6.701816987168165429e-01
6.662557596199663035e-01 3.065802680088791643e-01 7.729573674384071502e-02
4.125227567971352649e-03 4.303465093039380851e-01 5.076581845231978862e-01
2.596648954436529128e-02 5.510003075956133589e-01 4.916111710306085292e-01
4.961609354200881006e-01 2.935623258565999150e-01 1.885165767032145889e-01
2.749331261011837557e-01 5.090690634819348137e-01 3.297229333125010764e-01
5.878563935955708475e-01 -1.499985977392815639e-01 1.352451863422890754e-01
3.215934771038689854e-01 -4.467345897481707073e-01 3.134487933483893207e-01
6.122338461888183758e-01 -3.535183931900453408e-02 1.176318371247365852e-01
-2.379122725219661727e-01 -1.987305050415323626e-01 6.749804218925460342e-01
-2.167128075812227439e-01 3.343378571896959972e-02 6.576976586881152498e-01
6.078250095397077502e-01 -4.459580381795652526e-01 1.266025428332203107e-01
-2.483458479261592411e-02 -3.638896836903333099e-01 5.383468796325157069e-01
-7.286707155640277656e-02 -3.575287140324237001e-01 5.696052089910187410e-01
3.542771560602103742e-01 6.772053401873605327e-02 2.844809831878554185e-01
5.259755609620094807e-01 -3.490933271030944307e-01 1.785915884578484492e-01
4.779916231112998209e-02 5.618111955564892845e-01 4.771996954370106847e-01
4.413725242732511322e-01 -3.938835282105215135e-02 2.292197275221343200e-01
4.946657875297985618e-01 -2.701047433729263370e-01 1.978566334915626834e-01
1.073650849190047885e-01 7.816863690264831410e-01 4.350559715487734569e-01
2.549076423594083263e-01 5.522817486820607025e-01 3.421531423694803564e-01
-2.532575309900150784e-01 -2.733621286004411788e-02 6.824536067109928661e-01
4.563920087275383231e-02 -3.835901184199531997e-03 4.870030836521339057e-01
-3.137128317302435854e-02 8.408466948971499155e-02 5.359662641502574987e-01
4.042821740612618231e-01 2.390738637362450070e-01 2.492980461977857276e-01
1.406861785688896527e-01 -1.630606518475697930e-01 4.273248298315316940e-01
1.206895285328169753e-01 3.686387874562539052e-02 4.374108102353038707e-01
1.211688350140531223e-01 -5.266553295468210383e-01 4.454598679026072205e-01
-4.185034135366082209e-02 -1.148581066802377947e-02 5.442245093822174473e-01
3.940143804573127406e-01 6.027072763837767466e-01 2.506043793008285170e-01
-3.446750722015780033e-01 2.613684802283869346e-01 7.378414623355489255e-01
1.458808796629397775e-01 -4.464293015813418641e-01 4.281388776977402277e-01
2.234218782120693525e-01 3.543706727327581851e-01 3.656419081137857185e-01
4.792752905088312199e-01 3.958269729300230022e-01 1.980210305916642044e-01
8.641943323013455691e-01 6.051520508955884198e-02 -4.825535972311532223e-02
-1.354662144105615029e-01 2.836155526170647811e-01 6.009523852213851658e-01
-9.410202495456139460e-02 3.447531063986914446e-01 5.730451255958151080e-01
2.448431609714115664e-01 -1.127153137611556916e-01 3.585903549560829906e-01
-9.761397887486998604e-02 -3.504745383401563497e-01 5.856538264118531512e-01
1.178319271313732070e-01 -3.747693784287891572e-01 4.453842031419401604e-01
2.474677243571971330e-01 -8.068748814583015516e-01 3.671776574608937582e-01
5.775204486208808108e-01 4.141994835007175024e-01 1.336198757784470559e-01
6.452419677901033435e-02 2.090988418283859784e-01 4.715164090504805894e-01
1.758857482092167634e-01 3.653148198061348384e-01 3.965082370153119040e-01
-4.344106789411150693e-01 -4.398654503348623651e-02 8.009465553775824143e-01
3.729161381188749735e-01 -8.234158715065518219e-01 2.855379263172016513e-01
8.707913098576701427e-02 -4.682865001445053743e-02 4.605915485088060146e-01
5.737414668615906654e-01 -3.731817838659461373e-01 1.477703207847376188e-01
2.739692740163910400e-01 -1.595918097325555451e-01 3.402741688641064410e-01
3.972372951926196327e-01 -3.422638567105069640e-01 2.625228439094984823e-01
3.664590009840681395e-01 4.461559310450218252e-01 2.709138996810520061e-01
2.759777220634844833e-02 -2.943617481746044762e-01 5.030904832196521070e-01
9.562990219884500709e-01 -9.709017346892701754e-04 -1.074633841178064819e-01
2.155547238634574966e-02 7.411524939118483424e-01 4.916687971362959653e-01
-3.173024568992638406e-01 -3.981876442366005103e-02 7.244435074729493884e-01
