1.968289520333211251e-01 -7.710121928503819166e-01 1.586808863476281972e-01
-4.760041956066249358e-02 -9.917966480237210281e-01 1.380407887810911616e-01
8.574055878926601926e-01 -1.553684400350167083e-01 3.158744656602130996e-01
2.702885039675977930e-01 -8.056235368945301456e-01 -3.749252298679539019e-01
4.616390657669146025e-01 -4.721802747568145109e-01 4.998985096201626899e-01
6.912951402980122007e-01 -2.851106857103667402e-01 4.103791465350785095e-01
6.614476543591700786e-01 -3.456749868040647211e-01 2.281940157462899466e-01
3.392355302858686694e-01 -6.840351354813140050e-01 -5.199646665003587742e-02
5.966759237328103094e-01 -4.304235097211907002e-01 8.241878972760698085e-02
4.404687221761546811e-01 -5.721480834768993828e-01 6.587019148317388439e-02
4.504173264230566104e-02 -9.686579920423444845e-01 -1.778233620363836309e-01
7.304863950497195724e-01 -3.588130362495449699e-01 -1.696287273993696831e-01
3.339629951622956616e-01 -7.453600412769842976e-01 -3.548531888574778526e-01
7.429923044202054738e-01 -3.958455689938276678e-01 -4.269624852614241628e-01
4.425010210662837506e-01 -5.919089608900517385e-01 -4.942453895696550387e-02
8.977787783843846903e-01 -1.831933794102474089e-01 -2.445749957261498034e-02
3.530884848474794557e-01 -6.409589177549777084e-01 1.125804630065332657e-01
5.348648916219574945e-01 -5.103182046947044581e-01 -5.145353330753069804e-02
6.203351477690134397e-01 -3.864354619825778880e-01 2.053413284728743127e-01
5.622667303695596530e-01 -3.784563441453922539e-01 5.235290051939315292e-01
2.535753539039420912e-01 -6.649804246331593172e-01 4.563263613033523014e-01
2.643928227632932892e-01 -8.192837882329291332e-01 -4.199856457483205907e-01
5.139221542864400583e-01 -4.715245574760368874e-01 2.553277147309608308e-01
6.019872525209978287e-01 -4.076779521807266105e-01 1.788265649537115198e-01
4.933073051358592420e-01 -5.267572093832423308e-01 5.784061500138772127e-02
8.042293421037108869e-01 -2.740732367400121605e-01 -6.646742015106099633e-02
1.794490362498499803e-01 -8.835282174102315755e-01 -3.604216918334882669e-01
4.932492836917107965e-02 -8.518877325940635847e-01 4.261667941399732151e-01
2.886074564600550341e-01 -7.969380387265170285e-01 -4.154092216646262381e-01
7.066015959296368942e-01 -4.447366545849539832e-01 -5.156898938202638671e-01
3.565967515970652202e-01 -6.349255605189976226e-01 1.281915897835884666e-01
9.731618007202734733e-01 -7.767530723217611066e-02 1.820131045754630750e-01
4.644695807977954893e-01 -6.269810869777420193e-01 -3.411760331712007654e-01
2.643718132520740394e-01 -8.274452749200548185e-01 -4.635214294857198936e-01
6.445194869099234447e-01 -4.693509332464282369e-01 -3.527186860430818749e-01
1.727475567846558924e-01 -8.278493625468119621e-01 -3.093646439979096108e-02
2.516920075906047827e-01 -7.023597591767395398e-01 2.654136090866890396e-01
1.550075803362430116e-01 -8.482423033867505513e-01 -5.579360092833537954e-02
4.809436341808591697e-01 -4.367468627004242321e-01 5.977458882204369495e-01
3.336021670938451034e-01 -5.728917568414658712e-01 5.689623229874225530e-01
-4.434626638339667637e-01 5.088039925899309202e-01 -2.581527673014159530e-01
-1.783857584415282360e-01 7.601374674346093041e-01 -1.721519441167886633e-01
-4.104571380375598988e-01 6.351160107336165650e-01 2.605687014809286994e-01
-3.801311282367386690e-01 6.751369706717553765e-01 3.306481160618783277e-01
-7.651011366312161499e-01 2.409494661497015300e-01 -1.641061288987112066e-01
-2.668837921863314033e-01 7.943266661941179585e-01 4.305528482945286117e-01
-1.710889886916596991e-01 8.022804327141852543e-01 1.854360353568719130e-02
-2.953500646818125186e-01 7.381762225930293964e-01 2.654127694543451099e-01
-1.761568070963182575e-01 8.275134918984254906e-01 1.774985625700113701e-01
-3.917903198735572801e-01 6.357547507190386415e-01 1.754120573115759418e-01
-2.617013474858088107e-01 6.749929133547414306e-01 -2.320563091183552307e-01
-6.526252545712809550e-01 3.298338271168833047e-01 -2.225687237474985036e-01
-6.741699851207015592e-02 8.430984954571588696e-01 -2.551325960197009524e-01
-4.703216335884797261e-01 4.418795667178173070e-01 -4.885224981483091700e-01
-6.387990454694014719e-01 2.764712258860211325e-01 -5.734760120967854480e-01
-8.944210839640300836e-01 1.601441773414493397e-01 1.747425075660961197e-02
-8.056450474288358032e-01 3.104649351703691607e-01 3.999347212177520872e-01
-4.933473510380786964e-02 8.341025313619471193e-01 -3.890276452466941981e-01
-7.791629457578728157e-01 1.965201932219977632e-01 -3.349261935840608384e-01
-5.977772172353387065e-02 8.498937248950916290e-01 -2.550492281315255294e-01
-5.476555644948061241e-01 3.456573222146657742e-01 -6.360360529169192256e-01
-2.142684213819315633e-02 9.303636129530215015e-01 -6.786194623444244747e-03
-1.228933006104207110e-01 7.292666068770667920e-01 -6.005079550601959415e-01
-1.399917247117366814e-01 7.220613461664849853e-01 -5.579011104291136114e-01
-3.287933378027765308e-01 6.950655572083443978e-01 1.936052307296933506e-01
-6.630093541295719595e-01 4.575684789005149966e-01 5.096371145034279682e-01
-5.948570020779579970e-01 4.344322598424872894e-01 6.256485747541234987e-02
-7.402736572181601860e-01 3.466404519105357185e-01 2.831685696780303907e-01
-3.086843099794281953e-01 6.355116046466753321e-01 -2.202153545641170052e-01
-3.291988420936454163e-01 7.502007656783290512e-01 4.903102471456182720e-01
-3.067206522683154635e-01 5.866018825982907137e-01 -4.910289842709796848e-01
-3.193363359326063522e-01 5.797428229563894586e-01 -4.678412043777824825e-01
-9.274769355131665116e-02 9.284036197153689995e-01 3.211430351087347090e-01
-8.569153879070003921e-01 2.249072293774753151e-01 1.857708146356502610e-01
-5.176324910337167795e-01 3.803461484013971883e-01 -5.930275510782272441e-01
-5.774859484088685768e-01 3.171602228152021752e-01 -6.468547121599245164e-01
-2.770495596592172372e-01 6.354328119998899904e-01 -3.707394801344358060e-01
-3.846019014095137800e-01 4.952572445083379127e-01 -6.098674116812871082e-01
-6.484230109178359402e-01 3.099642379667555958e-01 -3.487407940329114164e-01
-4.628086095840879821e-01 6.098329943442939438e-01 3.737938611350306584e-01
-1.023523335965793452e-01 7.677249355039943435e-01 -4.923543832291270572e-01
-9.141959834425400500e-01 8.334861939789381391e-02 -2.992845985589240310e-01
2.543105194202032945e-02 9.582457380646488554e-01 -8.004886800713886807e-02
-5.711360144986274978e-01 5.105831372776652444e-01 3.571532306344477603e-01
-2.593381604640649374e-01 7.447496610940148587e-01 1.296858274777001052e-01
-4.910176503669165804e-01 5.850406220129217294e-01 3.750894960718591520e-01
-8.854839176406653634e-01 2.187919974479729801e-01 2.886296990712795552e-01
-3.893250244654490322e-01 5.583020470404332913e-01 -2.503871195836293029e-01
-5.302665746787860179e-01 5.400463046151039448e-01 3.207580680304642495e-01
-4.928039163391807476e-01 3.693053860640435615e-01 -7.698655223549941695e-01
-5.029228113833270619e-01 5.662807311228035267e-01 3.312780217833402041e-01
-9.087617853117602174e-01 1.250935053665698238e-01 -1.018797209377830526e-01
-9.890806954158748443e-02 9.208924605207903236e-01 3.102147456588891239e-01
-4.005366452026168367e-01 6.950990506049360418e-01 5.341971567664592913e-01
-4.782820145922168087e-01 6.177237420498744580e-01 4.894011590162107850e-01
-1.680238764307366295e-01 6.915615955630604050e-01 -5.879593472711557300e-01
-1.517938376903962272e-01 6.962493940344517407e-01 -6.399054513459779825e-01
-8.083448317295252039e-01 2.739343818392616647e-01 2.174338805785906159e-01
-6.129242335685960441e-01 3.056332543687588776e-01 -5.403336175303952160e-01
-4.029556311093967502e-01 6.794443066764750405e-01 4.619766898200037275e-01
-8.127687810632679977e-01 2.987018423561395020e-01 3.708444349143821817e-01
-2.527005182893511948e-01 5.915746832681985090e-01 -7.207605085174635384e-01
-1.051874364126523104e-01 8.845777194470643146e-01 1.458524106830228206e-01
-5.501230566394910149e-01 4.057732671545031256e-01 -3.029176088833586689e-01
-6.235811570502611811e-01 3.393762068114202779e-01 -3.093608365262787707e-01
-8.710602371847440129e-01 1.157742225073685460e-01 -3.305944036313567813e-01
-1.711996175957428701e-01 6.956650771592179927e-01 -5.509515541508251957e-01
-3.106128344604634495e-01 6.769152316887346865e-01 1.030015950661276013e-02
-6.781635412793989293e-01 4.165060695820724246e-01 3.620012147347457243e-01
-3.804572339629593847e-01 5.444643839601815971e-01 -3.664468614662697021e-01
-4.870932702950435678e-01 6.055231452106119017e-01 4.659788302322072640e-01
-1.310718703904554805e-01 8.493222100475799063e-01 8.017681424040692950e-02
-4.626831813011371142e-01 6.016275870289435890e-01 3.293284266375927083e-01
-8.363515695031347175e-01 1.403624684016507307e-01 -3.638213041889657995e-01
-6.037066957018442093e-01 4.958815493551318454e-01 4.330947746679628119e-01
-7.270860737238544758e-01 2.308193340283424821e-01 -3.986436130704496539e-01
-6.364371663183351346e-01 4.859687333857425906e-01 5.353977168339330017e-01
-2.821207119925705498e-01 7.771701659810515972e-01 4.111226894714886115e-01
-2.753148670883513449e-01 6.837890173099410163e-01 -1.204334341769785210e-01
-2.651853392963939848e-01 6.657579085260206808e-01 -2.649002586531192804e-01
-8.532871343711680989e-01 1.930309232276241904e-01 -1.871779653142554862e-03
-1.042270683760812416e-01 9.059227789988059110e-01 2.554171636733091888e-01
-5.264787117586735565e-01 5.687272233499163221e-01 4.561279634147119011e-01
-2.943548937923538000e-01 7.458909579792849520e-01 3.019377212111498676e-01
-4.057557863837567558e-01 4.753058805869204706e-01 -6.161650917342282874e-01
-3.090419076560189660e-01 7.154871064897797561e-01 2.090712310482066294e-01
-5.966518969295068198e-01 3.830951251510428812e-01 -2.033931054437634889e-01
-3.395328921197736660e-01 7.083457664418921773e-01 3.155658208081179583e-01
-8.242798820568453255e-01 2.393631489278896518e-01 1.082082174728739854e-01
-8.584462825929414231e-01 1.352976257127848914e-01 -2.860639382324047242e-01
-1.143991243212470199e-01 7.516530244507307890e-01 -5.211225311879441602e-01
-8.427763714537865880e-01 2.363198125011228279e-01 1.797004741276489737e-01
-6.140127397306285872e-02 8.170418577730232945e-01 -4.229885196815809101e-01
-3.811394158349842853e-01 6.711709432108108331e-01 3.142279062879956286e-01
-5.749220473623180006e-01 3.117584695682715235e-01 -6.879006243921106378e-01
-1.050996897667984681e-01 7.864798016840969241e-01 -3.790454463372217586e-01
-3.593503148784308321e-01 5.598204972405861346e-01 -3.844948883201572687e-01
-7.530135864686550162e-01 2.018994618802081864e-01 -4.302412575520563331e-01
-4.453347437676796750e-01 6.347154580985733263e-01 4.239169384179333755e-01
-2.363554391459394000e-01 7.115041969259102705e-01 -1.571114678127646103e-01
-6.063442140791562851e-01 3.895765231488607649e-01 -1.227514353987581158e-01
-5.858155337874838553e-01 4.568777916858244303e-01 1.396695055697142751e-01
-8.667054629509933494e-02 8.207037973320424618e-01 -2.835104449889994660e-01
-4.862541254325664086e-01 5.095239604222567831e-01 -5.126341850080050333e-02
-8.346521256260592825e-01 1.287391008846610618e-01 -4.340294009632653660e-01
-6.114270747281161933e-01 3.896837527662020406e-01 -9.806060495985523262e-02
-3.190806330806515434e-01 7.262642882566822111e-01 3.143240156319560552e-01
-9.168063947387999901e-01 1.251759620466723344e-01 -6.326821864422665920e-02
-6.522829514045076493e-01 2.576639686067420665e-01 -6.100497877631012589e-01
-4.002744488968820180e-01 4.548684510402557502e-01 -7.514422637263710181e-01
-5.572633865343908921e-01 5.400035462678712816e-01 4.486258928565495796e-01
-4.804306695692917573e-01 4.230863410993813689e-01 -5.410345813602525089e-01
-1.708635065070547854e-01 7.683558370853489361e-01 -1.639044746512593742e-01
-2.087415932115493367e-01 7.208393484822341879e-01 -2.382251663709890888e-01
-4.429093638423198254e-01 5.982442502963466469e-01 2.174151379617263180e-01
-4.740419529513564129e-02 9.164148274790834270e-01 4.189571375660889468e-02
-8.675743895630826374e-01 1.616050943673810192e-01 -1.020990861409547396e-01
-3.382999030767839810e-01 5.542348196605899613e-01 -5.142402921448832043e-01
-7.256373411687273567e-01 2.059296105897055196e-01 -5.385908227940475745e-01
-8.995210264521220633e-01 1.758371818166267753e-01 1.255756353981235807e-01
-8.343499035376609196e-01 2.770157918052695289e-01 3.572994227434349579e-01
-4.601875475463303999e-01 5.605156191459269577e-01 9.768140996089727524e-02
-7.821935921031815120e-01 3.153187646200756311e-01 3.146116017867590098e-01
-8.650642837731575829e-01 1.249309105209687604e-01 -3.100881135051036797e-01
-7.288675125581896008e-01 3.357457537420696081e-01 1.707992524062286743e-01
-2.763128522906848072e-01 7.933435617159989572e-01 4.700363591487581871e-01
-2.976350485238395960e-01 6.883267536196330250e-01 9.734036177046035548e-03
-2.745365426299294365e-01 7.034463137067920036e-01 -1.902855039423939285e-02
-7.654169375380034390e-01 1.635955877560701099e-01 -5.761809877150446679e-01
-6.069198104236931401e-01 5.198378498410998194e-01 5.764231977184385292e-01
-6.629194965464220157e-01 2.365329293761922191e-01 -6.725580513550600825e-01
-3.764547137036166058e-01 6.934158884703809367e-01 4.109324165386878946e-01
-6.977696053680447763e-01 3.044186144662562876e-01 -1.442472224868085739e-01
-5.405677116982373631e-01 5.231712323449245750e-01 2.794129060664108377e-01
-2.371540817428737513e-01 7.054163580717456306e-01 -1.858707025012776293e-01
-1.417389199426246360e-01 7.826160863456806949e-01 -2.258543602939091233e-01
-8.432210927706900172e-01 2.469831125336205135e-01 2.388220616855691036e-01
-7.924635344300079431e-01 3.133122470101695201e-01 3.526133029860455959e-01
-4.935315787732528214e-01 3.757179143528981413e-01 -7.321282094017901310e-01
-3.684888486375084149e-01 6.844781303382116988e-01 3.253495873497419533e-01
-6.100757787404000564e-03 9.580893932434609850e-01 6.872965272209052845e-02
-2.377762851525383470e-01 6.820068908078413816e-01 -3.080773802939034689e-01
-4.975847054825256466e-01 4.748428079686874415e-01 -1.829243923913367320e-01
-8.519503024327517160e-01 2.281400240053954032e-01 1.794962858341194178e-01
-3.257397709464814328e-01 6.548486278237586333e-01 -3.590377503851393398e-02
1.245633964757877563e-02 9.216830813077561135e-01 -2.139681256702459788e-01
-6.495774075481769438e-01 4.214420100688570647e-01 2.527537079370654749e-01
-6.978342634287318935e-01 2.292137007540577809e-01 -5.460242606881201555e-01
-3.919344490564308225e-01 5.549153229452403746e-01 -2.561128870084005693e-01
-6.610452963489091838e-01 2.802063513026927244e-01 -4.479505000762294964e-01
-4.364283263206217289e-01 6.079280624315951398e-01 2.384380402394553899e-01
-7.359262380979209039e-01 2.841945919416254962e-01 -7.132680263363852524e-02
-8.345096261753401912e-01 2.318918172848044301e-01 1.168014997463222293e-01
-5.928027698404803036e-01 3.085590677560988149e-01 -6.201645084789100260e-01
-5.601825605740523573e-01 3.428609107755233865e-01 -5.915480945733986307e-01
-7.975013438562172929e-01 3.304788565448885107e-01 4.682985185330479916e-01
-8.648572303242455517e-01 2.550139918592634891e-01 3.844199554653793260e-01
-9.246900616899649261e-01 1.828219239200590540e-01 2.823434953372115364e-01
-6.423264630988997359e-01 4.034223539916805268e-01 1.220066266924519915e-01
-4.277819445382998742e-01 5.772479666086367533e-01 3.338061737090625147e-02
-8.266017214447282102e-01 2.934336110014624799e-01 4.083133223891954877e-01
-7.909196044747380805e-01 1.775074472397444314e-01 -3.807941846739392178e-01
-3.792240918296117536e-01 6.951064153624242348e-01 4.331111820591592720e-01
-3.147379034015255206e-01 5.346419217886946296e-01 -7.307926055301566803e-01
-6.000816210045091526e-02 8.339000479012462774e-01 -3.394661738535844631e-01
-4.551033241687373887e-01 4.076937752955045458e-01 -7.435061173789387912e-01
-8.807166738914851134e-01 2.255011174010493058e-01 3.018801125912278227e-01
-4.354555405443454874e-01 4.691258285740969591e-01 -5.082852527466199533e-01
-1.877733652496303696e-01 8.314524123204966033e-01 2.536771289258326623e-01
-2.182763273190957143e-01 6.490557111063116613e-01 -5.767760116867530762e-01
-7.992876783577701483e-01 2.551702612833691153e-01 7.413628124276490372e-02
-4.037238623212945909e-01 6.495199634414173806e-01 3.056310450146384472e-01
-3.823995953710636608e-01 6.708379922447834653e-01 3.184271719248885080e-01
-5.357972791165245274e-01 3.683872851276465132e-01 -5.707761294383323358e-01
-2.954293992911409261e-01 7.261327845576245332e-01 2.013988386960760546e-01
-9.231912436080456918e-02 8.120151087709387427e-01 -3.031628230642386401e-01
-2.353472300789245519e-01 6.762195205799704789e-01 -3.505451706565729242e-01
-7.090159570952568879e-01 3.203392596922958191e-01 -5.764825501764589410e-03
-6.380535417202948256e-01 3.108567924376216540e-01 -3.931705527531785260e-01
-4.675666582353561473e-01 5.882205729789796722e-01 2.808191661803300376e-01
-3.376288489809496363e-01 7.448737298680757624e-01 5.018285049271069553e-01
-6.814518698267842955e-01 3.323888296766393524e-01 -7.212975992618277099e-02
-9.551256217802110982e-01 1.246955174321026788e-01 1.159829296624445699e-01
-8.779873333487652198e-01 1.093729547217162229e-01 -3.319506578864513946e-01
-2.732961521910448610e-01 7.524278942586485330e-01 2.369664712645586646e-01
-6.617163608366505301e-01 4.513896502264392874e-01 4.704668560063565153e-01
-2.132329870042070641e-01 8.107262633360265980e-01 2.636672251462239269e-01
-5.921091326487817330e-01 3.481104090244014904e-01 -4.119940821124058461e-01
-1.846044449512364849e-01 8.016124969803536393e-01 7.910159640644165435e-02
-6.184815173113825670e-01 3.106284082185809536e-01 -4.872583735651053738e-01
-5.413941711997291018e-01 3.669347592529152435e-01 -5.519855338611915352e-01
-2.498230113890710646e-01 7.739976535814623304e-01 2.409123452931612452e-01
-5.494127541020218386e-01 4.973351909976314600e-01 1.832488487801144095e-01
-2.015897143337070097e-01 8.074521192142672943e-01 1.909161350290204950e-01
-5.621956341829870141e-01 5.083361916366860855e-01 3.027189474585149087e-01
-7.028367116273418480e-01 2.428751147098898444e-01 -4.492473933065406766e-01
-3.111753981543530778e-01 7.331748174664222129e-01 3.137618974376342185e-01
-7.769329645842715237e-01 3.524218124034081967e-01 4.880224150004256467e-01
-6.019765945500549220e-01 4.033405555383619556e-01 -6.988569510989778300e-02
-2.372360921423177504e-01 7.513067240448377815e-01 5.987173261896422405e-02
-5.535761203227911320e-01 5.495329766709526886e-01 4.820794805701895669e-01
-8.885940857130135706e-01 1.128568930609708809e-01 -2.629960576583530441e-01
-1.332612049859041858e-01 7.100863296620973930e-01 -6.538611159991909449e-01
2.412121883490386809e-02 8.973397162659677573e-01 -3.994685388896898615e-01
-1.866095761517213847e-01 7.518908077548049906e-01 -1.772218262853448301e-01
-4.943265575632823094e-01 5.235958320621149076e-01 6.227464767416412972e-02
-9.053986600627171866e-01 1.572685091831722559e-01 5.418666184297237648e-02
3.087592157907561707e-03 8.669692407208581253e-01 -4.620427150104561287e-01
-4.129131016850935421e-01 4.543228670219764398e-01 -6.943904369335128779e-01
-8.446173983077702729e-01 1.249242588825030947e-01 -4.071415430828670412e-01
-2.715112988998895083e-01 5.901372573664004362e-01 -6.391909632176413503e-01
-3.118241150155169894e-01 6.688975781757541261e-01 -2.681893425108152970e-02
-4.219579330502332137e-01 6.242938873217788176e-01 2.572779161990287333e-01
-8.474442551795761114e-01 2.719552516039265289e-01 3.923742236017678797e-01
-2.989533270420460243e-01 6.508171998538713199e-01 -1.845561091254146746e-01
-6.013433866190818211e-01 4.398443310301338172e-01 1.222776191251100653e-01
-7.756038714282791346e-01 2.312848522165903142e-01 -1.659439466016865428e-01
-1.988430362077883984e-01 8.017797530003359929e-01 1.475561338742157058e-01
-1.629666984242602590e-01 7.743733607178719947e-01 -1.692010719052505219e-01
-6.876142546569700142e-01 2.910492434616991919e-01 -2.639125451960889768e-01
-6.939162858797099931e-01 3.874773099562511813e-01 2.815434237084402658e-01
-8.474507069069006082e-01 2.049579092448059470e-01 3.420286708882481347e-02
-3.113546684246419338e-01 5.686987810814223554e-01 -5.647602814928253112e-01
-1.224255457879474956e-01 8.052952571716428531e-01 -1.962394436611929471e-01
-5.727220708105861258e-01 4.543283474184892090e-01 6.391206231601041787e-02
-7.399965301340667434e-01 2.048988596002943308e-01 -4.759692211658129168e-01
-9.095677690979121488e-01 8.196293653299045745e-02 -3.286534534372443916e-01
-7.903117286952752174e-01 1.829364583827645385e-01 -3.546522147678596859e-01
-5.718840532226396878e-01 3.531017747978660304e-01 -4.812731196050352156e-01
-5.446495490386288330e-01 4.689225347991702875e-01 8.739493617650377980e-03
-4.556104146673853883e-01 6.280371270759260716e-01 4.369679232617051379e-01
-2.241432856210071323e-01 7.291978042526044979e-01 -1.204575297310489373e-01
-2.837883078206807075e-01 7.209284359751815252e-01 1.183382404066626453e-01
-5.303800299641440175e-01 5.307663316199749959e-01 2.716809293452478458e-01
-4.179610369000375525e-01 5.078338334677918731e-01 -3.843417036699299238e-01
-3.202880527354280971e-01 7.333583312290162803e-01 3.579814406287759598e-01
-7.383450979095949052e-01 3.866956476853445346e-01 4.881733111531446623e-01
-2.854854171842540200e-01 7.156701679024077833e-01 9.827742463835549558e-02
-9.277002520018670095e-01 1.057683656219276652e-01 -1.153411645961719550e-01
-3.289883060367018025e-02 8.210905965692234521e-01 -5.365823591946926596e-01
-3.130084838850069051e-01 5.943317999119681616e-01 -4.198659431749653947e-01
-3.194799862968198401e-01 6.719512916736929409e-01 2.583390972220752507e-02
-5.434728445734117175e-01 5.525063254243742783e-01 4.500377635429947953e-01
-1.797962358264033611e-01 7.435236962085114421e-01 -2.542851046670624449e-01
-1.728418147848841957e-01 7.620365627097942518e-01 -1.883037183355760202e-01
-2.559957310748058879e-01 6.395561131771307917e-01 -4.485919429485118459e-01
-3.529178813598013442e-01 7.173878065518964897e-01 4.274192484362392408e-01
-9.072921053121446588e-02 8.018811431240524534e-01 -3.648881115420258281e-01
-5.712812867921264193e-01 4.085877130581730965e-01 -1.874770389303000995e-01
-1.906750578960957065e-02 9.701790747427876394e-01 1.948928245014924510e-01
-1.910105021289773275e-01 8.141020132661966890e-01 1.762728468133709370e-01
-3.400453218068288375e-01 5.211329202366136171e-01 -6.829381430043547363e-01
-9.834013548465188326e-02 9.164541840777861159e-01 2.837906809844097378e-01
-5.094680877436860156e-01 4.100077681070338764e-01 -4.731804544938651991e-01
-4.140129382077331610e-01 4.587737552865494006e-01 -6.653751335938974387e-01
-6.194004555826934100e-01 4.814577565458302844e-01 4.304427115932782377e-01
-2.715130407340736740e-01 7.441118583518979701e-01 1.840440644174710927e-01
-6.910206069800221007e-01 3.779430679853580388e-01 2.168288750369792295e-01
-3.455523659877401399e-01 5.195207246557372871e-01 -6.654275399768843080e-01
-3.923552608682347453e-01 6.436715322956468865e-01 2.204197831966890619e-01
-8.793516807336908547e-01 2.019560855520426135e-01 1.695196428355407181e-01
-2.525565303802712602e-01 6.352326974034235851e-01 -4.880256982774107133e-01
-8.807288019891439390e-01 9.428850817339599899e-02 -3.995918846314163719e-01
-1.828544321670997064e-01 7.387324648431250473e-01 -2.653907196525150947e-01
-4.435928491432669651e-01 4.211498912697581032e-01 -7.261785946256289481e-01
-5.307536985541176922e-01 5.028899101043908804e-01 1.244123693718486579e-01
-7.309748968435657579e-01 3.197182914532628595e-01 9.510753297878038470e-02
-2.336883508920147567e-01 7.594813814234421256e-01 8.674404080823344687e-02
-8.363023831587219625e-01 1.958518830806111055e-01 -6.737996982628738363e-02
-2.540471070554871091e-01 6.490162259529502764e-01 -4.072593269377229319e-01
-3.105161792425472078e-01 6.087657697995242367e-01 -3.545202450558280205e-01
5.009932643794497847e-02 9.765830551394004688e-01 -9.905603629321151071e-02
-6.149007246562424034e-02 8.425837582928386027e-01 -2.860071524577831870e-01
-7.450018192953056229e-01 1.757329295707475425e-01 -6.081557019375318784e-01
-1.286132331776350113e-01 8.481420681461091515e-01 6.220125328214556187e-02
-3.076122532574007695e-01 7.121924354562487736e-01 1.846727110372276826e-01
-1.619727628861794555e-01 7.348669902833336876e-01 -3.851383788536673625e-01
-9.867505906034874930e-02 8.400499496248460263e-01 -1.231161622620927237e-01
-6.395102706840666285e-02 8.192398790838922862e-01 -3.991385229029021375e-01
-4.249514279819915918e-01 6.216647468215514838e-01 2.574249419687797413e-01
-1.554971520403558849e-01 8.696275350238554802e-01 3.046342893355464265e-01
-7.097336192319926296e-01 3.466490266470969583e-01 1.383058252618802053e-01
-4.772266734867662286e-01 4.153958826723222475e-01 -5.973542484018132814e-01
-8.680523672475083385e-01 2.363142702385435112e-01 2.996022221516883022e-01
-5.064197245516296464e-01 3.680329782881641143e-01 -7.120631881449458467e-01
-2.110972269192414319e-01 7.405196408546885767e-01 -1.218271021514043678e-01
-7.258587780763879893e-01 3.388958036636269822e-01 1.733649644074044538e-01
-1.459858292506101551e-01 7.764461117965547610e-01 -2.386911480848287193e-01
-1.348026276057833206e-01 7.233035823123917796e-01 -5.758810869576910241e-01
-9.190251374418233477e-01 1.183491003777445982e-01 -8.924045221554688379e-02
-5.157860522760128186e-01 4.564766922869369914e-01 -1.947559441869683716e-01
-4.684711563006081492e-01 5.265798656028995994e-01 -4.445177171148985418e-02
-5.144849047356541138e-01 4.801855002713014131e-01 -7.417034160235638773e-02
-3.069189955435848716e-01 5.880755829584671801e-01 -4.822087168055325113e-01
-1.019784488738090765e-02 8.995740692875021649e-01 -2.246829628535291501e-01
-6.037212642604087298e-01 4.314930229893560454e-01 8.890999260260110115e-02
-4.310730255437952296e-01 5.517302566834495492e-01 -8.743431698454587342e-02
-1.697822519118494244e-01 7.164416604379315601e-01 -4.465945609223432866e-01
-1.180478655530167037e-01 8.130806526147078550e-01 -1.753862830955840169e-01
-8.252193675128207673e-01 1.766654086770978738e-01 -2.225481466724742452e-01
-3.221927216656631648e-02 8.261057522057040359e-01 -5.129931970216600190e-01
-1.280770314462074955e-01 8.808663577741053796e-01 2.346177901446410974e-01
-8.525992750136395237e-01 1.183073097979152610e-01 -4.046461402978873134e-01
-5.159646052464328392e-01 3.888053871767073177e-01 -5.557140508990801031e-01
-2.458197587466368073e-01 6.477554562789373804e-01 -4.530377642938735461e-01
-2.020084662019643318e-01 8.487191204857590376e-01 4.135374993372614716e-01
-6.809196616837995819e-01 2.642499102585418314e-01 -4.389604421985128235e-01
-1.179522888396444119e-01 8.724173543190296698e-01 1.414044939038655024e-01
-6.276139957347837139e-01 4.122385511845019779e-01 9.933373100958386992e-02
-5.750497710736748314e-01 3.470299525637502991e-01 -4.987152507656458789e-01
-7.721518428253589805e-01 3.146274620672899203e-01 2.632687247225015681e-01
-2.423137691828619877e-01 6.669308546360759316e-01 -3.671517766691126394e-01
-9.615387693678590919e-01 6.866515053560770521e-02 -1.531544259000987285e-01
-4.258406077004254220e-01 6.104672650752921426e-01 2.017765369395226605e-01
-5.905445166295907322e-01 5.184976137976455846e-01 4.915589293641258739e-01
-4.782583384729975351e-01 3.967749599191162102e-01 -6.920160814796469939e-01
-2.607386831303638020e-01 7.611221386490688579e-01 2.238667460842692913e-01
-5.417367522622722475e-01 3.567929816586515313e-01 -6.045831469384467249e-01
-5.263444449814128623e-01 4.274395561850004022e-01 -2.999050580895682439e-01
-5.001869425217554399e-01 5.332674290992701627e-01 1.417907191323961591e-01
-3.066634535766806224e-01 7.381786837683979030e-01 3.191065170924480277e-01
-4.402234477624869524e-01 6.682527080175955092e-01 5.789717362607027518e-01
-2.455130188056537932e-01 7.056165245667026520e-01 -1.451384189059262142e-01
4.371130905554396207e-03 8.659556682654465654e-01 -4.735520182337675799e-01
-2.194524594248517813e-01 7.301072792426221980e-01 -1.378523851626703434e-01
-8.640590514422358259e-01 2.590731501234865841e-01 4.023350291116743471e-01
-2.144595702347483479e-01 7.258994965745437788e-01 -1.840399608876560622e-01
-9.629754309256980394e-01 1.237414893490700191e-01 1.481285531598635907e-01
-6.915408507272505743e-03 8.975800570517693533e-01 -2.509187118864916743e-01
-3.499655169120012288e-01 5.785832311769470993e-01 -3.287094120874202163e-01
-8.492233590104203422e-01 2.559399176432661793e-01 3.151896994709039168e-01
-5.144889721060328380e-01 3.955111890650491180e-01 -5.268631044703750987e-01
-1.685267196512686971e-01 7.979049590008781001e-01 -1.700755111965029237e-02
-7.210289169083077265e-01 2.364383480214720112e-01 -3.973419352607716060e-01
-6.319072411918902343e-01 4.562633988300775489e-01 3.550839273289979614e-01
-6.262710325041435100e-01 4.619249785946102360e-01 3.586105287024586863e-01
-6.883494474807404506e-01 1.097077667680304014e-01 -6.232079505899889016e-01
5.868632078475773950e-01 8.659898655845153781e-02 5.369060282772279979e-01
-5.691657433768499974e-01 -2.301582171249976216e-01 -4.259781045311753500e-01
2.382432350149357170e-01 -3.778072273178890161e-01 7.600624980096717387e-01
2.500931195974689936e-01 7.673063050698950560e-01 -6.683749247316458919e-02
-8.454822193902030714e-01 2.040969415173303492e-01 3.933087590479060203e-01
-3.781511878450214970e-01 1.966739574064587937e-01 6.296787099628982087e-01
-8.491709586033078239e-01 -1.470737698091024656e-02 1.914250275585791250e-01
5.290723935799375166e-01 4.487571284179383557e-01 -6.330795141184446251e-02
8.533674543413674041e-01 4.275005220098868769e-02 -1.309399556484481253e-01
-5.924466109894380716e-01 4.038798850054359235e-02 -6.272465751329658890e-01
9.145800052016036519e-01 6.716599084864443778e-03 -2.365682066978240863e-02
3.372085779807857397e-01 4.037379610535713481e-01 -4.810076619235221229e-01
6.219394357631172765e-01 -2.021060399364194293e-01 -5.425681115826748169e-01
1.564636833422656526e-01 8.727929469682522701e-01 -8.743305699076141246e-02
6.277395608375827551e-01 2.917689501940665120e-01 -1.891887406774317160e-01
9.272919403249134662e-01 -1.306387285017523124e-02 2.128355481225486234e-01
-2.412926889937681285e-01 6.568072035878810278e-01 5.616156142452408684e-01
-1.148706451439548415e-01 -1.479304260837824292e-01 6.822494128394175350e-01
2.176429551522848505e-01 -4.060143638725530746e-01 7.566867542733918262e-01
3.606375106408170050e-01 5.421725277441068469e-01 2.753697503616014397e-01
-5.928830183784704333e-02 -2.244079997396681292e-01 -6.611643450728853511e-01
7.912830556753372990e-01 7.832962243861255058e-02 -2.051474801116325575e-01
-4.070248582521190928e-01 2.310957937198595824e-01 6.236757049037546796e-01
2.086346961344354434e-01 -4.154384423880174704e-01 -6.333112667024923814e-01
6.145050982392797900e-01 -3.254387546686836052e-01 -5.705537405712588495e-01
-4.931764258768832621e-01 -1.626990130722751893e-01 -5.458807647539366537e-01
-3.329694422943769716e-01 -4.837597829333187271e-01 4.247446716061381022e-01
-1.085085098764681094e-01 -3.476633297328856620e-01 6.546061274109064021e-01
-3.928758567709680904e-01 3.070929058192073957e-01 -7.692788742353069420e-01
1.856347133424248452e-01 7.549953148808795644e-01 2.135882381741397718e-01
2.334116862127717518e-01 7.534823909274773746e-01 -2.335910697836507122e-01
-8.813573727515159328e-01 -4.420663187318248089e-02 -1.982067555539126225e-01
7.740883505542330845e-01 -2.713297257266263918e-01 -4.788680403427542642e-01
-2.531059920338398217e-01 -7.299128346062190298e-01 -1.351963424322575602e-01
5.123319027904866818e-01 3.745565622665938954e-01 3.022461545197341892e-01
-7.599869299976841353e-01 -3.131185384440652447e-02 -4.480152089416492567e-01
-1.647396785928152696e-02 -4.773095526843957326e-01 6.677570043010614409e-01
1.144882811041957188e-01 7.058089146145345438e-01 -4.916558348917894339e-01
-1.613018038095729023e-01 -3.792874712871948661e-01 6.187193768508266745e-01
4.102451005354417202e-01 -5.016971731546719937e-01 -6.153726086346500423e-01
4.188765154804149349e-01 -2.564927505739958979e-01 -6.254874086948867262e-01
-4.061335162139869670e-01 2.001207596680721623e-01 6.222673103698861397e-01
-1.043595839452652468e-01 -5.230733998251763106e-02 6.888134894044992684e-01
9.071709446747794336e-02 1.286099684911422292e-01 6.796428766971489566e-01
7.785180232243718024e-01 5.893235762099972158e-02 3.817012332747038439e-01
2.347502421870903411e-01 -5.631120572322279028e-01 7.541239506634241918e-01
-3.077192896719027626e-01 6.240684224238866040e-01 5.829843790661906056e-01
-2.264620189777531711e-01 -1.413944653960640951e-01 6.442436575988432779e-01
2.851613110560728970e-01 -7.373508231386102230e-01 -5.456994606096987610e-01
7.469750336347724673e-02 7.794148741266524461e-01 -4.764267983412803775e-01
-5.784729820338804229e-01 -1.969168771522146200e-01 3.814244314559666615e-01
4.702789187454491371e-01 -5.853960504810928889e-01 -6.005706639650489898e-01
1.633131045800043646e-01 1.936462555622688042e-01 6.495486286323937097e-01
-9.115472534898604040e-02 -4.677561458549089890e-02 -7.029766304588719317e-01
9.584331589561725373e-01 -1.646713273627676000e-01 -2.399274490374167790e-01
-1.373155969091593431e-01 -5.822071920046174576e-01 5.491118903577481003e-01
-7.731368947172331252e-01 -1.310331658169255342e-01 1.548218597141710617e-01
8.499327594801330682e-03 7.202260367013662012e-01 -5.823656421144652873e-01
-8.621542816566123424e-01 -7.320479369974069138e-03 -3.403643052631497024e-01
1.853867325882185835e-01 4.691342608381512402e-01 -5.711410098975907568e-01
-5.355268136474871515e-02 -4.145974413729517360e-01 6.650294803712419878e-01
4.596257404688973702e-01 -2.057102242943851383e-02 -5.771266094342865083e-01
3.560058713269866337e-01 6.234892243595373529e-01 -1.856305795781808543e-01
-3.690024708721142410e-01 -1.793319558350063847e-01 -5.988137692470649753e-01
6.413715576241008076e-01 -5.336267610623456753e-02 6.050030561668456874e-01
8.422602629120770068e-01 -1.109800228151937712e-01 -3.357253809538489620e-01
-2.439853833187126120e-01 7.112120098191115902e-01 5.409832451215623728e-01
3.835546849429847804e-01 -2.382993878477846494e-01 -6.335706853113290959e-01
4.140161585977040759e-01 -3.901613222195465802e-01 -6.252080307773646428e-01
-2.007736716383732578e-01 -7.565888497436862314e-01 3.103662070987098787e-01
1.050906171747501144e-01 7.899521768690111190e-02 6.908679449305041853e-01
-1.841116113384029529e-01 -8.113806579471419811e-01 -1.108903986354207033e-01
6.870186789969369157e-01 -7.201094222204298262e-03 -4.178767196620968849e-01
-1.043189429575176880e-01 6.628439579586283825e-01 5.201717252575915884e-01
-7.809153697870397925e-01 -4.095884945463612592e-02 -4.115056936344515526e-01
2.082718817331366268e-01 -6.099705917258968491e-01 7.392443760761997495e-01
-6.947004191940542306e-01 -2.481860140120418778e-01 1.007719559367013379e-01
3.177785664366461482e-01 3.657515034172537094e-01 4.985975669292215251e-01
-9.040956187322907178e-01 6.004564327004537766e-02 1.983321671558756771e-01
9.704482387278375033e-02 1.707714369599329096e-01 -6.894871896603346206e-01
6.685715175282354039e-01 1.441784945410322649e-01 -3.196146219328760418e-01
-2.913883390819910768e-01 3.113779504553869718e-02 6.433673662922135827e-01
-3.693921791896664919e-01 -4.464678787749405409e-01 4.138913215646847221e-01
6.748491019520861389e-01 2.421911127968749133e-01 -1.721486397365320498e-01
-5.629845638433136346e-01 -2.915436923672838909e-01 3.110620431312281498e-01
5.134458178946470497e-01 1.096778912621279023e-01 -4.971953308882932632e-01
-1.852530474244001163e-02 -6.005623240233797233e-01 6.276633805304360214e-01
-7.344717306849563032e-01 7.491246814871485582e-02 4.143416483146060147e-01
2.607729037849839115e-01 7.470666349503096715e-01 -1.442692551392731892e-01
2.338099002265563164e-01 -6.190689565196146882e-01 -5.787609433475154885e-01
-7.209681205300119133e-01 -2.234487661006997472e-01 -1.702297385141262054e-01
-7.034888772878760133e-01 -2.399700264956673434e-01 9.346570074146255680e-02
7.940070329517548431e-02 -2.111371147191210690e-02 7.101415115972292691e-01
5.618774188864951169e-01 -6.127431053961030979e-03 6.150192595667927087e-01
3.732112332234055474e-01 6.238746017411520572e-01 3.422048077191263554e-02
1.184191295299254765e-01 -7.384004967367409078e-01 -4.904868523746973019e-01
-6.051058060374244763e-01 -1.007307726860999092e-01 4.233980623950559519e-01
4.356400520307681518e-02 7.715766533930623616e-01 -5.173145099474856234e-01
-4.007228508046541404e-01 -5.580461260430750192e-01 -1.799387599581825925e-01
-8.268190862269440000e-01 1.003285499575364559e-01 -5.215523032233545520e-01
-7.539486737679093054e-01 4.185111844375491441e-02 -5.283141083403092297e-01
-5.894843558547908646e-01 -1.688886365801077483e-01 3.913717650980507168e-01
-6.423590979681180757e-01 -2.031478023890729845e-01 2.931464972100377708e-01
-1.232354345503862691e-01 -8.790477562415706103e-01 -1.005424464411373980e-01
-1.641183022627585308e-01 -4.018736100255066584e-02 -7.013340028912499191e-01
-9.447724366502693871e-02 6.905015940690926168e-01 -6.679058062165832421e-01
-3.990374556744986645e-01 -3.186476955112735876e-01 4.757532950543571504e-01
-6.249924858862294652e-01 -4.434410853601982588e-02 4.397813682422876402e-01
-9.030007855312642828e-01 4.834351277879254255e-02 -3.657599871687349236e-01
-1.100792807136724005e-01 -1.677334380528220092e-01 6.820667989547367638e-01
-5.797339090082367363e-01 6.139488887883583212e-02 -6.450653715249395903e-01
-8.096972095154850724e-01 2.870108146050468489e-01 4.594034843696934711e-01
5.838027308006420446e-01 -2.431698972618540899e-01 7.241563261101099380e-01
2.093697114406587179e-01 7.884301835799916169e-01 8.698177077047086758e-02
-5.447908112256567570e-01 2.465747008771526916e-01 5.817112096644240227e-01
-6.905753495111978113e-01 1.256860609571444978e-02 -5.511314171811243501e-01
-9.252088853905655608e-01 -8.886412242980158346e-03 -1.175048105122793590e-01
7.214646771620037979e-01 -1.329703628514947722e-01 -4.572550239290987251e-01
-2.098835785298579781e-01 -3.458892238480710812e-01 6.014733137704720844e-01
5.142868271591680696e-01 -3.022038981646424372e-01 7.562362809648924822e-01
8.875253173127287676e-01 3.941402209156621983e-02 1.715997994997208453e-01
-6.436678418446636352e-01 -6.782060754625100600e-03 -5.674746896352360626e-01
1.946780874557572094e-01 6.983278971971772497e-01 -3.982512133405784471e-01
7.418955830645195260e-01 1.765100415783766030e-01 -1.362196163075982125e-01
-2.703350740306121880e-01 -4.384651063104926805e-01 5.176531180365829821e-01
5.782427210097391690e-01 2.289886195097112775e-01 4.102291025187966844e-01
-8.613722319659069537e-01 3.960131036179324882e-02 -4.148840974524857228e-01
-2.537107422351226327e-01 5.711247768692843119e-01 5.920563318016861531e-01
1.149110416145814051e-01 -2.688632924337213126e-01 -6.615343277639503805e-01
-1.352388627592819859e-01 -1.077828030037631807e-01 6.791875641656492935e-01
3.671894002737416396e-01 2.150791920510534971e-01 5.728771891772471703e-01
8.549935618589151742e-01 7.201598116651285880e-03 3.436947207723363151e-01
-5.670351410579619333e-01 -2.763113388575403895e-01 -3.737689454687468382e-01
5.839695953397213701e-01 -1.909087330953165851e-01 -5.582683541300965668e-01
3.219358796626092811e-01 6.790285937672912997e-01 -1.266626231624907450e-01
-3.185209207436988654e-01 -6.932666674760133985e-01 2.666630915637817345e-02
2.399626109239425820e-01 -4.265896087847181883e-02 7.118891332326759969e-01
-2.480513833495517628e-01 -1.736140491484904347e-01 6.289235290516156374e-01
5.318530825989786770e-01 -6.859197420343804419e-02 -5.527988968033664685e-01
5.291230526669890022e-01 -2.081623652055808460e-01 7.228213427103652444e-01
2.378698903417001131e-01 1.237824411881587316e-01 6.600327516633197611e-01
-2.388845706543248348e-01 -6.216002579931757532e-01 -3.345737565656761170e-01
1.920703663480418655e-01 -3.773103903112032254e-02 -6.741878977148906271e-01
-1.963611651457909391e-01 5.533523928303264450e-01 -7.460891121891352062e-01
-2.520955238709380319e-01 -2.253966646834570098e-01 6.145806715193766756e-01
-2.623012224272684989e-01 4.317610963144814518e-01 -7.698645759011363277e-01
-7.903420332587900443e-01 8.965942451907618627e-02 3.722585157963248514e-01
-8.215224154605450524e-01 4.554075637656832681e-02 3.031666400503522096e-01
6.135255477548490211e-02 7.374247392627619746e-01 3.765039131850256293e-01
7.782225566564783259e-01 -3.477784838174415027e-02 4.935273892148503427e-01
-3.231107541243409820e-01 3.613809239189796907e-01 -7.742298106371521271e-01
-5.193516216920672779e-01 -1.081543922611002684e-01 -5.691849347337329945e-01
-5.137805187714387239e-02 -8.220629467563737025e-01 4.656543479143527842e-01
8.632779141097833842e-01 7.316983895364266577e-02 1.258178305289796572e-01
-2.690088515429355787e-01 -6.786974700257196735e-01 -2.098568886818547308e-01
3.867544004694595805e-01 8.700575383947020680e-02 6.349571384782144445e-01
8.065241267748526344e-01 -7.664935406715327540e-03 4.339887400664443895e-01
5.233391121019154157e-01 4.656876757648880163e-03 -5.340793523322114877e-01
-6.252834094606571358e-02 8.438990385843977982e-02 -7.209746987526090001e-01
8.689442934151770936e-01 -2.435322381771990174e-01 -3.978387004862298792e-01
2.278864960552802188e-01 2.993582258954127773e-01 -6.091766222822597721e-01
-6.388503551760293941e-02 5.219529639860441828e-01 -6.986085908090958752e-01
3.031731452356097867e-01 2.164641800630039692e-01 5.994088838641929984e-01
9.813336443526865516e-02 -1.754763359256256983e-01 7.283160205455158076e-01
3.217804511408755563e-01 -2.291907064821696038e-01 7.501456171884010038e-01
6.279516315657457382e-01 -4.800016558200370098e-01 -5.809286059785806478e-01
-2.253319744297418298e-02 -6.611356297474312305e-01 5.990353683320045475e-01
-4.604095236677149816e-01 -5.259797366177232369e-01 -7.452268001054344893e-02
-1.391096415754755344e-01 -4.845575940947386973e-01 5.943571754198500035e-01
-2.530898251231438190e-01 -7.316595991606558158e-01 2.325383047619122567e-01
8.097375945325590019e-01 1.333774424395584302e-01 2.606503317277408371e-03
-5.511999727094257784e-01 2.592101805239378498e-01 -7.420307252310380797e-01
4.516817706739956195e-01 5.163971043761989010e-01 1.348733591866338732e-01
4.781279442409140934e-01 1.982867707134420843e-01 5.224061751165653966e-01
5.176402859931219513e-01 -5.204523622594527804e-02 6.583703988800846396e-01
7.004980960272471080e-01 -3.546360751339209805e-01 -5.406878528250821381e-01
-3.119413447816217141e-02 -5.107600495943810381e-01 6.508165606194227237e-01
3.962702326363721009e-03 -4.743933575897563704e-01 -5.825960038767308280e-01
2.983421874127755724e-01 2.342161649648817276e-02 6.844586408389052856e-01
-4.760960539995175989e-01 3.657701837819890556e-01 -7.797172851417476513e-01
-4.631977450685861863e-02 6.902008940112446256e-01 4.801005396375330747e-01
1.947419759806841011e-01 6.932276972352562350e-01 2.905363113680485831e-01
5.340658358356423219e-02 9.193352620165218259e-01 1.587757061663525315e-01
4.574493216901268644e-01 -2.675105135840166737e-01 7.524400100922198353e-01
6.252944169868760414e-03 9.502733220321268881e-01 1.869716463240960747e-01
2.324501812844468607e-01 3.329871317829977695e-01 5.643804880635715504e-01
-3.389011299218265272e-01 -4.943246094105720467e-01 -3.722625689782037561e-01
-9.186648775816938853e-03 8.072211165046796477e-01 -5.452709168763986147e-01
-5.416523883116418636e-01 3.222303540509223740e-01 -7.637445026353536504e-01
-6.730088792514336005e-01 -2.209291215809106035e-01 -2.996355568055554808e-01
2.821630686793787368e-01 5.189599946189701329e-01 3.942004129157190007e-01
1.185364685761327030e-01 -8.671770227060915381e-01 -4.056720487151569410e-01
1.445014792063027409e-01 -6.179611552158017496e-01 -5.593635894487296589e-01
8.844141265613275626e-02 -1.189566334370376066e-01 -6.856571142921464856e-01
8.889180780228809198e-01 -2.215189742585396138e-01 -3.670510821215686170e-01
-6.870505841163115912e-01 1.193218273471724211e-01 4.732111658010708655e-01
4.538477553659936992e-01 5.344481657935455932e-01 4.009730893798631179e-02
-1.916861172753949460e-01 -8.090026029262938900e-01 2.244610196654981682e-01
1.988723820206502249e-02 8.822144291041793540e-01 -4.490831288730003368e-01
-4.836373495699955449e-01 -2.549633798800982620e-01 -4.783151627384573668e-01
-6.821062048302635183e-01 3.782576340548416405e-01 5.492417945478211827e-01
4.841939104252502291e-01 2.536816545248690713e-01 4.721947037379864986e-01
-8.343371907118745101e-01 -8.303476883617282034e-02 9.400643547611201023e-02
5.460999319050177103e-01 2.730464450432367185e-01 3.943909663712699687e-01
3.654049306996950963e-01 -2.496886402233289837e-01 7.535832794124451839e-01
1.459814744573780521e-01 8.687234729936725852e-01 4.278405109779738480e-02
9.597230453257098448e-01 -3.521637537802795731e-02 1.436143866389010537e-01
-4.787422910946639298e-01 -5.024523825503902641e-01 -9.329151556030659820e-02
8.114663233726596703e-01 -1.011874880835414020e-01 -3.609316864561395444e-01
-1.243336407085393891e-01 4.579262983924671238e-01 -7.325428527234723042e-01
3.326003653696330553e-01 4.867458976300922391e-01 3.794749635252598341e-01
-1.115233989879731713e-01 3.408306423804577379e-01 6.409559414019581070e-01
-6.876448694906797665e-02 7.133489777748629468e-01 4.766932166976557417e-01
-7.209664103438091776e-02 -1.112689013509305935e-01 -6.897484192418651405e-01
-6.140697592526442872e-01 -3.408220726925469957e-01 1.119973244283302000e-01
-4.955650024073597892e-01 -4.829074468208772730e-01 1.043610330466054614e-01
4.857649954622587640e-01 1.289506253881111779e-02 6.367433688768482369e-01
-3.482978255383853972e-01 -4.817318983965926948e-01 4.082933286389302530e-01
-1.105433648332405649e-01 1.206549207219588249e-01 6.792317430157379654e-01
1.100192324863075860e-01 6.182254911741034142e-01 4.408481325525369643e-01
6.347049349554926279e-01 5.451422077960093454e-02 5.293657135903104827e-01
2.151063622801091257e-01 8.030957984787900905e-01 -1.252119300306635541e-01
8.532771146463848932e-01 -7.791962326550544785e-03 -2.154497950378973237e-01
8.703527440357649025e-01 -1.481540544391977410e-01 -3.341002804302318219e-01
8.545709554561568833e-02 -5.955281925419061428e-01 6.883845356205882116e-01
3.407792476940938453e-01 -3.193291539734604556e-01 7.657754877953608652e-01
-5.157215597892192971e-01 -4.606491752955300112e-01 9.805910446418035498e-02
-8.244218525090052374e-01 -1.103980868464367188e-01 -1.777257009191656190e-01
-4.960265539095026766e-01 4.229611885037187768e-01 6.060278826553858744e-01
5.741336171288816681e-01 4.001935020431764967e-01 5.322573220046777909e-02
7.960445075215148991e-01 -9.581142082363405116e-03 4.482272224381955161e-01
4.789155308743319184e-01 3.732614050945290973e-01 -3.435798254868973611e-01
-1.263741597573151410e-01 -7.848114572571321390e-02 6.830946406603559673e-01
4.306991289758020647e-02 4.490048410308747351e-01 -6.648654511447754656e-01
2.056098476822737775e-01 7.059509684043131506e-01 2.588523429760642980e-01
9.775726731767792055e-01 -6.474164002361587622e-02 -1.242064079387738586e-02
7.750711124581805000e-02 9.344318671227953566e-01 6.707658009689108913e-02
-4.727182845520608301e-03 -2.804660191135792749e-02 7.042959684934665399e-01
4.698525877977640514e-02 5.666243141809738093e-01 -6.251033733610557031e-01
6.433549909837835146e-02 9.705053627117734560e-01 -2.148550517594070147e-02
9.908763664644879010e-02 6.600538364569756844e-01 4.148139183729626644e-01
3.017907650866114011e-01 4.843145820990701206e-02 6.747476713229413336e-01
1.305540570713133175e-01 4.166185598930542411e-01 5.600387762645561152e-01
-3.016312952447742779e-01 -6.498563366967372579e-01 -2.017116000286165445e-01
6.775262285250970296e-01 -2.591573628954562183e-02 -4.371074974406271019e-01
4.640620198851679312e-01 5.070802528057308800e-01 1.218628801600061679e-01
3.054014531748068806e-01 2.048424749587290650e-01 -5.950734557769059574e-01
-4.058406862867739995e-01 1.455498593535523855e-01 -7.279540835121598441e-01
3.362625272446314595e-01 5.050219947331917592e-01 3.553645216208606850e-01
2.684513014699039246e-01 -7.376666220413272690e-01 -5.415590547044144554e-01
