-1.234083421106608458e-01 -6.821207390945309701e-01 2.723011144445779963e-01
-2.762294782018890338e-01 -3.869886991926781983e-01 -8.674046671174791001e-01
1.881109013661907969e-01 5.503606582777759160e-01 2.037943040491708435e-01
-8.204478028852242311e-01 -5.037448307241688267e-02 -4.350659997606753926e-01
5.082935018449920017e-01 -7.583114257033832795e-01 4.051921163375821200e-01
5.521730584047953583e-01 -7.238588144771430644e-01 3.786540690280053023e-01
-6.053620707107011389e-01 -6.033903756831382470e-02 1.614023471780815233e-01
-6.856168056157923019e-01 3.379542737724788859e-01 -1.161345945571324034e-01
-4.986530413810313367e-01 1.192792332820348383e-01 3.575230604894726327e-01
2.818949362503746503e-01 3.602957786172166776e-01 -8.442729763346736860e-01
2.826467122675238933e-02 6.648060637384743954e-01 -1.401871468163934931e-01
-1.953228603976787589e-02 -4.528727477028536286e-01 -6.063838305343272062e-01
4.055417662243445132e-01 -6.265067146126824804e-01 6.759999808952872613e-02
2.134022659860694560e-01 5.926765694780605775e-01 -5.494398139339196074e-01
8.833252426143411995e-01 -1.379859188566834594e-01 4.765088872330636716e-01
6.199419150239101617e-01 5.905845266032853230e-02 -1.159553761324696453e-01
-4.668712305120081285e-01 6.953661489854375821e-01 -3.091864053842653393e-01
-1.321596215361501292e-01 4.891611984907745514e-01 3.623158316996111239e-01
-2.857760944526113733e-01 -2.431458501191160471e-01 8.913148139599238462e-01
4.028097952700033235e-01 4.609854014666263100e-01 -1.284106261045407302e-02
6.274449090105949089e-01 -1.881592364349443380e-01 -9.660235222522399468e-02
-3.635357498613134286e-01 -2.987433838359909721e-01 6.797625168868867140e-01
-1.275634899183094029e-01 2.124880937215280763e-01 8.397456219461199023e-01
6.900905668058688880e-01 1.065039015655745713e-01 1.247834005118235445e-01
9.638185054364616089e-02 6.879069256940477661e-01 -6.823400451012848755e-01
5.389145479508437031e-01 -8.428432115338718722e-02 -3.097502662513785809e-01
-2.437367119784440983e-01 -3.929772474326564402e-01 -8.457346457970950082e-01
-2.617067262066543609e-01 -5.168095049490720738e-01 -4.132047974147013414e-01
-4.027494507039490745e-01 -2.065036370534814869e-01 6.191267721894233578e-01
-6.367004358793001417e-01 -2.322954909281402247e-01 -1.002512370608996256e-01
3.007412550106947635e-01 5.137296823732916407e-01 -4.528416968110758889e-01
-4.166334409566218033e-01 2.057563227198792588e-01 4.361773609939307850e-01
-2.046514424740310256e-01 5.799994183624094246e-01 1.178097619706849480e-01
-4.027951580938903819e-01 -4.819225270907233627e-01 1.257156454871606599e-01
5.379591973737396504e-01 3.907246139776851535e-02 -3.244372690509582102e-01
6.122837484194958435e-01 3.034502650899287834e-01 6.914822269646766495e-01
5.186573015737601100e-01 -7.463899632196153711e-01 3.904492034432701097e-01
5.636491666460746730e-02 7.158844091398226528e-01 -6.018967646808103256e-01
-6.885743850087053808e-01 -2.460228394522568363e-01 -3.709378935493491958e-01
-3.514889798947894994e-01 2.386503771887641678e-01 5.039308245235413208e-01
2.703890473306058140e-01 -7.714887768739004947e-01 3.107488904666466101e-01
-7.939181051480015405e-02 4.516747147008597918e-01 4.782076674215747780e-01
3.136688796159168291e-01 3.652500903119043074e-01 -7.458770216391302776e-01
5.234043881281039701e-01 -1.528947490193445224e-01 -3.120528689049945070e-01
2.549289190190981991e-01 -1.936406680539111760e-02 -8.789826188919338534e-01
-1.280729130789037273e-01 -6.946219210636858099e-01 4.956648151351326081e-01
7.606943194244725204e-02 5.790312484562262219e-01 1.729137633725519874e-01
1.569526601970035184e-01 -2.182374429276617844e-01 -8.362775770219945670e-01
3.267941929427352621e-01 -2.113347724967821750e-01 -6.019569212331435937e-01
-4.856830911488844160e-01 -3.991746385729897928e-01 -6.639459408088372872e-01
-5.903986186215981827e-03 6.035703071648679252e-01 1.115410003806166922e-01
-4.790298860387837698e-01 2.870998117472829958e-01 2.627748545258170587e-01
2.705201437048288526e-01 4.304708117976006054e-01 -8.018876928897045175e-01
-1.575707826912431664e-01 3.541314762501814872e-01 5.920134864014104936e-01
-2.721036429981680271e-01 -5.339459414267958559e-01 -3.168878490968412565e-01
-6.240181910855067127e-01 -2.727762758896788431e-01 -1.506839052847031013e-01
3.864635408953788209e-01 4.570004173497172473e-01 -2.207581825772853834e-01
3.038238700410827997e-01 4.894177515968697878e-02 -8.254583951344001136e-01
7.081475712961335933e-01 6.266087618259941205e-02 1.317990932575316132e-01
2.626813362325592510e-02 4.779721150356412984e-01 4.751630332180353800e-01
6.098338423299454192e-01 1.512360164807093066e-02 -1.572929566820200353e-01
8.399055545215882157e-01 -3.495010588106997607e-01 3.842323501382250983e-01
2.163817877609043039e-01 5.840958597158887322e-01 -5.935453253958985487e-01
1.039500052976344117e-02 4.153982859222240531e-01 6.157595330973468783e-01
-4.321305265775774451e-01 -4.140382588354066806e-01 2.829621643749215543e-01
1.200354272276388801e-01 3.723635456118073450e-01 7.760169145274897762e-01
-5.459793029863356795e-01 -3.692606008784332650e-01 -1.436213908218121060e-01
5.978098713407010711e-01 -3.169727842898833470e-01 -7.381903255855928880e-02
5.244727811609346535e-01 1.050310056975673791e-02 -3.564437475583474568e-01
3.946770473700526027e-01 -5.816039320237117449e-01 -2.183469629542592397e-02
-3.640925301177419526e-01 2.444090743145616862e-01 4.792749436911697969e-01
-6.976253011693700490e-02 5.819701232362654020e-01 1.714083950880245788e-01
4.782635663885410615e-01 2.933951868853516554e-01 -3.086406370825244827e-01
-2.693851192640092651e-01 -4.798812211228058455e-01 -5.596123360507089251e-01
2.159952971722405579e-01 5.549559100321351801e-01 -7.365328793930572271e-01
-2.344542520447134015e-01 -1.275133347265045014e-01 9.781796757298091283e-01
7.192251587905954535e-01 -3.352084865884737835e-02 9.934573405408533842e-02
3.426489018206350101e-01 3.636740249731440500e-01 -6.575153899038315153e-01
2.310546201153154955e-01 5.892564097466990169e-01 -2.827977062448435164e-01
-7.280595874095111553e-01 -2.461797154693037282e-01 -6.517399537034577195e-01
5.509496282615894414e-01 2.844571768731445349e-01 -5.216569190945680168e-02
1.100657995837627523e-01 6.198173115800615918e-01 -3.018154561873861649e-02
-5.707577305721590610e-01 2.192452937591390372e-01 1.666230824026372348e-01
3.063305476114824288e-01 4.443902519620523406e-01 5.537474078232347274e-01
6.148344578375856961e-02 -3.825329887271509133e-01 -6.898943982971357247e-01
1.609866517581511891e-01 -2.527144146503615962e-01 -7.861903744805255334e-01
3.041581717520668304e-01 -7.058065765127530256e-01 1.557214191048835461e-01
7.313362698440762921e-01 -1.652215194670579035e-01 1.115019657001981856e-01
4.040495929875971282e-01 -3.850838128503465962e-01 -2.986113612386623872e-01
-7.718615847547898312e-01 5.243693282498221872e-04 -2.420426138154939955e-01
-2.076318500595057959e-01 3.968076748229095729e-01 4.696468247951957609e-01
7.151650334160150613e-02 4.360453430127263497e-01 5.987075660501669505e-01
4.236822804295041767e-01 4.469059036572297638e-01 1.627568047070911961e-01
-7.499240179142055429e-02 -5.233339523819430239e-01 -4.488608151688641135e-01
3.966004404526171090e-01 4.188368729953152458e-01 5.600076674553789990e-01
2.666546600129071631e-01 4.838508521110751470e-01 4.200251681524749814e-01
-5.798906727862361832e-01 -3.552232592573299486e-01 -6.480341896563763804e-01
4.551070898629216988e-01 -9.042489188124214206e-02 -4.720315801140320677e-01
-3.111689341628952610e-01 -2.868964467379739314e-01 8.216336758522458927e-01
-1.942690701608981441e-01 -6.284652628571149036e-01 6.515911008535512083e-01
-3.811388048323657851e-01 -4.582300710217748207e-01 3.770781796926387930e-01
-1.943151686974199654e-01 7.448191316338362844e-01 -3.203752069218304688e-01
-7.248150800340404931e-01 1.783148010473382117e-01 -1.083043284149250995e-01
3.689548901525896984e-01 -4.844729651959342465e-02 -6.552277143583573604e-01
-3.870799320802718047e-01 1.868085706134480217e-01 5.002480323559108655e-01
1.462348489329243773e-01 -3.886160984980376321e-01 -5.982879787607398026e-01
-8.256689027835791006e-02 -5.598233414744688830e-01 -3.397459442845832123e-01
-4.713988609055889123e-01 1.485091029026039400e-01 3.888913467969117299e-01
6.826878474153056375e-01 1.394596055704331629e-02 2.608963903733430012e-02
-3.404265459058555265e-01 -5.143890168887419456e-01 -2.794416891790877377e-01
4.439563394056862955e-01 -2.349176708648308132e-01 -3.952066007708975870e-01
2.319560094046841936e-01 -7.489392375492596177e-01 2.405011770103123447e-01
4.570557377370477181e-01 3.657338580204593237e-01 7.418267735564351151e-01
5.796233368845408185e-01 2.044573888550062918e-02 -2.288130394886585262e-01
5.224737470201501477e-02 -7.099874057209267786e-01 1.379658632602950574e-01
4.469801075474630903e-01 2.913237828848786459e-01 -4.163151143107365337e-01
4.192921841803224914e-01 -7.227631954658103597e-01 2.656150144565290749e-01
-1.590701532906233645e-02 7.512879393861550126e-01 -5.549532338394398412e-01
-6.831583465821510215e-01 -1.243726173898581089e-01 -9.209624372250029001e-02
6.744571626819878540e-01 -2.980003846457121019e-01 4.715533288860960376e-02
2.355361491593076506e-01 5.860276215131340338e-01 -3.309652972062567255e-01
4.510482119535591528e-02 4.348738948916584524e-01 5.898613054668238043e-01
-2.971774824751902133e-01 -5.701096818236111030e-01 1.297989690526134832e-01
-1.856234738674619744e-01 -6.222870966803217829e-01 7.401948588995802547e-01
-8.237812180381000049e-01 3.981698978617934648e-01 -3.986876500059550188e-01
-2.497568922590710783e-01 2.903096131649812728e-01 5.810068735331268552e-01
6.389266208071971986e-01 -8.862806985111104652e-02 -9.761633920364538863e-02
3.331189990501080000e-01 -8.001256076106206816e-01 4.036707803591855770e-01
3.366196455942332411e-01 -3.411016660132719647e-01 -4.434608577736338653e-01
-2.843375195898967811e-01 -4.469312231272691283e-01 -6.741408720890041950e-01
5.865457825722016905e-01 -5.083297976625185122e-01 9.884851266019969995e-02
-4.701350835350334156e-01 6.040828050182075470e-01 -1.449531668164076303e-01
5.414337086058363946e-01 -1.435581156639478828e-01 -2.823800332553986214e-01
-3.584322157828774280e-01 3.165393619463178765e-01 4.051259405478172537e-01
5.085349777262850729e-02 -4.848524853340659968e-01 -4.923603830279678073e-01
7.482485232619005000e-01 -2.358943050063987829e-02 1.796487766110558548e-01
3.220387935339096841e-01 4.724835754038347879e-01 3.995429176895604617e-01
-2.223964028881886268e-01 5.968053963185070421e-01 6.946195347374682638e-02
1.511518691876143593e-02 -5.640903155724760198e-01 -3.168629475139566609e-01
5.325056425805243521e-01 3.309059854081248808e-01 1.375438961662084868e-02
-7.331924381319201434e-01 4.536208973272393696e-01 -2.903510693932533360e-01
-3.410495457494425731e-01 -5.379787131556287294e-01 7.089515564182442831e-02
5.331743787551690428e-01 -9.724435456866820093e-02 -3.171494700198828065e-01
4.876921874860030148e-01 3.830065348447390106e-01 1.217582455206897042e-02
-3.731548285458303194e-01 6.869836422104232954e-01 -2.237019001095640336e-01
1.149177425136142273e-02 -4.432102656494021908e-01 -6.084848991467152191e-01
2.160690880549728243e-01 5.397983782040489675e-01 -7.846482653860650247e-01
-3.755109647938195683e-01 -1.728180824801694992e-01 6.892731032849903627e-01
-4.045735925391394372e-01 7.021638431684130710e-01 -2.772297308231723156e-01
-5.988663892877421624e-01 -3.097715447750026829e-01 -1.585348033562213321e-01
-2.145557888963804671e-01 -6.773968988701777050e-02 9.849121849173521070e-01
-6.896895475246471729e-01 3.133385028750660939e-01 -1.057273793036529463e-01
1.908506232214365050e-01 -3.371371982689985725e-02 -9.777275646821388388e-01
1.460535058360477867e-01 6.365537051031608939e-01 -7.481905211705808245e-01
-1.970730888586347263e-01 4.496759597306840273e-01 3.874744194978804734e-01
4.754107767091377834e-01 -3.737348953493756509e-01 -2.122118200636316510e-01
5.080598329056690288e-01 2.939308246384963463e-01 -2.000434396171027196e-01
-1.347181317750387186e-01 -6.902328098802769096e-01 5.400542212558309130e-01
6.732198884961982932e-01 2.171267522640859815e-01 2.927883222052187762e-01
1.795284611999110325e-01 4.810756375077213653e-01 4.820178214273772577e-01
1.170584005327836852e-01 -2.240419471912787341e-01 -8.801992775094066301e-01
-5.211262384673540637e-01 -3.889344200050264821e-01 -6.213556106699715809e-01
-3.344017243137747952e-01 3.766797642105923494e-01 3.575107692911981827e-01
-3.950789728100752574e-01 3.786661682949843399e-01 2.783164689059699493e-01
-6.056685528075257396e-01 3.580031581783165717e-01 -1.481765138059390648e-03
-7.752976849215501565e-01 1.220200483393821950e-01 -2.120030203779103006e-01
-3.521534857808833463e-01 6.465332800665342106e-01 -1.231943704395976613e-01
1.893861269344436493e-01 -8.295922913508240182e-01 5.185012914154523145e-01
6.302628435605081569e-02 3.046560479940199628e-01 8.847108063275007650e-01
-8.295927175909713069e-01 5.043900349070232388e-03 -4.010835366042611594e-01
7.495088248376010620e-01 -4.900861896186669564e-01 3.196206956127332077e-01
-2.324766034276933013e-01 -1.018862758400496255e-01 9.704018073608213779e-01
-6.284173812341976584e-01 6.332579908071359620e-01 -3.623036839163463751e-01
-3.376792534926346678e-01 5.792032341709951737e-01 2.238892376309517540e-02
-9.539003097112697116e-02 7.769326292678968571e-01 -5.219730216593434502e-01
-3.161257217595692670e-01 -2.235866922479165797e-01 8.226825315432002572e-01
-7.135770079846958103e-01 -2.468428010502682068e-01 -5.300435251323354358e-01
4.599955418590690459e-01 4.765749475608777042e-02 -5.013018520401644196e-01
-5.123179932342987186e-01 -3.812224912707957714e-01 -7.124553910803197443e-01
-7.438873843690926302e-01 -1.553493821040477785e-01 -3.465246494928362897e-01
-2.803244533017648088e-01 -3.647203987715832429e-01 8.644719046230640025e-01
-2.728837733790062670e-01 2.576612193656673822e-01 5.927658088244293078e-01
2.581764660645822357e-02 7.372714722797389930e-01 -6.479642150864520778e-01
-1.421361719619923247e-01 -6.772077548362486210e-01 3.244824677528667101e-01
2.019199030369292491e-01 5.463129564908850710e-01 2.054554833552107163e-01
7.297546140208494014e-01 1.893975130196145495e-01 4.761082963291117243e-01
2.780725184174924758e-01 3.874195551347220934e-01 -8.304143071771457052e-01
-1.258988644995084893e-01 -5.645566134556284643e-01 -3.144811029170346273e-01
-8.124641064534929846e-01 -5.783007682751999112e-02 -4.192362745978374106e-01
4.199443519308188044e-01 4.263973765690347584e-01 -1.806300710528372377e-01
7.914787868384829395e-01 -1.524274344789476043e-01 2.466182038844388358e-01
-5.015056857852105976e-01 1.158438802548186347e-01 3.540980375652582057e-01
-2.603393395565617788e-02 -3.699769693441523066e-01 -7.874683424576953694e-01
5.488041597250823411e-01 -5.400613323082725792e-02 -2.965419739856543502e-01
2.946145304361015294e-01 5.056279851758748167e-01 2.621159523046874273e-01
-2.126287309200430853e-01 6.936702372860412691e-01 -1.678791903006938147e-01
4.471638817908014651e-01 -2.970735491272346041e-01 -3.336227203269559460e-01
5.331042275266292263e-01 1.440904912769188084e-01 -3.001140149963686388e-01
-2.620359885917762366e-01 9.003874358085647844e-02 7.861395997099448474e-01
-4.361460612267755721e-01 -4.607557727647254020e-01 1.622255835742225302e-02
3.102035231403167947e-01 4.029647723073919718e-01 7.126181245318058410e-01
-5.772880259878868658e-01 -2.619905290716007529e-01 6.172333372712109079e-02
-3.971354719978995029e-02 -7.543477398426247094e-01 5.764968841272690714e-01
5.618734218608102404e-01 3.356151741746231654e-01 2.371293497734597855e-01
-3.631290042080775327e-01 1.757277465829402974e-01 5.482903691358071985e-01
5.246471462423221155e-01 3.129968068944778414e-01 -8.631995624737075212e-02
-7.897948855305668703e-01 4.212602570387279921e-01 -3.557968768706965546e-01
-5.839573438605703132e-02 1.685663232355304186e-01 9.858742060552797559e-01
1.554625155618018228e-01 -6.667929324945721659e-01 -2.808568413289725795e-03
3.329491585675946608e-01 2.976900589676129139e-01 -7.475952269760995916e-01
7.551369833767888062e-01 1.100894719725830917e-01 3.539066788465798363e-01
-1.432873832407879043e-02 4.848329873493105735e-01 4.411228437549613024e-01
-7.607162734628017953e-01 -2.175816714200911467e-02 -2.263982284167420644e-01
-7.315774471721084860e-01 4.939031091589045075e-01 -3.267400225403285785e-01
6.973520203183347643e-01 2.259983842439146629e-01 4.700568618130321341e-01
2.709662812699197842e-01 -1.910892312693643347e-01 -7.067860656068282177e-01
-5.497243281505680423e-01 -3.750633425127143927e-01 -2.202350337154990456e-01
-6.394559159468452547e-01 -3.172897514868682212e-01 -5.634884283895023049e-01
-1.983715720593053067e-02 -6.790965774432151658e-01 6.274282374196051004e-02
5.935723498241878282e-01 3.182212830406106474e-01 3.795118478169670628e-01
-3.209860284799737062e-01 4.922889265203200804e-01 1.942126864908944039e-01
8.386592632463208963e-01 -1.038947519777265738e-01 3.763589565667571080e-01
5.197412362186010215e-01 -3.822983556584839682e-01 -1.380794005950443104e-01
-1.193169325283191112e-01 4.088120682118164817e-01 5.321399510206827888e-01
-3.422955865792522423e-01 1.136285155195982943e-01 6.353624410379287157e-01
1.310671505343583287e-01 -8.031596993496361581e-01 4.567338240589268739e-01
3.606189427943504722e-01 -7.584083068077168699e-01 3.087789081373406574e-01
6.156127836598483949e-01 2.552133983684593543e-01 1.477715259517782820e-01
3.274208682233776257e-01 3.790019388872416517e-01 7.912013526468856250e-01
-6.313520174544182684e-01 -2.837962655451534699e-01 -2.238060534518566402e-01
-2.750297920275737162e-01 -5.189162873456056868e-01 -3.880644176021197933e-01
-5.494190834600801709e-01 6.650540818165734391e-01 -3.278836714503235994e-01
3.514120970380330000e-01 -6.340868720609835751e-01 3.492892062044423984e-02
2.204298470952132383e-01 -7.721045750023569632e-01 3.079896955727838836e-01
-3.333648623684075663e-01 4.173191334216596049e-01 3.001656683489055122e-01
-3.488268035633758091e-01 -4.934785503115033944e-01 -3.982933977056855590e-01
-2.931907238270672900e-01 4.397330334561864174e-01 3.099393959286255718e-01
-3.346931640433801758e-01 -4.763395468462257032e-01 -5.155617218557437820e-01
7.830488989087770468e-01 -2.095950686596392831e-01 2.288190460152237926e-01
2.895617998090086465e-01 4.344555711334773807e-01 6.057063684430045170e-01
2.896518200165766332e-01 -5.577624019050998472e-01 -1.628632588721740104e-01
8.199874384547450878e-02 5.662154363219737974e-01 2.165886985961405220e-01
7.401517539780335664e-01 1.833122378676600162e-01 5.068675801752786647e-01
-7.054193685138498982e-01 1.820091732888374780e-01 -6.970269060561379293e-02
-6.247006109502767357e-01 -1.880889379250792470e-01 1.523843047645332717e-02
-1.172586279697357958e-01 4.149762740424551288e-01 5.222646015371085193e-01
-7.307144099159873507e-01 -9.216073902124279071e-02 -2.024740278174740060e-01
-6.534664417425761762e-01 -2.687834735868626090e-01 -2.788303195827472325e-01
2.613731677012681165e-01 3.859863986572126815e-01 7.781655583803140930e-01
-6.742919605018370399e-01 -1.741019766388438028e-01 -1.290435808423649189e-01
-5.525199161946010573e-01 5.431701685125917001e-01 -1.419390608411213450e-01
7.891963290098390205e-02 6.916226059409636973e-01 -4.388046061591776015e-01
7.808462341488076053e-01 -8.162910387315325256e-02 2.372514599087949816e-01
-2.711761020448367754e-01 6.845689453226687649e-01 -1.629333181987011048e-01
-1.366887274119701901e-01 7.175076044363830619e-01 -2.412927815425778832e-01
-4.324768781009292185e-01 -3.871726918826256525e-01 -8.141300562614333103e-01
3.460957956431804372e-01 4.467877345463778238e-01 -4.828687888362031555e-01
4.972834480782421795e-02 -7.802446614619633625e-01 4.567011648706241767e-01
-2.702710007648578827e-01 5.226834645297410153e-01 1.871886426305822693e-01
-6.759427826946788100e-03 -7.739537468851326318e-01 5.921812973929651003e-01
1.200400945538294961e-02 7.379875969372896582e-01 -5.576738863679812086e-01
-2.165748794583611525e-01 -4.448726338424397464e-01 -6.916100245917153888e-01
-8.308656262769906209e-02 2.254105240357028583e-01 8.750572005329113612e-01
-5.687803972918940021e-01 4.429913883892973581e-01 -3.481861975469995041e-02
6.064021548741005407e-01 1.659968577963399916e-01 -6.670436783269594050e-02
-4.652202629695584846e-01 6.681443084963066825e-01 -2.553005327482496534e-01
-7.960103137573475152e-02 -5.563271631041434295e-01 -3.509283970767596572e-01
7.346179386588749249e-01 8.372703839665159020e-02 2.384177701018456996e-01
-1.029103058721021480e-01 7.861544448215808112e-01 -5.587966605810195109e-01
5.212383496934694938e-01 -7.600307767019158778e-01 4.189782753437190643e-01
7.273134122454520956e-01 -4.808757299742494329e-01 2.761553345171517404e-01
-5.125604356041052467e-01 4.440661975222818247e-01 4.062404798398016464e-02
-9.958345196275757150e-02 1.854272230037739277e-01 9.115473659903826631e-01
3.820779679592178901e-01 4.730502494491574672e-01 -1.155415696199167952e-01
2.006665794931673241e-01 5.893738567021103991e-01 -5.002386445095103468e-02
2.615149373740282418e-02 6.692546066502746971e-01 -1.583638876656383587e-01
-6.971091468624718290e-01 -1.202969169198479238e-01 -1.304817836949461740e-01
9.775178244226892521e-02 -5.841870427093431850e-01 -2.358618819972257974e-01
3.709476260526343300e-02 3.512797936619471706e-01 7.708833675593884660e-01
-6.510904494657085984e-01 -2.206851312342651417e-01 -1.305966850432880855e-01
2.713847605898231374e-01 -8.310215455202090151e-01 4.902814249621610942e-01
-3.035262086049773655e-01 7.641636214826904583e-01 -3.822708266068590710e-01
-2.807616469087750866e-01 4.225974331429855346e-01 3.507444604195916749e-01
-2.553793782872882945e-01 4.973373215061887426e-02 8.311029468233869233e-01
1.836016511522558514e-01 -3.837908055433890131e-01 -5.673332308888291431e-01
-3.459312488547665043e-01 -1.608063224709416761e-01 7.556807420029151290e-01
-6.376040350903743326e-01 3.520119430311551278e-01 -4.733008059297053038e-02
-3.073473061136217654e-01 4.149042362481594193e-01 3.334830000119930471e-01
5.507494376547463766e-01 2.413749417650939422e-01 -1.427826522318719760e-01
4.343192475195845059e-01 6.755664812039874345e-02 -5.592465683536231857e-01
-3.307092621613672012e-01 -1.364776818684091536e-02 7.409663688281024063e-01
-1.873889287972807238e-01 7.962144880576954575e-01 -5.077470046230564416e-01
-2.561056967533089090e-01 -4.899823113918332917e-01 8.017827564420314523e-01
-5.530854623435925710e-01 6.448442153073750127e-01 -2.976860533064223380e-01
5.830712124717859490e-01 6.512282609119607324e-02 -2.083036527825387063e-01
8.268425906185534746e-01 -2.566252502971545502e-01 3.297945501235300947e-01
2.704224393158264350e-01 -6.210830302721456198e-01 -5.288280471872199712e-02
-4.573318677359681783e-01 -4.400429315693354382e-01 1.676455502034283201e-02
-7.462592394044667010e-01 4.494991697653812901e-01 -3.073491874468041729e-01
-5.490106043631605148e-01 4.625846533605216804e-01 -3.113564067338698074e-02
6.691164592559118995e-01 -5.409952620602681561e-01 2.517101651688523622e-01
4.100115338716668889e-01 -3.111563297740136402e-01 -3.750913307894484516e-01
1.320959171258907217e-01 -2.091270133092578976e-01 -8.805243860841345249e-01
3.734985011491657736e-01 -5.974669893071252180e-02 -6.406350571497358981e-01
-2.991479005206480468e-01 3.371813540053694713e-01 4.555729286786630028e-01
-1.150730086725428904e-02 3.860984487060680759e-01 6.634753557494845744e-01
9.577176270248700940e-02 -5.974760200394322318e-01 -2.033410997108728302e-01
-4.326227935890180620e-01 -4.610311478439402255e-01 4.812323862092113269e-02
-2.982915228198412261e-01 -4.790022875351002685e-01 -5.425240804373201442e-01
6.250956263595794926e-01 2.618921224987165730e-01 2.196412011222839689e-01
3.508664515464872680e-01 3.185451464494428730e-01 -6.808894972563518388e-01
-4.350445020082536751e-01 -3.041556741538118946e-01 4.707960647222636519e-01
-4.995131099720389045e-01 -2.565562650566519665e-01 3.254838311589099420e-01
-3.841467020607534644e-01 1.051333479573959562e-01 5.710279887775087104e-01
-4.068452898523018946e-01 -4.849772282535957380e-01 4.951504115211787654e-02
7.191932618749792283e-01 -3.168914389072668425e-01 1.398213144062292468e-01
-3.724801876488234575e-01 5.382272825530887150e-01 6.457335308816117281e-02
2.342540573424037043e-01 -6.726701222631681354e-01 4.193072389447682208e-02
3.698934241465649531e-01 2.534130010056563909e-01 -6.745359973758688898e-01
3.513742618049456312e-01 -4.698297653013953079e-01 -2.479494397618891288e-01
2.647617226751229902e-01 4.698309089501077063e-01 4.819335041620040894e-01
6.489166134249598761e-01 -3.622417619417153678e-01 4.729761636140328296e-02
3.835040347188804766e-02 5.483788769480624214e-01 2.820997914274875340e-01
2.449434223576339997e-01 5.787856778707387573e-01 -2.388112853302888361e-01
2.684419276252384412e-01 2.969774016691458240e-01 -9.177215822667016409e-01
3.394925734642893489e-01 -2.530342862922039249e-01 -5.404937368207900494e-01
-3.302223186228632756e-01 6.478875004503689139e-01 -1.108904144832872779e-01
7.205391004247184705e-01 2.277645753504620521e-02 1.338591940305494665e-01
-4.684046747524841514e-01 -4.013942104157582347e-01 1.536875153179018683e-01
-5.931856376962326705e-01 -3.508560858409111582e-01 -4.376863552904330934e-01
-4.732959431253578875e-01 -4.163873216263324628e-01 5.932000676000646205e-02
7.583558810724916333e-01 -1.236463820245595618e-01 1.724094213005508414e-01
-5.539321155109002692e-01 2.468686095605363839e-01 1.761714676890125675e-01
1.007383448720745589e-01 6.122418839709805605e-01 1.894686943496199857e-02
1.089752407152494024e-01 -7.169570487564688177e-01 1.431984993071397649e-01
-8.377101047645180154e-01 6.791613008727831469e-02 -3.797434963886667236e-01
-3.548917049009449598e-01 -4.960606203728819552e-01 3.646622299303505232e-01
-7.588347158233118561e-01 -9.228557717290013923e-03 -2.127629356501404279e-01
-8.332628714885956245e-02 -5.299685061680501352e-01 -4.307141360868061430e-01
-5.222513427630028071e-02 4.997082444586902206e-01 3.871600373661194805e-01
-1.756729262271111980e-01 -4.444790784761436520e-01 -6.887194870588783102e-01
2.503173432297995937e-01 -8.083937881520208979e-01 4.199403168032920797e-01
-3.050348022239949275e-01 2.945277063629527792e-01 5.039268391485506315e-01
2.680859387071481414e-01 4.878129403887748738e-01 4.004939051017161189e-01
-7.082153811222798856e-01 5.316185837124858260e-01 -3.328309277575630110e-01
5.696278181227780457e-02 6.525172205183638052e-01 -1.175593859377593725e-01
-2.842983453122043258e-01 7.930804998766137759e-01 -4.655247696971224203e-01
-3.612683358883662099e-01 2.107447545785728904e-01 5.179403353155599410e-01
6.345444263473742907e-01 -3.734059782766508406e-01 3.262890159645659427e-02
-1.322640085103440610e-01 -6.777891025489020116e-01 2.728788350438836052e-01
-1.658445008202849222e-02 -4.102420555490081111e-01 -6.978649339665133899e-01
1.064475794902524364e-01 6.801145828633418100e-01 -6.703816106042427281e-01
-6.200424388534397750e-03 -3.940459470484062310e-01 -7.237794105140368250e-01
2.343721859641362537e-01 5.468216582789686697e-01 -6.749081119316511224e-01
-5.098770221581233608e-01 -3.986901107655928533e-01 -8.167833286882245081e-02
2.604163800923255719e-03 -7.776999742318697617e-01 5.806033846532743237e-01
3.700179332607511900e-03 6.380907926861025814e-01 -1.105510218318423929e-02
1.500933774519671304e-01 -2.824775165992395309e-01 -7.586273868350842386e-01
-3.880180068637508195e-01 -4.622072480767006608e-01 -5.008894343983067987e-01
5.633567078360330882e-01 -1.661181012624959874e-02 -2.688271663411760382e-01
-2.545273552070908760e-02 7.294685376867485749e-01 -3.868064811419418825e-01
-4.415352520284342441e-01 7.188087253412314137e-01 -3.379354264292660504e-01
-2.970150081807818379e-02 3.946451706741685994e-01 6.324533476046647618e-01
4.139605591859117917e-01 2.658590593311455086e-01 -5.440088983232547193e-01
-7.902819462827703756e-01 2.698839552124769892e-01 -2.697563514069937218e-01
-1.631629986851664826e-01 -4.184054028409776582e-01 -7.561200839046328115e-01
-3.954784941138427823e-01 1.970896389142764646e-02 6.022998693867128717e-01
-4.580969511721817433e-01 -6.325044808911810257e-02 5.014401565699068142e-01
3.280316472087258517e-01 -2.872906364430450887e-01 -5.194951770201338137e-01
1.711636461343959137e-01 5.000688615379970114e-01 4.188150899151518169e-01
1.642822956734683315e-01 6.295540057534446676e-01 -6.542434884309903387e-01
4.683605745586285618e-01 4.065826635713286619e-01 4.108729543442689036e-01
3.505908128659380174e-01 -4.534417055308835320e-01 -2.733262586609112588e-01
3.380078785164792876e-01 3.764203295481109435e-01 -6.556864241056601372e-01
-5.080493936725829496e-01 4.149154081540204486e-01 8.238220484494331031e-02
1.856654735095207287e-01 -7.521028395523705612e-01 2.471171270252993379e-01
1.269373531966722923e-01 -6.791611502493517527e-01 2.588177046399815426e-02
2.521519734863827411e-01 5.628410329531454703e-01 -3.791405015459462652e-02
-3.993997024153363856e-02 3.787065826305572869e-01 6.563983653784336569e-01
-1.748065385107855363e-01 -6.226422831672500102e-01 -1.428026288019908479e-03
-5.450932044319390934e-01 -6.356953062186140868e-02 3.056270130345313252e-01
-3.252203448917569961e-01 -4.270677492280179899e-01 -7.291167198126466964e-01
3.833459431959818087e-01 2.087946990670801750e-01 -6.599420430830802431e-01
-3.516220586264898890e-02 5.262137376654113519e-01 3.292565580098668065e-01
-5.158208716261943882e-01 -3.793006769452921811e-01 -7.480176120252767652e-03
4.620305824036606834e-01 4.107637694855093557e-01 4.027645809527209408e-01
3.550750601848161325e-02 -7.936070839492481710e-01 5.818527221133562577e-01
3.094828896058566814e-01 2.273763341368873203e-01 -8.364383693460792912e-01
-5.748709646094649628e-01 -1.507493432517804099e-01 1.982265417931578788e-01
-6.384097722729068503e-01 2.321794440876638332e-01 3.697950773647127459e-02
6.096170816223509537e-01 -4.045085385189617355e-01 2.064233346166870209e-02
-5.156373339921016541e-01 -3.103607244890452810e-01 1.953261923754036899e-01
4.881060484119609244e-01 -6.147521672243259072e-01 1.291876319182621025e-01
-4.591931308190611571e-01 4.844506254177553123e-02 4.671970905138985719e-01
-5.102872856084507136e-01 3.566489959922322650e-01 1.450814049772852499e-01
6.381981853756196754e-01 -1.317170874746721176e-01 -9.263542854941364535e-02
5.944138132543620445e-01 -2.181946483873546394e-01 -1.451401410139935566e-01
-5.474204541702923921e-01 1.907956840778255725e-01 2.265206694589751713e-01
4.181730502058033649e-01 2.177690833061000641e-01 -5.657038532826459409e-01
-6.000407266640550574e-01 -3.463030916114120394e-01 -5.688779813251915174e-01
-7.144817859375478530e-01 -7.114262964179450532e-02 -1.340022581216545328e-01
-3.197960888882254160e-01 -4.904494254759429461e-01 5.550929444145892289e-01
-3.246285175807768209e-01 -5.461717956633745930e-01 -3.283918493692180446e-02
4.544171612117515191e-01 -8.808818821187333614e-02 -4.744648546959518987e-01
5.297714695356252612e-01 -6.134371407199823434e-01 1.724662617785253649e-01
-4.965136694109935078e-01 7.355114690516987297e-01 -4.125180830750892480e-01
-2.751309429057713363e-01 6.671983794713128857e-01 -1.224667392139871247e-01
6.237094555892214176e-01 9.147405951465070739e-02 -8.641554067568317510e-02
1.664980958135792999e-01 6.126279848211644286e-01 -7.564016279098515483e-01
5.391173728413814481e-02 -7.624397744804620736e-01 3.571843772506954062e-01
1.547402819786636297e-01 -6.020895043396889967e-01 -1.657398725282346053e-01
4.711315789441449242e-01 -3.311680626513909265e-01 -2.633173174387419824e-01
5.892705295431942547e-01 -7.004388152671541246e-01 3.752599762893044089e-01
2.196237927531936585e-01 4.432878222717541172e-01 5.998244324182767651e-01
7.696890956037329978e-01 -1.350442405950377789e-01 1.976273237947787642e-01
3.061454019285425043e-01 -5.253698487682501028e-01 -2.057347927742392002e-01
7.199854190863332892e-01 1.328211377613429112e-01 2.682885959979408597e-01
1.969535532048327930e-01 -6.704723023318274189e-01 2.050622136848722493e-02
3.590281826653787811e-01 -6.929324568100129200e-01 1.605354283365265089e-01
-8.480239582639309548e-01 2.832142886868700971e-01 -3.899553843281122201e-01
-7.713157998455960618e-01 -1.671225093523606431e-01 -4.922429874549001383e-01
-7.237734283149301895e-01 1.203003891003241593e-01 -9.627668700894490006e-02
-8.288903933373323873e-01 2.551620547561981311e-01 -3.429386561449508930e-01
1.172964016951630745e-01 -4.198186520490482243e-01 -5.712304276961533978e-01
5.169356413973174025e-01 2.786057043484025386e-01 -1.972458931349283517e-01
1.789676544040829931e-01 -6.267929949528420197e-01 -9.490404727604795365e-02
-3.947422602378692358e-01 -6.959102203387561303e-02 6.368862828823976807e-01
3.201394371559485030e-02 5.550840364466848031e-01 2.616169162478466648e-01
7.085094239189371201e-01 -1.238522805530615778e-01 5.840293267001071126e-02
-2.163507174099002506e-01 -5.752653288222034922e-01 7.633052442809215021e-01
3.592831220865735364e-01 4.625493547360649549e-01 3.778641195277960274e-01
-2.913409041095571528e-01 -5.618700198448499661e-01 3.964153386607812135e-01
-6.892156500162545107e-01 -1.426859114217010338e-01 -1.330963849178011804e-01
-3.273697724850465063e-01 -5.147626742114623788e-01 -3.153071961722661576e-01
8.504930838013921024e-01 1.347340693167307403e-02 5.220867574347266560e-01
4.654317849450028133e-01 3.638916892678076831e-01 -1.978125688666518833e-01
2.182814069874053631e-01 4.323595576583287858e-01 6.354738909080104303e-01
-4.923268002387083953e-01 -1.608261337725073736e-01 4.105118275719292775e-01
5.507275035104107486e-02 -7.245885024949585418e-01 1.922892871753400235e-01
1.006868168452948464e-01 5.613901420476393733e-01 2.264900656096598963e-01
-4.571707282502222025e-01 7.571249805132433675e-02 4.579466419591814441e-01
7.381621711487230675e-01 -5.294509389034048885e-01 3.398979241591542078e-01
-4.710400442973529112e-01 5.573229319253293346e-01 -6.916069734490515319e-02
3.733366709991325916e-01 4.844681500819941755e-01 -4.368806526746230219e-03
-5.109268798349075880e-01 -3.345075632275202326e-01 1.623091710876096438e-01
-4.065484197250309600e-02 -5.697394727436149164e-01 -3.099733280000036562e-01
-5.895632781470712125e-01 -3.300275990599594311e-01 -1.997751671617796765e-01
-2.251254597720676320e-01 -5.759146465070570375e-01 -1.713420876740144316e-01
2.957536011379840457e-01 -7.521548923656680152e-01 2.656698195481782543e-01
5.231915051773275982e-01 3.090090921376719146e-01 -1.038899276650589593e-01
2.809362357394217802e-01 4.733951764304911713e-01 4.518456821237937793e-01
-1.038880649283101948e-01 5.968042142962507457e-01 1.223977699033233502e-01
-3.860950051497902824e-01 -4.231188932691108961e-01 -7.020241873415036249e-01
1.608687709398672894e-01 6.300063111973994712e-01 -6.807051508059562828e-01
-2.461901512309648543e-01 5.019527919090321921e-01 2.470415682922569300e-01
3.925578119222804946e-02 -5.877145912088462820e-01 -2.467426034202353236e-01
-1.964874643213050665e-01 -5.983319999284575363e-01 -9.954308852890944581e-02
3.746995565564066322e-01 -4.227397746586218363e-01 -2.877875455518836278e-01
3.974364217614603234e-01 -2.248401048738141172e-01 -4.789730717889773004e-01
6.931593119882386578e-01 -3.317293852828077094e-01 1.016865563982797399e-01
-8.329222637506040749e-01 2.537237784534950302e-01 -3.509175586104988365e-01
4.197890017195995971e-01 4.498433422326337250e-01 1.505744495421572071e-01
4.746908296391252891e-01 -7.660449461129873461e-01 3.954935046879127225e-01
-5.995693628343083947e-01 3.847232367666739150e-02 1.828141983847132446e-01
-4.903364310321409736e-01 2.195396795622045205e-01 3.043067276338001781e-01
-4.512043742135783408e-01 2.518941297449668326e-01 3.394407365910890317e-01
7.505618751302670644e-01 -5.455796289697858459e-01 3.749669231635409661e-01
2.919581958584802628e-01 -3.384798803616510116e-02 -8.039234882799010107e-01
-2.331782046798032693e-01 3.805920611787487196e-01 4.689498733250261342e-01
-2.742854749757586141e-01 -5.197403559304134557e-01 -3.850677979016816077e-01
6.649112646265836757e-01 -3.510975514387992824e-01 6.581870359656702418e-02
-3.199427305108771269e-01 -5.535626351557771940e-01 1.152867816629384173e-01
-7.021836116364356117e-01 8.824795190145064486e-03 -5.755387920135122959e-02
8.051893007264822044e-01 -4.174110114771740210e-01 3.561905351490661786e-01
8.249554200879556376e-01 -1.870963587266762373e-01 3.213035267434574682e-01
-5.012089662687314595e-01 -4.181954795602144670e-01 -2.155355859690611109e-01
6.461601009610167257e-01 2.474027706179536268e-01 2.715382935600447190e-01
5.011478876945820726e-01 3.888485859446392801e-01 2.199122767250644983e-01
6.769925929441762413e-01 -2.556266783616197857e-01 2.888348499346344439e-02
3.751289513009614662e-01 1.305620866969062766e-01 -6.932349663938708328e-01
6.316369888955005729e-01 5.807253393258782898e-02 -8.565301091124448429e-02
3.013731975211773606e-01 5.375366881526673080e-01 -1.399471097445277312e-01
1.967236644983700114e-02 -4.927052623230528949e-01 -4.929536932221643686e-01
-3.517458409154081700e-01 7.739998420393384704e-02 6.467958104534414776e-01
4.957512269290872964e-01 -1.620483353553314465e-01 -3.581214201260223828e-01
2.325959130631107541e-01 -6.571420399029077597e-01 4.109911290793769219e-03
6.142290044937102067e-01 2.967760101899279968e-01 3.532890757089997003e-01
8.511716672712325016e-01 -2.639554468527109954e-01 3.829472677415705628e-01
2.849640067627115525e-01 4.935589324049271531e-01 -6.156702334783995534e-01
-5.194587235215000209e-01 -3.736325901115405967e-02 3.647645822948717420e-01
4.797185943391835128e-01 3.787059478181798444e-01 6.145300568988862899e-01
1.605876604589522583e-01 -7.066120016501370449e-01 1.093337334229027430e-01
-5.834868100326606744e-01 6.915404947367054245e-01 -4.069844621859257106e-01
3.492028028451489297e-01 4.959908624528752696e-01 -2.063899873259829876e-01
5.533689418092776480e-01 3.511927057857075485e-01 3.686470265386093126e-01
-1.941821199374989815e-01 6.494416435028339818e-02 9.163052687635575566e-01
1.558246050150732809e-01 -2.232708473716350506e-01 -8.313527758111246557e-01
6.373187270050533204e-01 -4.755343182646478706e-01 1.337678117801228417e-01
3.460149404310813304e-01 4.540188539270723078e-01 -4.605115756074514843e-01
2.819084598489172699e-01 4.515455546994171510e-01 5.435388243321659374e-01
7.746340063207576287e-01 -4.821295398158698675e-01 3.529514829030841461e-01
9.686523799464542839e-02 3.081949715903307130e-01 9.035148945946942511e-01
-3.409387561430236024e-01 4.182988157896462833e-01 2.899326963941914470e-01
1.170476578307122623e-01 -4.042511365321237449e-01 -5.995854560998755689e-01
-6.301056831932436708e-01 1.549717143162587518e-01 9.006769731401925716e-02
-4.788447585938791495e-01 -3.510572114724520576e-01 2.507400314302130062e-01
-9.393256519669015980e-02 -3.229419112183480878e-01 -9.343849014195089175e-01
-6.492918324691046017e-01 -2.161183264755354161e-01 -1.145040907082510301e-01
4.038750441580125639e-01 1.447126861476224768e-01 -6.258492798681127844e-01
-6.933127704829832316e-01 5.259570691842551105e-01 -3.052867619836645008e-01
5.945474155364646185e-01 1.348124845211150225e-01 -1.349883567786206995e-01
-4.893877679854682361e-01 4.752951535436926167e-01 2.980707101662287417e-02
-9.984041218051872835e-02 2.176223011519044237e-01 8.664935501474433366e-01
-6.202961864396566716e-01 -2.304584904727078887e-01 -3.561636926173185336e-02
6.140384835925217777e-01 -1.789015923566608657e-02 -1.530198144588928444e-01
6.864317172314804427e-01 -3.912138307589457242e-01 1.328886018187406259e-01
-4.155261872971796611e-01 -4.359694414548689334e-01 2.889469282087227531e-01
-1.244219850997967669e-01 -6.978112586399097816e-01 5.667357772499319601e-01
3.903424344631143406e-01 -1.967400015432665406e-01 -5.148983828130925255e-01
-8.255138114225775148e-01 1.842147842066532426e-01 -3.250035716039983424e-01
-7.534749867289372016e-01 -1.810997672199321160e-02 -2.038598584781527445e-01
1.245997517652243924e-01 4.853771282609142812e-01 4.745575548450119419e-01
-4.542932658993680262e-01 -4.443703332052853505e-01 5.519366633649876869e-03
1.235673343930587115e-01 6.688173707479460051e-01 -5.550340140441438752e-01
3.067114935676644727e-01 1.461159035790284833e-01 -8.455301030725915767e-01
-5.297533406450537496e-01 -2.186579401448003612e-01 2.726603728572237761e-01
-2.504032762310583471e-01 2.049931441514855068e-01 6.864329956567353230e-01
-4.238041599632544898e-01 2.295091534251846310e-01 4.032269816974844434e-01
-4.899656069342530618e-01 -3.121390233295947558e-01 2.832822253980939453e-01
-7.577147101172370114e-01 -1.425919216643176113e-01 -3.722206696789279734e-01
-4.572479683832935682e-01 -4.503430550439635471e-01 -1.094266013132462884e-01
-2.622009241958177528e-01 7.249966722306185885e-01 -2.651746036834224940e-01
-9.229834463123461801e-04 -4.399928666469504757e-01 -6.236170821555151456e-01
1.139614933380848905e-01 -4.163759251063050004e-01 -5.805418611127598494e-01
-5.607702083066116172e-01 4.038765789800845968e-02 2.654360929771308331e-01
6.944800061460411067e-01 6.769918458032039843e-02 9.623152051362145187e-02
4.494972191687021668e-01 3.265992819283008997e-01 -3.525828551874152783e-01
-2.510186538153761915e-01 -5.839952053388225428e-01 5.399336309086674168e-01
-2.994079483475569070e-01 -4.948647183650368708e-01 6.289127073521576516e-01
-5.462825802492593530e-01 -3.827880162415936427e-01 -2.755911341272875847e-01
2.198848667767168141e-01 5.222699665412573466e-01 2.969442492383512766e-01
6.652842147722827226e-01 2.392064642876274849e-01 3.411238722402523127e-01
6.449690994571769531e-01 -4.316692902954736843e-01 1.013547283139764887e-01
-2.089544690418276285e-01 7.448168766507387017e-01 -3.186581537039150924e-01
-4.754104143176295372e-01 5.867354564454445587e-01 -1.212836068373345233e-01
-7.950908623786806517e-02 6.907539927657614376e-01 -1.666066420335449716e-01
6.181963657935476419e-01 1.745823958947076426e-02 -1.362527361295807204e-01
6.941127614647284449e-01 -4.719890298555725616e-01 2.160079643154021178e-01
1.601903008500272785e-01 -5.954167912471172164e-01 -1.784679621548903583e-01
6.391251456604094550e-01 1.976301653572129502e-01 9.629589176938388451e-02
-3.274126194334220918e-01 3.652149896882309621e-01 3.820132622578632509e-01
-6.433298157145099783e-01 3.970762484200269782e-01 -9.686461738765485274e-02
4.615836962616543526e-01 4.049183436230093247e-01 -2.800467186663158775e-02
-2.267421204240828783e-02 7.149426862393553073e-01 -3.151140845122815115e-01
3.884863081889665670e-01 -6.328170666099312003e-01 6.388624795995422045e-02
-9.940826927195053897e-02 -5.760895405814847603e-01 -2.828442221518445154e-01
-4.612001889303155577e-01 5.320403342567538996e-01 -1.887023362245332167e-02
-1.789915196260093502e-02 -5.313397316410281013e-01 -4.136118051290562092e-01
-5.349399155226844949e-01 1.216144595291962505e-01 2.883994410149522403e-01
-2.875993572286629218e-01 -3.267871212339242826e-01 8.658722372265905687e-01
-7.514328202249631605e-01 -3.307032620630944580e-02 -2.087563627963168189e-01
-7.083268262359212475e-01 -1.582438597678482162e-01 -2.211050305890589762e-01
-2.037126619591770327e-01 4.913982118246235098e-01 3.031396602593260936e-01
2.004688995061924550e-01 5.205595288233356710e-01 3.233384829359532975e-01
-3.975662579127783314e-01 -3.837000208355047515e-01 4.860504942378021109e-01
1.404534035840958317e-02 -7.274332929199825992e-01 2.408728289733596262e-01
2.818340472544914599e-01 -3.360026865401563034e-01 -5.215957383349993925e-01
3.164740159372697037e-01 4.162597516290520994e-01 6.599738022047022534e-01
-3.165713886463793897e-02 -7.152056902299325225e-01 2.455604767996694415e-01
-4.419735673244560292e-01 -4.536471783551643822e-01 3.158620852649399874e-02
7.086137925531735826e-01 -3.931086661269520000e-02 7.056638526026033642e-02
-1.087039809123623302e-01 -7.044351311831019702e-01 4.359655108828736081e-01
-3.606466633192592086e-01 -7.668471388633113506e-02 7.088368695990076018e-01
-3.675339183685644162e-01 -4.829162435112074325e-01 -4.201468726821742106e-01
6.674530983100759873e-02 -7.630104210963035705e-01 3.444148203418828658e-01
-5.266278199178111574e-01 -2.951913403870793373e-01 1.835092965880903149e-01
3.329782104712685625e-02 5.479442367158664506e-01 2.833257978341818251e-01
-3.430389335075587076e-01 3.036644654644329311e-01 4.416757800729368411e-01
2.285572728602629777e-01 5.868884090549075783e-01 -4.540711313335183963e-01
6.458170947970679476e-01 2.225517941565088864e-01 1.838795455559315006e-01
-5.409374758190648169e-01 -1.345962291102301978e-01 2.970567769705350636e-01
-6.679876757639140461e-01 8.386990265998518768e-02 2.908669698507650170e-02
-5.920919610781840703e-01 -9.554193831550414351e-02 1.822866138713142015e-01
2.152802327743843780e-01 6.235600631972018984e-03 -9.658947552059766739e-01
-2.358990869384103573e-01 4.546207016016943769e-01 3.425500490566880107e-01
2.951605143678086574e-01 5.404237540602253587e-01 -8.161884532064633824e-02
3.495423720149825053e-01 -3.869667311600631376e-01 -3.676373351042285798e-01
8.033644417804868265e-01 1.084552833280353346e-01 5.453826314108931594e-01
-3.445450102535721482e-01 -2.804956510145182325e-01 7.393838489382624779e-01
-7.139786345367309384e-01 7.734825029968235566e-02 -7.373635836764785845e-02
-3.091734784141645931e-01 -5.606319366325180908e-01 1.968344476143595867e-01
5.009367101602745231e-01 3.317720901304532788e-01 -1.360187555602846154e-01
-9.412933185645598611e-02 6.660660754319154275e-01 -7.890886500810609383e-02
6.354227996494270503e-01 2.766583373614565633e-01 3.641239898821010956e-01
-3.820378405864567339e-01 -3.805630883593262292e-01 5.438413843838936224e-01
-2.098947245433652187e-01 -5.590198497038353365e-01 -2.784735158548553580e-01
-4.719847610358973711e-01 6.656768966283762579e-01 -2.565345348836329809e-01
3.602219596750376174e-01 1.033378297104745047e-02 -6.995391972393231184e-01
3.820084176564757517e-01 4.649078176495365367e-01 -1.977506071013938049e-01
-4.342154532315187776e-01 -3.988366843434167919e-01 3.163246413745361973e-01
-3.213359170596069014e-01 -4.693537538344443871e-01 -5.628760697386983036e-01
1.615117571307221264e-02 -4.497100528071980574e-01 -5.913771147955574348e-01
2.608696500770743554e-01 3.448719958702983202e-01 8.977931587037203398e-01
1.515406328238506073e-01 -7.846141284246407333e-01 3.668650715017107711e-01
-1.953229350079848936e-01 -4.781565437357673254e-01 -5.890314138017591628e-01
-3.955989731795959696e-01 -4.258849420100909167e-01 -6.790523807149477786e-01
6.592638751941884978e-01 1.408164380896768375e-01 7.058661360245174765e-02
6.316002834953724498e-01 -4.490715367508318900e-01 9.791253910255681703e-02
2.098831062011613235e-01 -5.236766710563225263e-02 -9.310584250458480149e-01
2.128333231122926106e-01 -3.934776147484526088e-01 -5.203212754763273384e-01
-2.639401940788646539e-01 -5.702468728028838862e-01 -1.114639282598759301e-01
5.265802031528191707e-01 -2.712541833198142682e-01 -2.290496239485022567e-01
3.541248993266730705e-01 3.917781377760077843e-01 -5.769635891687074913e-01
-4.524685052183696245e-03 -5.492938316777317143e-01 -3.619505080667205776e-01
-2.519442331544833880e-01 8.032490510377514603e-01 -5.034640749303513907e-01
6.603834206118064376e-01 2.102575448738994712e-01 2.123183893331296590e-01
-3.484756219002692057e-01 -4.516017695178735081e-01 5.349921239171354648e-01
-7.729406478159416005e-02 6.588395964937054927e-01 -5.780988607737579804e-02
5.137539133891806387e-01 2.791214466268759908e-01 -2.078303248893309252e-01
-3.801573568233000411e-01 7.626581706556563311e-01 -4.028294362714312515e-01
-2.321925097615062661e-01 -5.967247798890477073e-01 5.892795685847609377e-01
6.865623400410910682e-01 -6.247500701354528063e-01 3.777705981094587884e-01
-2.777227821291864962e-01 -5.692385961539606631e-01 -6.642389513952794144e-02
1.791563692753853423e-02 4.622828979181861642e-01 5.107781386422054481e-01
-5.712726681434765474e-01 -5.738343932986068874e-02 2.447365904036522544e-01
1.900287781478242621e-01 -3.463341384429369785e-01 -6.183482063039198451e-01
-1.556942559329613229e-01 -3.817137894548211507e-01 -8.448084252225024349e-01
