5.020398644902621665e-01 2.348756166839965215e-02 -3.064382936215725994e-01
4.995357903849826364e-01 -2.676953784274304082e-01 6.279965594781958260e-02
4.592405291765466191e-01 2.292958735611541343e-01 8.877272782656331351e-01
4.974939560709373265e-01 -6.331528101206070902e-01 4.902764400881066131e-01
5.152572442575397149e-01 -1.672500687491831617e-01 -5.496598443986721039e-01
4.719572255280758966e-01 1.183685935442592013e-01 5.820565381481975775e-01
5.103058269858765650e-01 -5.876200680100838181e-01 2.702678016360677768e-02
4.844918613184691636e-01 5.753702711008860105e-01 -2.783811986742886213e-01
4.691413458961598004e-01 2.038614701945349605e-01 5.895860323104287204e-01
4.923643230804965465e-01 -1.050245069384299901e-01 1.363378783839615527e-01
4.847106257020837861e-01 -1.393956290157624400e-01 4.201582328330294436e-01
4.790339608778261815e-01 6.939550843350021925e-01 -2.172635658563465966e-01
5.059518409568856123e-01 -4.409030721045713586e-01 2.432799185457778721e-02
5.001121684227257669e-01 -7.542137340727852468e-01 5.243166078444811973e-01
4.706401622722377609e-01 3.362480287334125850e-01 4.099470327797102298e-01
4.810426738718306394e-01 -2.886666767187726079e-01 6.872873780948387523e-01
4.799357038784913820e-01 -8.614404591738142325e-02 5.234801578444855386e-01
5.100690505722661472e-01 -6.177254982109192660e-01 6.448012642557197915e-02
4.859444023329155260e-01 5.368723162621424905e-01 -2.877966223264791790e-01
4.849076350280461245e-01 1.903117728816517695e-01 8.820893815845667896e-02
5.040479245546554132e-01 -5.775963621708664064e-01 2.214451251150090783e-01
5.140526552044815123e-01 -6.037704002642296786e-01 -7.935857877642647773e-02
4.790550379745479037e-01 -8.929882176037109986e-02 5.553477570978566646e-01
4.796172180515463346e-01 3.565276457729261717e-01 9.683267982601442836e-02
4.978951218062582784e-01 5.181410259231411519e-01 -6.594831976875322743e-01
5.234488001834721738e-01 -4.740356104717678432e-01 -5.142199002801933760e-01
5.116762856717192998e-01 2.950503391838914524e-01 -8.891698929474677326e-01
4.552185763396131568e-01 9.060066956440778752e-01 3.509298240784419209e-01
4.880709858389716826e-01 -5.558893230256113649e-02 2.277040279302290360e-01
5.171878959400031395e-01 -5.095773041894691158e-01 -2.747172436668398610e-01
4.856074657674351869e-01 3.592098447919545023e-01 -1.013914136316648451e-01
4.717151200688701196e-01 8.602915162801203497e-01 -1.425327109591200958e-01
4.820154253425633639e-01 5.267173276094934409e-02 3.185276400826776988e-01
4.665844172375145926e-01 1.202809594592443160e-01 7.555856398745920410e-01
5.211843944204941348e-01 -9.555921772448235929e-01 3.514725541998915681e-02
4.880200480579443556e-01 -8.630256346331460771e-02 2.596903880176029689e-01
4.921698722067547327e-01 -2.718179855478147777e-01 3.073602045970342256e-01
4.873106199389700133e-01 7.683202774500098586e-01 -5.609088195628172402e-01
5.059008156287758684e-01 -6.388049549025830443e-01 2.213806532359584023e-01
5.216156109971276100e-01 -1.134159934133295855e-01 -8.104044626102414606e-01
5.097302326882978685e-01 9.256294193805821025e-02 -6.257191150560186266e-01
5.211877424863987640e-01 -8.818401388111860584e-01 -3.777677376045615598e-02
5.048098059522859726e-01 3.913274048536712901e-01 -7.600392280740939643e-01
4.842204970566270639e-01 4.850299568927156635e-01 -1.803292374154648048e-01
5.029017287546391213e-01 -3.992697814357501485e-01 8.280713130623414131e-02
5.128082793642662063e-01 -3.514544412160843789e-01 -2.878401276115887808e-01
4.862575833871558006e-01 2.619696594506039644e-01 -2.661279342817434931e-02
4.752874912546730113e-01 4.156547281670366356e-01 1.798185766819812570e-01
5.335674776690343402e-01 -5.752894781404183089e-01 -7.446182276350065132e-01
5.140070913456173951e-01 -6.641822324117565568e-01 -1.822690801058530000e-02
5.039494691501262835e-01 -7.808236057623226811e-01 4.253040144733131744e-01
4.923952189505897969e-01 -2.366306672117149679e-01 2.652627243400199064e-01
5.275768606274665595e-01 -2.497619931039450625e-01 -8.704205173395946904e-01
5.164604577306260991e-01 -4.851208364600302914e-01 -2.751127153631514610e-01
5.044939199951808950e-01 -2.002362212976915856e-01 -1.656804497767680739e-01
4.607658749158524136e-01 6.031815628087381365e-01 4.687922206363511202e-01
5.244099337620578005e-01 -2.477339204690909291e-01 -7.690256162467974388e-01
4.936975112968503554e-01 -4.582913309946597402e-01 4.415876587461762814e-01
5.027958308189725001e-01 3.243523490858229996e-01 -6.281609599893287488e-01
5.011819437731490634e-01 -1.192597905928119428e-01 -1.374948200779972929e-01
4.830838558422769213e-01 7.852721056443079384e-01 -4.396453129547900907e-01
4.630237549266054686e-01 2.512934770633211135e-01 7.424904633489419759e-01
5.026363171245512573e-01 7.986816056486820137e-02 -3.815759674365272747e-01
5.045357250578366148e-01 -1.696263378670922473e-01 -1.972662059629226861e-01
5.026286534938083639e-01 8.724684112032932148e-02 -3.886106613862401193e-01
4.812529750293573771e-01 2.641401490515740691e-01 1.346400818545645528e-01
4.565674188164910441e-01 7.616946395577567364e-01 4.493693621357867096e-01
5.234087969739085189e-01 -4.413569477875504687e-01 -5.451771799031334131e-01
4.795229142707632120e-01 1.469466419961570347e-01 3.068290322998738495e-01
4.762533477898066026e-01 8.915625949776070369e-01 -3.215752516208594258e-01
4.597994056570410826e-01 5.702146751043360995e-01 5.328944465190237345e-01
5.127477880825775935e-01 -7.086277770833016021e-01 6.676884790955132931e-02
4.624267205794550528e-01 3.186678279256909829e-01 6.954649912007563328e-01
5.118396098718297482e-01 -3.185056669212569247e-01 -2.887440008130079949e-01
4.954538735806818250e-01 -2.725441880182171706e-01 2.008576057564320227e-01
5.098201056888317373e-01 4.043206263105657283e-02 -5.771850405761653757e-01
4.790349282218352989e-01 -2.958655901730554705e-01 7.599458167710353429e-01
4.940224647446997963e-01 5.332111800416750036e-01 -5.479231946993647906e-01
4.983799173434064200e-01 1.247906017200467871e-01 -2.869600156970685267e-01
4.858510500355418538e-01 -4.666977342754288771e-02 2.913770500879920289e-01
5.150987372795207131e-01 -5.860529958119466976e-01 -1.310044122464995020e-01
4.770673031664927621e-01 8.190148556115509626e-01 -2.765244086079970409e-01
5.247417057495676884e-01 -4.936019565579640722e-01 -5.371143813621955809e-01
4.840182296228381365e-01 3.809777471602591725e-01 -7.099559297433032101e-02
5.311662334768628702e-01 -6.511738425135942254e-01 -5.912999076549581012e-01
5.041402119852766983e-01 2.402572419896574774e-01 -5.890274113533723321e-01
4.763222062622417541e-01 4.666434316457744313e-01 9.569541586486095264e-02
4.775538971708899738e-01 1.245782888203420397e-01 3.931996701696724439e-01
5.094731579682479916e-01 -3.287901728275707258e-01 -2.013277611922834887e-01
5.068741321441734282e-01 -2.066045874924884174e-01 -2.371047190979654051e-01
4.783959914893220478e-01 -1.567347564924862977e-02 5.041753723744971660e-01
5.016117890451358141e-01 7.824614416129417604e-02 -3.465246822478292299e-01
5.230200065508521234e-01 -6.500822807213321175e-01 -3.264109101714390837e-01
-5.173408579749505520e-01 4.152834042100233408e-02 6.056658963917742611e-01
-4.771886706978278880e-01 -8.364625368440051223e-02 -5.816817066048755036e-01
-5.183078864379561113e-01 8.515720234890102880e-01 -1.625103031853206426e-01
-5.039299023397413313e-01 3.610446516221262336e-01 -1.476448093790561356e-01
-5.295536588124135635e-01 4.179506639368862908e-01 6.327640734253077159e-01
-5.051208008445309261e-01 2.759889693807061062e-01 -2.478838467874341228e-02
-4.980755128609685167e-01 -1.414173741962211905e-01 1.572910485306868444e-01
-4.747946532847238665e-01 -7.252810654786586708e-01 -2.636391063257574607e-02
-4.962218823324708872e-01 -8.684444445078724761e-02 4.289238818002786419e-02
-5.098851138233693181e-01 -4.733023014292685876e-02 4.499720863298701246e-01
-4.572618319645817553e-01 -4.564390018836963492e-01 -8.642194494988131304e-01
-5.336893660572346043e-01 7.838918022478863490e-01 4.065006815684918395e-01
-5.168122367262136807e-01 -2.111188338718652524e-01 8.378431686954870283e-01
-4.574194991517281372e-01 -4.689977776882950367e-01 -8.466725980385481076e-01
-4.832554339274384714e-01 -2.923383074120431968e-01 -1.775677940010674249e-01
-5.304112518062884529e-01 4.210404178164091626e-01 6.577131962529082498e-01
-5.021728299245450389e-01 -2.364948038617777082e-01 3.849336998216152939e-01
-4.827925470186290036e-01 -1.905125481609678817e-01 -2.932122660876106401e-01
-4.715014589732512973e-01 -5.641130660867084146e-01 -2.930033259668352041e-01
-5.008620936191444661e-01 4.264913104513289865e-01 -3.124207855719717819e-01
-4.952118665567779576e-01 5.676497669243822930e-01 -6.362598746355300205e-01
-4.999128045849678958e-01 -4.030084658978899670e-01 4.755434140147171695e-01
-5.001945094998723196e-01 3.681743276298483081e-01 -2.766409547048392370e-01
-5.114448839870270325e-01 -1.898251875752803297e-01 6.415811004441176468e-01
-5.198238849000506034e-01 3.502719106324308496e-01 3.819146782416399377e-01
-4.956913614964712500e-01 4.830177121381744043e-01 -5.370483542001585064e-01
-5.143461660996105911e-01 3.712893047099378174e-01 1.823220026701365681e-01
-5.029017056884798054e-01 -1.215695173467101625e-01 2.952661195026379803e-01
-5.043571594869524777e-01 5.015529446175842621e-01 -2.724178253365993063e-01
-4.964134675579042200e-01 3.384443724873051895e-01 -3.707363213078476161e-01
-4.794802886627476668e-01 9.825777963221588029e-02 -6.864547249807589901e-01
-5.062819515073847532e-01 6.348995928596483651e-01 -3.412271021142314620e-01
-4.830432299373159655e-01 -4.986600959846499426e-01 1.920357297763974902e-02
-5.135969022517298255e-01 1.812917062895471818e-02 5.065310332282090267e-01
-4.736277029569429531e-01 1.749251737724492051e-01 -9.532291940649171291e-01
-4.830036960771171839e-01 -3.228572712744192663e-01 -1.556557033133262324e-01
-4.922509166230533140e-01 -3.602889338429162702e-01 1.832133353014983590e-01
-5.289603391867820914e-01 6.843760796160107684e-01 3.503533487681712022e-01
-4.644760408766467896e-01 -2.657664689257541735e-01 -8.169315397147645097e-01
-4.906174425212427304e-01 2.567602331357978773e-01 -4.793251061036439831e-01
-5.025803775830011144e-01 8.050936083695157952e-02 8.526441574648509214e-02
-4.981732326991741289e-01 -4.566163335915219279e-01 4.716745807750543085e-01
-4.958535346986276404e-01 2.836177108416632620e-01 -3.348877399422914847e-01
-5.278547267929192266e-01 8.553494819621075829e-01 1.454556507606446780e-01
-4.955734719195958871e-01 6.580866167821203261e-01 -7.137412787031621741e-01
-4.626229024672909307e-01 -3.136152335426162785e-01 -8.301941238636781906e-01
-4.807171679245393348e-01 -7.443492204562848213e-01 1.858264668228496452e-01
-5.013043466141141602e-01 2.793568995261528354e-01 -1.527171710175026786e-01
-4.817264407776430390e-01 -5.318757892108363361e-01 9.005191424615402798e-03
-5.160232285172261513e-01 1.581598336549932815e-01 4.474973131422975703e-01
-4.805626435616225378e-01 -5.603081320345271177e-01 -9.207047511173401455e-04
-4.729295728128681264e-01 -1.116879421185739685e-01 -6.930519628127722598e-01
-5.065242071168530869e-01 -4.961070249336203553e-01 7.833148823540163619e-01
-5.019305907725657434e-01 1.793020473595768882e-01 -3.348763807382721530e-02
-4.977249696587264238e-01 4.908276143992997831e-01 -4.783635961917689361e-01
-4.610263287665359311e-01 -7.612399962798576114e-01 -4.403848969137932889e-01
-5.351888777656715890e-01 4.717711232378485331e-01 7.636122484113774256e-01
-5.218252154959912570e-01 7.386031245431378123e-01 6.386036761860204580e-02
-5.102192515164946096e-01 -1.164528517198589880e-01 5.291255060791307807e-01
-4.747049736311972912e-01 -3.455713132652223768e-02 -7.112373366114411732e-01
-4.629964711364556451e-01 -6.913903074939140581e-01 -4.450235556245938917e-01
-5.048145099615172215e-01 -4.602284963346550684e-01 6.920723244836339827e-01
-4.620597770249735281e-01 -7.234411454834913657e-01 -4.439622405170207675e-01
-4.824542179300250755e-01 -1.580337609275620780e-01 -3.363244060139369829e-01
-4.823889178787496568e-01 -4.916670287269674366e-01 -9.063295294863776483e-03
-4.885335300907585609e-01 -3.815553198309323268e-01 8.284025327380387105e-02
-4.943474376049667995e-01 -7.215788210234067579e-01 6.083610091153174304e-01
-4.800062754088907369e-01 -6.409743416929317705e-01 6.055541210705894101e-02
-5.020361464582135946e-01 6.429425812502241877e-01 -4.877894334935765630e-01
-4.583561558445820583e-01 -6.604221990231978756e-01 -6.271000401975783678e-01
-5.005138791412119259e-01 -8.142266813935211331e-03 1.053201224145310783e-01
-4.884561823688820525e-01 2.906218549080515356e-01 -5.833194994906681918e-01
-4.874569299784723420e-01 -7.641637630530622172e-01 4.254361093529140936e-01
-5.062775357198910919e-01 2.709470969845316213e-01 1.795572146187094514e-02
-5.346836194559796418e-01 7.818994870281161802e-01 4.409291194213251774e-01
-4.759218295728548376e-01 -7.332038608868091112e-01 1.825944442786580843e-02
-4.697158451149597291e-01 -9.729830482988495177e-01 5.237167376507967376e-02
-5.144425257548125296e-01 7.479974546686990466e-01 -1.864524811292428974e-01
-5.275300809581368044e-01 1.510448398660517999e-01 8.302098468954351995e-01
-4.777555177507135098e-01 -4.994958746809513572e-01 -1.526101253676177272e-01
-4.970076198554803093e-01 5.799622630106689158e-02 -7.445389617152396722e-02
-4.979610863434966728e-01 6.025197805763307102e-01 -5.809272690032636355e-01
-4.864931589393810540e-01 -6.613975541249422774e-01 2.925097416730050859e-01
-5.104423408319961331e-01 -2.296516422396790158e-01 6.481693016455764011e-01
-5.207883005193558734e-01 -1.188703115588246734e-01 8.765818024826349530e-01
-4.652884174242705173e-01 -5.416300811347517924e-02 -9.993223813363901753e-01
-5.028481280638825712e-01 -1.901512072421905619e-01 3.612269399839357908e-01
-5.121948596511197715e-01 5.374055044020847882e-01 -5.192115565970116531e-02
-4.966167975166452808e-01 -2.225380817328474758e-01 1.897550955583303944e-01
-4.693904090563509324e-01 -5.015614364611074016e-01 -4.236837864301070122e-01
-5.192056274064962285e-01 5.731340804650543186e-01 1.416993526516191759e-01
-5.060178807303238324e-01 7.596658493316083005e-02 2.019807183660294325e-01
-5.040581902057452712e-01 -1.345466128763928848e-01 3.458364254427054307e-01
-5.154905841401445921e-01 8.894215105911887909e-01 -2.918610419832634584e-01
-4.843152179771383348e-01 -2.888811914892716604e-01 -1.463800156054687884e-01
-5.104685692145090048e-01 -7.736404555058738752e-02 4.986734721779105817e-01
-4.685736101740493598e-01 -7.450699777800390278e-01 -2.099377335749958440e-01
-5.265922303878912691e-01 2.032913938873130433e-01 7.480073548979461195e-01
-4.556057844173537763e-01 -7.627396557090643237e-01 -6.158799976529885090e-01
-4.882542802542743643e-01 -3.894891785816276819e-01 8.155603412701052657e-02
-4.677459394505179557e-01 -9.743973149070374040e-01 -1.054761031263134162e-02
-4.799207833718848737e-01 -1.408162014533286821e-01 -4.360374139000827709e-01
-4.996942562920497211e-01 -5.418467308309691255e-01 6.054817752274266329e-01
-5.126101015659429994e-01 5.581038231300207153e-01 -5.879915785476834411e-02
-5.242600382333151288e-01 8.290506648656378319e-01 5.405701627478187721e-02
-5.278820983770019515e-01 7.493173092769648269e-01 2.510339088101484206e-01
-4.865276433625375097e-01 -1.031778704880788322e-02 -3.491695171546901899e-01
-5.175612559926436873e-01 6.942597215689380041e-01 -3.157408111605465584e-02
-4.704823308188094133e-01 9.164729088870529616e-02 -9.737031534778636255e-01
-5.265209010400462297e-01 4.250216797630925192e-01 5.267662202470431154e-01
-4.984489103389527220e-01 -2.104971196801399824e-01 2.376839323419840666e-01
-4.776878459763214679e-01 -3.517942949430125643e-01 -3.006439741936952070e-01
-4.798982702913708320e-01 -7.429269439988379631e-01 1.576860247265929049e-01
-4.690794387788679298e-01 -8.336283542707187966e-01 -1.059900218419519008e-01
-4.703015485210590985e-01 -3.584302659966037141e-01 -5.352480406131469026e-01
-4.544789554431358236e-01 -7.258957485864070414e-01 -6.890455642643318335e-01
-4.910851259807152980e-01 1.703319731683464455e-01 -3.787258423772594251e-01
-4.902383255689757302e-01 3.549096767001066327e-02 -2.732457829241572433e-01
-5.257017538525957656e-01 8.263560684805660861e-01 1.037880327464729968e-01
-5.151612289639615483e-01 -1.127415586734314690e-01 6.868123194916939678e-01
-4.676306920449532778e-01 -6.109578541637361582e-02 -9.160046385993992901e-01
-4.958845274789362434e-01 -1.234544267367431586e-01 6.802277101669103321e-02
-4.908435503336195382e-01 2.175858842012339534e-01 -4.332664185586969641e-01
-5.301033031646179561e-01 5.965292827410803023e-01 4.744003981543763460e-01
-4.796639007245859787e-01 -3.426011241056659551e-01 -2.452039698049205685e-01
-5.021004960104766823e-01 6.788868312647835523e-01 -5.211759125322433794e-01
-5.137133902657033957e-01 3.222486957785654638e-01 2.100798117607056148e-01
-5.265685565870227292e-01 3.236634490937371766e-01 6.283921901867349780e-01
-4.949310420829856616e-01 3.661324727275905300e-01 -4.464723359168868422e-01
-4.816423576768446013e-01 -3.688280982036835076e-01 -1.547155481831800627e-01
-5.241387446193886968e-01 1.316216010479617608e-02 8.556162066946948475e-01
-4.607051192962060560e-01 -9.295009451290053848e-01 -2.847495783751894938e-01
-5.163773494902452743e-01 -4.222101031258462117e-02 6.568932195733064860e-01
-5.023364856791284749e-01 -3.786631807595423616e-01 5.306384548576645876e-01
-4.886902048855825687e-01 6.741581152467690519e-02 -3.553095831231444235e-01
-5.122992385548608141e-01 6.208025420346272583e-01 -1.308504202272459671e-01
-5.235636232613677388e-01 2.233667787440701269e-01 6.293059209435429846e-01
-5.278337843147958841e-01 4.275657997038697089e-01 5.671188441540863101e-01
-5.128129253550256506e-01 4.144948065180288355e-01 8.960672736778838021e-02
-5.353032611719318323e-01 4.970319250067053996e-01 7.424069993474543550e-01
-5.182457878828733433e-01 8.308605044567261011e-01 -1.440894681980806613e-01
-5.119194684053842703e-01 2.347596941803142268e-01 2.378870386114059488e-01
-4.867580482405020614e-01 -1.253137751485197682e-01 -2.281125184650261706e-01
-5.124701889254998921e-01 3.785110742413677065e-01 1.139431158354566043e-01
-4.932791592809117054e-01 -5.482983864744481739e-01 4.024045216040298967e-01
-4.872323606981149302e-01 -5.791424992114885262e-01 2.354343184739611516e-01
-4.648444958543171412e-01 -2.089965583802236015e-01 -8.609502467410935500e-01
-5.237950145304608451e-01 1.092504526203072063e-01 7.495266420980326583e-01
-5.001731632135966166e-01 4.599491662585238339e-01 -3.679463559452512134e-01
-4.922737032595895235e-01 2.836771008679488115e-02 -1.997598783323127070e-01
-5.141415713313138847e-01 -1.231816094772663628e-01 6.638288192767024531e-01
-4.984216458672502958e-01 1.566558502663105701e-01 -1.256930210469435205e-01
-5.183545217283987983e-01 6.791666993889814430e-01 9.226506651109304263e-03
-4.756965760049032266e-01 -4.910576146447629964e-01 -2.281636642953279726e-01
-5.155144383058207769e-01 4.384320952113610059e-01 1.541755295425054628e-01
-5.085138060803990889e-01 -2.331538501798745278e-02 3.814905331200760252e-01
-4.589713125857174947e-01 -9.358899816506753844e-01 -3.350489073589272837e-01
-4.966804468309867771e-01 -3.196862127022221389e-01 2.877466538258571793e-01
-5.241554985667555844e-01 8.685470462382715029e-01 1.164947523436337361e-02
-4.958688821233189770e-01 -4.264208057778571814e-01 3.666279202351703237e-01
-4.839622244143060303e-01 -1.396025546995614264e-01 -3.052863679516014672e-01
-5.326818521987437549e-01 4.531378107976824499e-01 7.001567097330874123e-01
-4.731524029272894394e-01 -7.114187253117298937e-01 -9.366801070574350130e-02
-5.039439348757633885e-01 -4.582917422255353146e-01 6.617367228015621494e-01
-5.015122404712253346e-01 -4.263004199410425632e-01 5.507594338363034359e-01
-5.305104722690192620e-01 4.922109782853325566e-01 5.906866033144843042e-01
-4.903811782528577079e-01 5.537901682201821218e-01 -7.802938716060610069e-01
-5.056088871090935744e-01 -2.540130119287546950e-01 5.144133194822574362e-01
-4.722789216777915633e-01 -7.190163666783200291e-01 -1.146852738229149210e-01
-4.711328219597064049e-01 -4.570765200055940114e-02 -8.168559383173618071e-01
-5.076223194947119266e-01 5.873412892721691092e-01 -2.505114601827375109e-01
-4.646647497542468197e-01 -2.765445001101484723e-01 -8.001293191039855479e-01
-5.216987505898628141e-01 9.383587525225476345e-01 -1.374855111823307940e-01
-5.253227963977954440e-01 2.229748776490073914e-01 6.871281981441269560e-01
-4.596483131342488648e-01 -7.794227182026530754e-01 -4.674241815923977916e-01
-4.668426795304782551e-01 -6.350663481026482815e-01 -3.750565842913540782e-01
-4.855035461838412836e-01 -5.305508812854565770e-01 1.310160790504666384e-01
-4.672731283448345874e-01 -2.074469296140196151e-01 -7.831876028624520369e-01
-4.955926027616764373e-01 -3.196553800666231127e-02 -3.183444707039335964e-02
-5.185582779901004580e-01 6.263223465220258968e-01 6.805170775582697340e-02
-4.811267346755353502e-01 -8.067609590812191422e-01 2.608169809195868827e-01
-5.155678071326155187e-01 3.694392078469124763e-01 2.240340231175228791e-01
-4.842405114990496751e-01 1.438977618188357344e-01 -5.760978436746024833e-01
-5.185274327946379769e-01 5.172937913286421718e-01 1.746875436745632115e-01
-5.062281541063645696e-01 -4.020900340686437424e-01 6.808269070704354720e-01
-5.334858342387690522e-01 3.940068425490023674e-01 7.847854391467480317e-01
-5.172736043611877443e-01 2.089306843533454972e-01 4.381953144901933883e-01
-4.708051744433712216e-01 -7.870303679352691484e-01 -9.565213605732095226e-02
-4.720657669494377484e-01 -9.462472476794820953e-01 1.026984095662779040e-01
-5.286652632212822667e-01 7.958275366536385897e-01 2.306843829219495379e-01
-4.679606470710768740e-01 -5.304766087015259091e-01 -4.418164903533012278e-01
-5.172401605650605028e-01 -8.011871568689228618e-02 7.224792542630676939e-01
-5.106789157739924923e-01 -1.068599552340775555e-01 5.346621343605971743e-01
-5.125404616798725499e-01 3.062335173843466762e-01 1.875964311974935295e-01
-5.044291379542206188e-01 -5.454618188747377694e-01 7.636403745693534084e-01
-5.103081967795897178e-01 1.071462083170100360e-01 3.112721637400406305e-01
-4.752961528686464598e-01 -5.849023213278908839e-02 -6.683069545472242190e-01
-5.236935088849148379e-01 8.069230392084876524e-02 7.744077786877249236e-01
-4.800242998718984855e-01 4.748528839662131268e-02 -6.185660484043631335e-01
-4.857535172531329826e-01 -3.000844442854592661e-02 -3.550036029975479623e-01
-5.095212881292671137e-01 -3.246463105498473972e-02 4.234168468402037533e-01
-5.056487674516503272e-01 -4.075264650803802624e-01 6.672778139201489545e-01
-5.201001373878816336e-01 8.838820416682773295e-01 -1.358943743292503059e-01
-4.916475242828525216e-01 -1.181082117323264957e-01 -7.558968821489525647e-02
-4.829468706035159875e-01 -6.437666822053795812e-01 1.593199460687867441e-01
-5.033734587836334873e-01 -4.314751520592637335e-01 6.166354361932779860e-01
-5.029296445560996753e-01 5.083948636422670475e-01 -3.257798166081707913e-01
-4.865971466911562793e-01 8.906921055537149468e-02 -4.450241789256124680e-01
-4.737678658833773260e-01 -4.554757909474028699e-01 -3.262638565209619590e-01
-4.670447461064149430e-01 -8.562425125982386920e-01 -1.500940804848292787e-01
-4.996010916184570605e-01 3.764469912818903946e-02 3.031340813044091850e-02
-5.146241346008868511e-01 6.527005506368187548e-01 -8.643735407633212908e-02
-4.651790141043564142e-01 -3.904774921013385303e-01 -6.708540606694797237e-01
-5.265408381853764475e-01 5.452889675809009518e-01 4.086783480131155333e-01
-4.863143193139600751e-01 -1.083788040433698169e-01 -2.593195959317043942e-01
-4.982248216913611749e-01 -2.189361122643056212e-01 2.386993884447500824e-01
-5.256861084773191140e-01 8.546666758306290523e-01 7.532642027457205069e-02
-5.132158763469063523e-01 7.982886525074205375e-01 -2.761534795343120186e-01
-4.781979818837193141e-01 -4.929150352540181967e-01 -1.446612884681083289e-01
-5.082590980766716893e-01 6.976281093562547442e-01 -3.386064115204971969e-01
-4.801813370473954068e-01 -6.319860710026093953e-01 5.739697274586435388e-02
-5.046060680720154679e-01 -1.057389400504289007e-01 3.352825712746674292e-01
-5.049458567130769016e-01 -5.182237755670101587e-01 7.536188856734317154e-01
-4.995424236739388069e-01 -4.857419724877348188e-01 5.451328637738674932e-01
-5.262301003555965861e-01 3.466531629922031676e-01 5.946443751199027572e-01
-4.692912565408130510e-01 -7.579079119771181539e-01 -1.738324753385791233e-01
-4.761623984935728360e-01 -6.639349958445949218e-01 -4.227472699055669081e-02
-4.659846726038897047e-01 -4.671296032651524044e-01 -5.688721310933758657e-01
-4.673687647577847715e-01 -1.029908152757375572e-01 -8.831937368130607924e-01
-4.708732895134807306e-01 -2.348447510208571953e-01 -6.385960891218487312e-01
-4.903367653609566612e-01 2.057812352064222403e-02 -2.553085001911220009e-01
-4.813458021910235196e-01 -2.357007239292170930e-01 -2.958332552789060266e-01
-4.752048609953802294e-01 -5.997591236873404952e-02 -6.698207501768835836e-01
-4.947019144589712147e-01 9.512847111229580377e-02 -1.863933480522771691e-01
-5.198606322290386661e-01 7.703288811153325977e-01 -3.160398917391653295e-02
-4.659663572756692629e-01 -6.637424488431676872e-01 -3.753560320019247998e-01
-4.790949874034409195e-01 -4.262043260335505179e-01 -1.812377751535116654e-01
-5.227287178579430593e-01 5.142557987945458597e-01 3.148549522042377036e-01
-5.057048892673624563e-01 4.169687278380717066e-01 -1.449064798079228167e-01
-5.066492617467283077e-01 8.208094277610900047e-01 -5.127818586498076314e-01
-4.765115854812606577e-01 -6.601813367160139778e-01 -3.458005216320182706e-02
-4.996569995080944460e-01 -2.841508519557500168e-01 3.498445744631111243e-01
-4.962727309143549204e-01 5.340142641717918748e-01 -5.684156195389074018e-01
-5.021787979091459908e-01 9.827575852225077513e-02 5.461261202587156666e-02
-4.881384876120408722e-01 -5.479370867557327163e-01 2.342096939226248065e-01
-4.958140911838317955e-01 3.117046099708966067e-01 -3.639054743056395758e-01
-5.143289785737065190e-01 4.323760342800017087e-01 1.214504725251075307e-01
-5.206399138658347470e-01 8.053982300592716914e-01 -4.078482274629952747e-02
-5.081584859616794514e-01 -4.199163587841083650e-02 3.883285566402499556e-01
-5.103959583209035644e-01 4.410515237338600292e-01 -1.552419048980975894e-02
-4.971221899702263913e-01 6.608361318216838809e-01 -6.658916547556683607e-01
-4.597465919073362994e-01 -6.086350484782792059e-01 -6.328325873752023156e-01
-4.746703690206595105e-01 -7.478207962419590737e-01 -8.168404011090119043e-03
-4.751241179736109266e-01 -2.607421706581779519e-01 -4.742422302030727677e-01
-5.336094828189759109e-01 3.812775473306779239e-01 8.013899671914421763e-01
-4.959650682443559888e-01 -5.510477895496600498e-01 4.928113966912365806e-01
-4.742517209460162531e-01 9.972672537528810832e-02 -8.586128452422435720e-01
-5.034692925997340529e-01 2.194148981340161564e-01 -2.285351660473403795e-02
-5.032961096370769383e-01 2.005821887136537696e-01 -9.914415253091016234e-03
-5.214341389906942403e-01 7.634802202032135998e-01 2.653115496986119953e-02
-4.777153924094129644e-01 -3.078922674471428200e-01 -3.430886820956215444e-01
-4.790999734124990472e-01 -6.028124346096855879e-01 -6.711404425348853169e-03
-4.863920462258467525e-01 2.126374792732011187e-01 -5.737183470477663638e-01
-5.128853409395872642e-01 -3.741848155551636967e-01 8.706272590083531382e-01
-4.864941119882693066e-01 -4.010059345343275350e-01 3.545857586318170579e-02
-4.793275381497707488e-01 -3.420825950315360964e-01 -2.566978321780298278e-01
-4.773131068976043112e-01 -3.289610420374393662e-01 -3.354219177561252874e-01
-4.811324411145961322e-01 -8.303978155256406257e-01 2.843397445872812290e-01
-5.197275564343366572e-01 8.802147650470678597e-01 -1.444381249168679160e-01
-4.657946941893853499e-01 -7.506144161990717656e-01 -2.951927664676280427e-01
-5.208729486156413735e-01 7.972419684257923966e-02 6.832749284851782345e-01
-4.681016536621278035e-01 -7.712079875560912123e-02 -8.848068323067094232e-01
-4.695289967254049346e-01 -5.506644975002443765e-01 -3.706800223506157010e-01
-5.150028272588983436e-01 -4.298788333129020811e-02 6.127734816594926359e-01
-5.106921636971744061e-01 -3.044198188156209683e-01 7.301437263529521049e-01
-4.880135123485174753e-01 3.007107011878974723e-02 -3.405328371196912340e-01
-4.884230782665929804e-01 2.061975367775372436e-01 -5.010489546399969907e-01
-5.239975716288829410e-01 3.636135441584953387e-01 5.050095708741874079e-01
-5.062419206449376707e-01 3.132727128867516808e-01 -2.499477372171404754e-02
-4.807600092021846461e-01 3.436620394632755593e-01 -8.869584445724288946e-01
-5.128850601407202170e-01 -2.132290623342480707e-01 7.117079373269159515e-01
-4.698559394683149981e-01 -1.814944681602472243e-01 -7.244838660485739545e-01
-4.739179210870675951e-01 5.033062029485287081e-02 -8.207427722071877207e-01
-4.824175725515952862e-01 -5.053851819075164675e-01 5.416061050781695481e-03
-5.125360817474272634e-01 5.639822636244594678e-01 -6.701956659799304661e-02
-4.723817648214943543e-01 -1.101241507909275913e-01 -7.124812981155139724e-01
-4.961229820235386057e-01 -6.318487697087433741e-01 5.777412079488942753e-01
-4.952606745163877777e-01 -3.036638462711105935e-01 2.255736793536148033e-01
-4.859965129738560985e-01 -2.754145259683790092e-01 -1.047828237941511587e-01
-4.657839715329181174e-01 -8.700390249364007289e-01 -1.776360192001147364e-01
-4.835853898302679976e-01 -4.828447211918406312e-01 2.129021022415403253e-02
-4.931275938297606798e-01 6.023859802163058497e-01 -7.386041768909987759e-01
-5.040703096031337038e-01 3.202696344623346403e-01 -1.028038393600325950e-01
-5.125303767869726634e-01 -2.456618457399194766e-01 7.321484503159626511e-01
-4.667918685634505072e-01 -2.393196489903200996e-01 -7.674326379268545661e-01
-5.119145593615186396e-01 8.283257436760166348e-01 -3.482956088447300425e-01
-4.702292780580519804e-01 -2.928851971612196903e-01 -6.023196549923144349e-01
-4.949779324754279286e-01 -5.618046050813296777e-01 4.712024438351992695e-01
-5.004751202460262505e-01 3.130152481999857184e-01 -2.130212180766880570e-01
-5.098522205714115518e-01 3.774767718545431472e-01 2.949005612115987787e-02
-4.725435602083147835e-01 -6.641829825944672860e-01 -1.601815757110952032e-01
-4.785624577444963501e-01 -7.479008669024526101e-01 1.189837039454827439e-01
-4.726340194684914842e-01 -7.756060633779367219e-02 -7.363951117301702487e-01
-4.711576401456733509e-01 8.276902430318310022e-02 -9.428895038621207814e-01
-4.931921652262010181e-01 2.928600457551318037e-01 -4.309038362654407650e-01
-5.224570195080968649e-01 4.307106011810691304e-01 3.884676704249775958e-01
-4.928803803869406530e-01 -2.730491020628832421e-01 1.176336443106514029e-01
-5.132820842423483354e-01 6.724645924520181728e-01 -1.497669015459240360e-01
-4.816622709385163237e-01 1.654503934879276439e-01 -6.815537030334188895e-01
-5.312235842477762704e-01 5.130033850462938361e-01 5.934408877225010315e-01
-4.849535571964637692e-01 2.010051839236009497e-01 -6.091992082406130216e-01
-5.291249882082931233e-01 7.519651119563381947e-01 2.889989472561760309e-01
-4.800728672256184271e-01 4.573922018198736672e-02 -6.152564924549368541e-01
-5.124210956890914437e-01 -8.016939979867375443e-02 5.651913353308768428e-01
-5.068976329058225705e-01 -2.819343132527039608e-01 5.840561111414342976e-01
-5.218354948736935173e-01 8.753920679733505628e-01 -7.085450227981938964e-02
-4.606779340486820140e-01 -8.649569099615812551e-01 -3.493608912039212755e-01
-5.263958507133290610e-01 4.813831768222727181e-01 4.670382497433563929e-01
-4.827930521004578646e-01 -8.639150691829445838e-01 3.716484196431075193e-01
-4.576945826280809371e-01 -8.187882555765826353e-01 -4.923464168149562226e-01
-5.184651520559435678e-01 -1.285751756617048713e-01 8.103147031929647248e-01
-4.874013902506318940e-01 -7.027542656528511233e-02 -2.614468656946065672e-01
-4.936164819853111063e-01 -5.621927560839059534e-01 4.271355772328720990e-01
-5.111223318271617133e-01 3.505856829565699457e-03 4.401760893271293162e-01
-4.999581400855269142e-01 9.902723214783847039e-02 -1.863171108504024440e-02
-5.277958430886298125e-01 2.979720996586930348e-01 6.938267821144835645e-01
-4.726467780150995779e-01 -6.217147977643540102e-01 -1.987400642230503500e-01
-4.685960220158721379e-01 -6.936044927417465977e-02 -8.763278907362158643e-01
-4.806232021369710172e-01 2.020476578817170243e-01 -7.516104739991414929e-01
-5.181389695551048558e-01 -5.504688318960240800e-02 7.270713341516552575e-01
-5.274473119228214602e-01 6.822177195986263154e-01 3.030853536224054623e-01
-4.889513061814371730e-01 2.970377903836698419e-01 -5.734885651546978158e-01
-4.700495189299330745e-01 6.830337929149454812e-02 -9.647868246741394538e-01
-5.311553514738990289e-01 3.681301289382277742e-01 7.342452019746233960e-01
-5.056608781002686070e-01 -4.623350052090854367e-01 7.217851893356570514e-01
-5.077783469133555494e-01 7.360156023301591688e-01 -3.922021104520316825e-01
-4.825425517257860286e-01 -5.469424663161012168e-01 5.052564374641865808e-02
-5.265330745062570816e-01 9.010440949047531234e-01 5.719106379663954631e-02
-4.890283381694941478e-01 -1.298873972933011767e-01 -1.494741810232638468e-01
-4.716646065170481128e-01 -4.824371725393831745e-01 -3.683145794983464505e-01
-4.858497890014675247e-01 -5.704676359416156473e-01 1.817300325325827970e-01
-4.735581675424876402e-01 1.465826855104889609e-02 -7.972693997958594236e-01
-5.178531027001570530e-01 -1.290818164326633100e-01 7.908320662680005109e-01
-4.870725640066140838e-01 -8.245751197381143149e-02 -2.601554725473940177e-01
-5.099670551884655234e-01 5.210569355735219510e-01 -1.085160931816566421e-01
-5.119624700651268512e-01 3.467220871902277901e-01 1.287515484359704754e-01
-4.776799667260674398e-01 -4.697088557799554420e-02 -6.018506089604648279e-01
-4.744394929448336184e-01 -3.696777406845119240e-01 -3.890434974971536675e-01
-4.971823292588702370e-01 -7.888326208384960347e-02 6.639007854322986901e-02
-4.638303131072621377e-01 -2.493429361799861244e-01 -8.542287519365606707e-01
-4.995274666598116808e-01 6.066852937685557334e-01 -5.338989907286219028e-01
-5.186440462129334739e-01 4.598558136148632181e-01 2.352028565899557944e-01
-5.129046283386023974e-01 5.259188905585689966e-01 -1.740724259712753477e-02
-4.630005761961896726e-01 -2.678204555772930595e-01 -8.630761985337784825e-01
-5.239537811395635902e-01 6.957023402400803747e-01 1.757115989880801421e-01
-4.751321461544339431e-01 1.875777707240076919e-01 -9.166023255065475217e-01
-4.685370710223783486e-01 -3.307314120142544334e-01 -6.202034069476569655e-01
-5.263975494571592195e-01 8.617614400015669029e-02 8.572780276180665959e-01
-5.118631521020050590e-01 3.658811467721906907e-01 1.065933442910804857e-01
-5.020310310252594777e-01 4.040594093007807142e-01 -2.521092607127364271e-01
-5.211815918995132968e-01 2.719144939345912726e-01 5.036041074480585022e-01
-5.023661886683943312e-01 -8.216081246863375653e-02 2.388741333516456733e-01
-5.152069043459505115e-01 5.944689988769390476e-01 -9.918984833688861483e-03
-5.115226024510295399e-01 2.273120282130285108e-02 4.342635411008802238e-01
-5.104421165756609646e-01 -3.612947994561235276e-01 7.781320738368278089e-01
-5.188082465817953626e-01 7.129252416246484314e-01 -9.289303706187327855e-03
-4.761827535630381303e-01 -1.255220561754614994e-01 -5.731803601819017713e-01
-5.046276141114848235e-01 -3.952556645684128789e-01 6.218232629386867272e-01
-4.817866959948109984e-01 -3.073806873531724215e-01 -2.106695080227289907e-01
-5.351178503495913619e-01 4.144581977203104506e-01 8.178778007660386651e-01
-5.130662697793028082e-01 -3.616199111699526236e-01 8.641292003013959500e-01
-5.031505038894911186e-01 7.056096451346258736e-01 -5.132773293190027175e-01
-5.274884527327826644e-01 7.380970205712359400e-01 2.492594360410574361e-01
-5.011777186740775658e-01 -8.835323199101020875e-02 2.061854196890316737e-01
-4.781171880904406812e-01 -4.284984097719647944e-01 -2.108970797274045683e-01
-4.994559195343134528e-01 -1.024218915293867438e-01 1.638601487359141184e-01
-4.910368735475061919e-01 -7.013383951191380916e-01 4.802910016712850783e-01
-5.101027065645679093e-01 -1.476902020807744909e-01 5.561607748643723204e-01
-4.655650613327431131e-01 -3.223475508114188592e-01 -7.255140523892462667e-01
-4.987999921462260566e-01 -3.893432331333185337e-01 4.257195689290217411e-01
-5.318194807091679577e-01 3.662558649355021623e-01 7.577788438995751719e-01
-4.620782236342790283e-01 -6.421525590722821919e-01 -5.236154593406476820e-01
-4.849032917987189384e-01 -5.581324801172325989e-01 1.386493971647204115e-01
-5.053177791165188726e-01 -3.988493521173999135e-01 6.479045196410512242e-01
-5.068925286986432077e-01 -2.851625314203203310e-01 5.870766540415141010e-01
-4.771261546523375974e-01 -2.237335053894184411e-01 -4.454159252158789162e-01
-4.755114871772097573e-01 -7.871705745317135738e-01 5.814299560212569939e-02
-5.281986080213615375e-01 3.243077826224664006e-01 6.809756995998823559e-01
-5.133696600253255804e-01 -2.002375477070475127e-02 5.367798240338852445e-01
-5.073223910857679320e-01 5.429675399546892572e-02 2.659661881598509581e-01
-4.761013953205939231e-01 -6.139868067730273049e-01 -9.357981710433867228e-02
-5.022093701304224389e-01 -5.482376155361943226e-01 6.939075510506228506e-01
-4.690915842588606055e-01 -4.803509065400437539e-01 -4.543811000750013207e-01
-5.284407729775424389e-01 7.926502381555137200e-01 2.264919044852623520e-01
-4.803836272281408193e-01 -8.416949140311129618e-01 2.710451946658491984e-01
-5.119200347301693377e-01 -2.701674679230698373e-01 7.364155315702465288e-01
-4.792881020912395651e-01 -1.195183903519290575e-01 -4.777210012400750494e-01
-4.865091182919430990e-01 -3.998475548405549529e-01 3.480485988150148341e-02
-5.347326030697281407e-01 4.405747758489105270e-01 7.795151770850783368e-01
-4.981347106362020716e-01 -3.663457422562551441e-02 5.577269339621236666e-02
-5.131463348375642219e-01 -1.572740096954222122e-01 6.649943962358629834e-01
-4.957267111985724228e-01 -6.823831289225036345e-01 6.146954503707195983e-01
-5.220541101306490628e-01 -3.476837638910601491e-02 8.348762248016697862e-01
-4.583841334938610901e-01 -9.259187764360142792e-01 -3.640642356529889545e-01
-4.848598917984636714e-01 -9.024557505963554105e-02 -3.247080657196060316e-01
-5.280539948190680066e-01 5.500352835973880694e-01 4.533955014972976261e-01
-5.319426598862074806e-01 3.126136122751247970e-01 8.147610378098458783e-01
-5.329058001525013299e-01 3.043112962235116625e-01 8.544034675350911101e-01
-4.859382701057801124e-01 2.551976787579168238e-01 -6.305530113130742853e-01
-5.024619129672143192e-01 4.622339256962029741e-01 -2.954765403728428774e-01
-4.881385237852028935e-01 -5.583910492633697986e-01 2.445319772163034588e-01
-5.211483340280842480e-01 8.958279274134727244e-01 -1.134657993885145599e-01
-5.095911789557164839e-01 -1.581424919033073972e-02 4.092599460768140407e-01
-5.060086925814492043e-01 2.393324407943189236e-01 4.039110758590920558e-02
-4.702734613080227777e-01 -8.635777837912562704e-01 -3.743750367901563930e-02
-4.797636083137888363e-01 -6.676646593705477528e-01 7.898366684651550451e-02
-4.768876489806629926e-01 -1.572097546943672930e-01 -5.188812073228478150e-01
-4.989763455753251642e-01 3.330170394883233964e-01 -2.817023955843452332e-01
-5.088605328235208392e-01 1.186626215534497958e-01 2.526372399528319934e-01
-4.829222729674194081e-01 -1.374582544888074478e-02 -4.634970157413438319e-01
-5.042548642704014483e-01 -5.513209239494915037e-01 7.637351431107123334e-01
-4.930167432830221408e-01 -1.332411881241056251e-01 -1.594531886611592897e-02
-4.790931156048676698e-01 -1.497383595930111277e-01 -4.542512262979606086e-01
-5.081803746769737451e-01 -2.699043061599424864e-01 6.140593128958865554e-01
-5.277809400112402072e-01 3.513092632576195196e-01 6.406809132019688491e-01
-4.704058786534003889e-01 -7.433410962297275389e-03 -8.783777677422597296e-01
-5.224348434390025941e-01 -2.303171285487337020e-03 8.152542088069636428e-01
-5.226586154436339005e-01 7.394051377206916076e-01 9.027827574967238478e-02
-5.291421984167136161e-01 2.549130856224451347e-01 7.802957973936581748e-01
-5.117264484371436550e-01 7.262963746144638355e-01 -2.537045847413604838e-01
-4.773640717061067851e-01 -1.295917650213458949e-01 -5.305934416007822563e-01
-4.795956725785605057e-01 -1.661067579306014785e-01 -4.216828402880821725e-01
-4.575436346828136713e-01 -6.801064910494049043e-01 -6.341939730287734500e-01
-5.254595239038196697e-01 3.565580973383681851e-01 5.597067232601755649e-01
-5.017967243777016195e-01 4.667575528576937693e-01 -3.216604614160564202e-01
-4.828540898755052657e-01 -2.769976285582450085e-02 -4.519465341758120980e-01
-5.307554008722352723e-01 6.746470338402055233e-01 4.185658316854590777e-01
-5.353033937973428191e-01 6.096618220646872199e-01 6.312128546281048358e-01
-5.019574721078393642e-01 -4.072338848763061292e-01 5.464716131916157460e-01
-4.785694610564293905e-01 2.213136911814121421e-01 -8.376843783114946707e-01
-4.847102839961692777e-01 -6.489166403375220549e-01 2.219782501824419108e-01
-4.860985242711031717e-01 2.761050058157668574e-01 -6.459624769582567039e-01
-5.125202249817142341e-01 1.033448211595928007e-01 3.872458897243331033e-01
-5.314747087006895798e-01 6.159814682877301495e-01 4.999705394662057323e-01
-4.961172139333168696e-01 5.310596950742128008e-01 -5.705760842032068236e-01
-4.725071396839863880e-01 -7.453830212093451868e-01 -8.120261082978708078e-02
-4.619247446929289347e-01 -4.943766181436968776e-01 -6.745242480046693689e-01
-4.722411077848993055e-01 -3.257523108600321460e-01 -5.041858939648872218e-01
-4.761115323186708714e-01 -4.666276492974624768e-01 -2.387352119258412120e-01
-5.048416632493717415e-01 -4.736361566371818377e-01 7.061961152146466469e-01
-4.985914993919834948e-01 -4.690278133974869479e-01 4.975843382443666529e-01
-4.654292770254969680e-01 -6.825132178938914107e-01 -3.743589897455681381e-01
-5.259996211272351951e-01 8.315750749156295418e-01 1.083604428717622886e-01
-4.780200219670283635e-01 -2.952345878070407048e-01 -3.456396242794878559e-01
-5.226042071820737878e-01 3.065483557353291255e-01 5.158574679312268874e-01
-5.178889682589582488e-01 4.813773819983452329e-01 1.893022188618565527e-01
-4.566395871217366342e-01 -7.322627981280266374e-01 -6.122168315015804607e-01
-5.226016532567168138e-01 7.349756283879282925e-01 9.279172799696233653e-02
-4.737824622522181506e-01 -3.409338772882473112e-01 -4.388734901827895385e-01
-4.710957467993009962e-01 -5.021022544838394941e-01 -3.674721601209143818e-01
-4.973492728967977561e-01 -1.567919624773566056e-01 1.487591846855070565e-01
-4.831497110650505578e-01 2.991815501869632965e-01 -7.650217316157226222e-01
-4.916484139826543531e-01 5.517532394793780437e-01 -7.369087695556746365e-01
-4.609737950853357025e-01 -4.806014640022177598e-01 -7.191719474894308073e-01
-4.749612309362571394e-01 -5.533473709967646759e-01 -1.906738817813941334e-01
-4.630467804758168215e-01 -5.041513432787270155e-01 -6.282403322243818033e-01
-4.732205123068830566e-01 -7.160371687351274606e-01 -8.688455593170900382e-02
-4.668454264776154550e-01 -3.193170906464010139e-01 -6.867032742827527958e-01
-5.044798052085800455e-01 4.623440108104264756e-01 -2.297029329121460239e-01
-4.958383991512951283e-01 -3.718462318727456251e-01 3.117516983802641195e-01
-4.951268062941996395e-01 1.532765321526087174e-02 -9.373440420294304465e-02
-4.888420391832682954e-01 -4.911132762615903480e-01 2.010783621887796413e-01
-5.095210487335917193e-01 3.742758218358480660e-01 2.183787439359937549e-02
-5.223446215505254120e-01 1.633893708023052838e-01 6.487218060659583063e-01
-5.047971957806979271e-01 3.781385091045567637e-01 -1.362051003770968216e-01
-5.168992971188823837e-01 2.379569741852603226e-01 3.973171408508300861e-01
-4.842688422246131941e-01 -7.056788108645550839e-01 2.636063650337533981e-01
-4.784317760676821130e-01 -6.264941249501967402e-01 -5.146704616128836528e-03
-4.553108576321538425e-01 -6.178454030706207467e-01 -7.685618613764252371e-01
-4.945699048284882826e-01 -2.211918845748297169e-01 1.215968763802414698e-01
-4.986674539141484619e-01 -2.414625596601293889e-01 2.753910733376281339e-01
-5.317069254893085350e-01 6.774199415223232101e-01 4.468945534907015626e-01
-5.183938075427722003e-01 7.156145225141782862e-02 6.103922958692059586e-01
-4.768879953134672056e-01 1.039631624350990519e-01 -7.767235498119205994e-01
-4.896186908243566616e-01 -7.161731486280015213e-01 4.486348802418925197e-01
-4.736442076698785808e-01 -4.924782834008061827e-01 -2.937689566229844118e-01
-5.360658086162842784e-01 8.109812734956213243e-01 4.573441184104686807e-01
-4.788715850395836027e-01 1.367571060303441888e-01 -7.443383641228203951e-01
-4.845994022489790720e-01 -6.537769187799262749e-01 2.231565736715902248e-01
-4.665317409019850703e-01 -8.775026769378759806e-01 -1.458532531446443126e-01
-4.760328975344788605e-01 -6.194904181731514248e-01 -9.038254015725560864e-02
-5.230987864441162261e-01 1.838378503705404843e-01 6.531559859240970711e-01
-5.229844297602869174e-01 5.555773410559423642e-01 2.824073230181076699e-01
-4.966070783915719766e-01 2.695362498023790576e-01 -2.963827448344812376e-01
-5.191355739601923869e-01 1.235832241025525413e-01 5.832496522603166644e-01
-4.827387434659201615e-01 -6.037041109532934602e-01 1.129713769004775797e-01
-5.135559132464797560e-01 6.414954071111398370e-01 -1.102510452665149410e-01
-4.698367898481751181e-01 -7.005933342429092603e-01 -2.126074855669833619e-01
-4.876436870753768638e-01 4.130735144869874392e-02 -3.637007647785628905e-01
-4.901255852327601747e-01 3.228741104990059951e-01 -5.606574172133730327e-01
-4.927856283884242128e-01 -5.893990520655740806e-01 4.268695137631665637e-01
-5.084029393424570609e-01 5.919697880437276849e-01 -2.295946274126821063e-01
-5.203205504041900076e-01 -2.768417736375693942e-03 7.466838532077966217e-01
-4.756540710751936962e-01 -9.968499643898644236e-02 -6.159500432171343132e-01
-5.261469331091438439e-01 8.160337280988201325e-01 1.285138718526385726e-01
-4.929832112551656986e-01 -5.545444857361977453e-01 3.989088125821877440e-01
4.858853336921210575e-01 4.426822291860587309e-03 -9.728696465039139429e-01
-1.788531826861902430e-01 5.420111185229052886e-01 -8.190118800000486532e-01
-3.527725929438628727e-01 8.218743871301621429e-01 -5.149157047497980866e-01
-3.987629418462733666e-01 8.860090097361563721e-01 -3.801985540288022047e-01
2.946144165494659628e-01 -2.341397895401492457e-01 -9.497566373925909744e-01
-7.209698928804408880e-02 -3.781776434964494449e-01 -9.173489370388281383e-01
-5.175465636314609957e-02 -9.537774955144417977e-01 2.013265729110627345e-01
-4.918021291597305389e-01 9.042670758157986821e-01 -3.231242005707799514e-01
-3.668065090331327216e-01 6.501339432903932014e-01 -7.320396157478653576e-01
-4.200460644884925765e-01 3.343301857441263181e-01 -9.335339627353769210e-01
4.132328142945459470e-01 6.281013631393492780e-01 -7.487974892456618070e-01
3.312557885449307071e-01 1.230835003626543217e-01 -9.700747692286647572e-01
-4.355239509237180534e-02 -9.776634106638837363e-01 -6.887334480722903662e-02
3.865904893573987589e-01 -9.651554614839632507e-01 3.288775305076001992e-02
-4.518704916107563752e-01 9.213029407844450791e-01 -2.659074252145894324e-01
-6.810495922895649923e-02 -9.478610545129281251e-01 2.266912999876821155e-01
-5.916062930329904490e-02 7.808731304112722649e-01 -5.831110902274113661e-01
-6.298464650085035255e-02 -9.091478106807772130e-01 -3.825585488546831003e-01
4.489382544249901907e-01 -3.616523029693446412e-01 -9.017056199914856851e-01
3.914064265356498873e-01 9.757828127243453054e-01 -2.131341096145947592e-02
4.181954617436259292e-01 -5.593098565506360309e-01 7.847969330689683609e-01
3.698410175089014706e-01 9.746126749977067627e-01 3.147327225335860151e-02
-5.098911760257587300e-01 9.479071900644188142e-01 7.191291387540594063e-03
-4.312470578553908029e-01 4.388303288479732944e-01 8.260480999067362218e-01
4.488921932039341978e-01 -3.490874875043336600e-01 -9.067482349545603615e-01
