-4.869011800598633255e-01 8.086311096424634304e-01 -3.339426959498971725e-01
5.963961467197342881e-01 -8.219739893729965940e-01 -8.892513959763564957e-03
1.987233085696724910e-01 5.678590826510785394e-01 7.395970856385981618e-01
-2.068694839325485244e-02 9.317391751566154179e-01 -1.632093724497968301e-01
5.697176044187851618e-02 -6.202035656680210396e-01 6.523165365657854764e-01
1.523214313935779829e-01 5.467716473491418538e-01 -7.910012310768849142e-01
-3.218495287075855971e-01 8.832662507163389076e-01 -1.723966398577015668e-01
1.348741273731386414e-01 8.089155906637289783e-01 -5.338836428965632042e-01
3.327830620054348376e-01 9.690763119295406902e-01 -2.506921390873800837e-01
4.080043922953937030e-01 2.315395517600596642e-01 8.771412337885099442e-01
-1.062195378122167827e-01 -8.693026790851904329e-01 3.171296589363174490e-01
-2.804459788224139549e-01 -8.474310409423980728e-01 4.326406682590598352e-01
2.845741009340125860e-01 -6.826231183973697769e-01 -5.688636725539598649e-01
-3.297576978010401949e-01 7.796247745589734990e-01 4.523458441887449055e-01
1.503910254900382437e-01 -7.846573822272258081e-01 -4.313180340452133499e-01
-1.491980623967702202e-01 -5.995751050111156610e-01 -7.019859468067204400e-01
-1.950106374425367162e-01 1.762977649363785815e-01 -9.014123122911990027e-01
9.279656403156924527e-02 -3.337023173280832533e-01 8.344316960312643250e-01
9.647546001316573269e-04 6.024705202333339310e-02 -9.278102106297192453e-01
-3.894315922465569346e-01 7.779004378782858886e-01 4.426216195461903369e-01
-1.867847065040020293e-01 5.561336185648155794e-01 -7.333755741931510252e-01
-7.592335381933275340e-02 -8.944232079394529578e-01 -2.164232553510430646e-01
-6.246867032453083668e-02 -3.927424333715257565e-01 -8.316594960812417892e-01
2.353036333067938801e-01 8.152071290533551284e-01 4.995516248571829077e-01
4.612807980185066881e-01 -8.416693985383104648e-01 1.989164314201030508e-03
4.745521977303864825e-01 -6.215174737780296832e-01 -6.198800058336946250e-01
6.483521236531006315e-02 1.489815980830894726e-01 8.990239923902052510e-01
-7.804053137685454389e-02 7.182162655921554562e-01 5.814173515748934928e-01
2.011650053113642755e-01 9.406433578675627016e-01 -2.781914287011598708e-01
-5.894750228995176977e-02 8.553424034163815692e-01 3.683825732805253161e-01
-1.223345950992529713e-01 6.526917537558249993e-01 -6.620408933134023233e-01
2.706780055594794343e-02 -7.370246130324485945e-01 5.239146225419200054e-01
3.959039929750384768e-01 -7.543384358910375509e-01 -4.322548828758251416e-01
2.462878616827372802e-01 8.894729509429779579e-01 -4.293433893698312409e-01
-9.016890312120558193e-02 9.207060163495751626e-01 -1.647990602373163582e-01
-4.300558553279695134e-02 -9.117856322244485279e-01 8.746968299053294038e-02
2.117473468946368398e-01 2.366342884338978325e-01 8.803120956573520228e-01
1.349030736993505342e-01 -8.158063554045296151e-01 3.507049058462657354e-01
-8.232179580609590153e-02 9.325675713538482681e-01 5.487145734378831574e-02
4.477666126342800812e-01 -3.971007226746902652e-01 -8.137112402206125861e-01
2.516029965599974605e-01 -2.067421454731391273e-01 8.628865219868501191e-01
5.049053238407619215e-01 -8.343218505978580168e-01 2.249213866207310647e-02
-1.866542967933033093e-01 1.032480129030524246e-01 9.125742970905569296e-01
-6.158718824402000802e-01 7.596103187742611063e-01 -3.938336217638133130e-01
1.370293671466538410e-01 6.008590634074174597e-01 -7.513767045586112747e-01
-3.759023551389795159e-01 6.087779758344132874e-01 6.664175492849006011e-01
-4.071470579944237445e-01 8.553486843931649153e-01 2.443113561355262919e-01
2.040857677454869512e-01 9.511304112096279351e-01 1.902597994442448703e-01
-3.019311235386026859e-01 -9.098962535956108821e-01 2.923446378855689143e-01
-3.171956027936183031e-01 4.665374747972703129e-01 -7.750266228967971349e-01
4.800384114267368663e-01 -3.729205567340528049e-02 8.795960911180904507e-01
3.411161509723704133e-01 -7.957947632984810893e-01 3.158297345425118974e-01
-9.042017979742857092e-02 8.078083591913427508e-01 4.525785019136153720e-01
3.640178773939404255e-01 1.000000000000000000e+00 -6.060233832026866441e-02
3.089819327355798895e-01 9.577188622221407543e-01 2.185381752084244456e-01
4.735904123610717442e-01 -8.340717180323141688e-01 8.047357036031048405e-02
4.260500911861374307e-02 -7.633642422160669128e-01 -4.910543860310912501e-01
3.227081511444588324e-01 7.935366954278442186e-01 5.414642472132348283e-01
-1.807804538576742170e-01 -2.910374494233702314e-01 -8.736531574908764641e-01
-5.422046131388370549e-01 6.090678942030188781e-01 6.498968751131051214e-01
1.055108121884935080e-01 -8.385468757142123808e-01 -3.214792195552824139e-01
2.396207964621649145e-01 9.819158317406724290e-01 -5.476411637152532597e-03
8.493566886574320518e-02 8.183204923516660401e-01 -5.059908351901851731e-01
-3.747918687306358576e-01 -3.498891761686793167e-01 -8.536631294469275710e-01
-2.675791720052706490e-01 -6.745757360890619614e-01 6.617342946025748240e-01
-3.422777591399573383e-01 -7.656857359798303897e-02 9.269701942505585990e-01
-2.014340964699247449e-01 -6.105303667013533241e-03 9.207572521856944858e-01
-1.967543281865256066e-01 -8.889417200616156478e-01 3.037324992353796493e-01
3.044754296336818489e-01 3.626256811900209209e-01 8.446788417925797932e-01
-4.161125393374406345e-01 -4.909232088857699017e-01 -7.902524075652417324e-01
-3.003473028468006678e-01 -9.133857717070598126e-01 2.804851470805004299e-01
5.694615970758851731e-01 -7.672517781804091275e-01 -3.531279007633114642e-01
-1.623458685396674539e-01 -4.613370464618649636e-01 -7.984765153333692744e-01
-3.429809409174098822e-01 1.141913120565696965e-01 -9.011210885737725995e-01
1.523597897743156904e-01 -7.867890000164216024e-01 -4.267087190230263172e-01
-4.183012013140685048e-01 -5.453224889472642334e-02 -9.076379176524737025e-01
5.423546820905162935e-01 -5.307620576634389797e-01 6.454294596234422254e-01
2.813104304022088220e-01 -8.521445651634513840e-01 -1.877716653367479949e-01
2.376070822636973390e-01 -5.129569206834825312e-01 7.121574625327298236e-01
1.526943161275524929e-01 2.405560963851337275e-01 8.804782855133500563e-01
-4.110408627302017948e-01 8.485090772525982761e-01 2.664969763074805376e-01
-5.271355706690497023e-01 7.779207407256784057e-01 4.100826312587886324e-01
4.273001056643805362e-01 1.924393602176961426e-01 8.824593804401885677e-01
-4.547498999716547141e-01 8.742320413414557123e-01 1.126459918211391575e-01
-1.861984533677133180e-01 2.140163828999441520e-01 8.916414081997311447e-01
3.824382954568547599e-01 -6.614679545063234176e-03 8.891004470026553363e-01
-4.350784522325535364e-01 5.759199641143161567e-03 -9.059484664662005304e-01
-5.155452623922639477e-01 8.681236503848700492e-01 8.787760239662124884e-02
1.759569095593288557e-01 -8.633148297053319098e-01 1.815918575110286592e-01
-1.318015340123316337e-01 9.008848911203071186e-01 2.108617507381401468e-01
-2.593721387767976005e-01 -5.707633661049903440e-01 -7.319369628161609409e-01
-5.368474357374357631e-01 5.701772614879706547e-01 -6.620495001033661620e-01
2.794197831080419969e-01 8.423770954255459242e-02 -9.419908020062079945e-01
-4.220241416520746913e-01 7.277321549099283748e-01 5.189380066279757342e-01
-3.557903471210021595e-01 -8.984071034969813851e-01 3.490395640119721143e-01
2.464755087208155837e-01 -5.208417898592846429e-01 -7.383152719954888532e-01
-8.455844768155752755e-02 7.386947351560665398e-01 -5.748579854208780704e-01
6.512903792049155871e-02 3.750789296460235178e-01 8.386324524497789090e-01
-1.621860547321137269e-01 -9.295774781732941694e-01 8.998364143202755572e-02
4.631202507374393429e-01 -6.851988491225465827e-01 -5.372216778657781244e-01
4.819309044980704115e-01 -8.263914116819001121e-01 -1.772816683788887293e-01
-3.547293001562536463e-01 -6.899665941017805171e-01 -6.367625872624620431e-01
-2.878972616360971903e-01 5.124083164739020452e-02 9.215420378035320548e-01
4.407525437690582026e-01 5.695948536726167521e-01 7.494921661317395234e-01
2.586367268657949192e-01 -1.553568999261173422e-01 8.753677199289460198e-01
-2.818660126278327294e-01 9.015815483547886533e-01 8.525341466914708455e-02
2.784729047738425667e-01 -2.643152752161413988e-01 8.417131539302628029e-01
3.997243083005328490e-01 -7.392628215733879626e-01 -4.602371160715955090e-01
3.485491919102704506e-01 1.164752328983720969e-01 8.922376543164077800e-01
1.109363259188821949e-01 -2.230970879042911692e-01 8.710149125389169411e-01
4.532244304049731221e-01 -7.950226498151441445e-01 -3.173840139728419385e-01
-8.868346051662479024e-02 -9.045100509321909454e-01 -1.791163660412758984e-01
-3.671509014036350438e-01 -9.630546013005408801e-01 -1.356043883913021601e-02
-8.393536006922737436e-02 -6.152000157495405436e-02 9.130372457179506407e-01
-2.859242003749994931e-01 7.484718680472580710e-01 -5.113281854255048442e-01
3.505751862611375946e-01 -8.436190165449924949e-01 -1.824394780135090988e-01
-3.643480508941253637e-01 -9.302168782215309850e-01 -2.271519029708625181e-01
-3.738652753438634901e-01 -7.858665341656947412e-01 5.573288397378992620e-01
-3.685755729601439268e-01 8.662791842364596651e-01 -2.160266122774876785e-01
2.118686343838314945e-01 -3.528694273224898259e-01 8.123268584151986937e-01
-4.493808791913500578e-02 2.111601006877315279e-01 8.903003074551621987e-01
-5.556580936519676106e-01 7.704814333594200981e-02 -8.915300267924662903e-01
-5.621973936706435859e-01 5.783614898636830759e-01 -6.497927418265890820e-01
-3.461551360095018182e-01 1.634611498634772342e-01 -8.920980348386406966e-01
1.017857484912687155e-01 9.583894771050492922e-01 6.032202732081712315e-02
2.319813432592262303e-01 7.305696931845423459e-01 6.033792501347317039e-01
1.654115289319603999e-01 -5.870973336602325343e-01 6.630146561098057001e-01
-2.864204222446951609e-01 7.607876944595958202e-01 4.921628608484870937e-01
-1.311470546890008138e-01 -5.407101893088198663e-01 7.494737035835826733e-01
2.548368736273436963e-01 9.013845936998094999e-01 -4.073903174414085226e-01
-1.520688361553800549e-01 9.127852535600559092e-01 1.393901156614726633e-01
1.775793521123885110e-01 -8.323248274157107884e-01 -3.128721325197064140e-01
5.483415012798410759e-02 -8.948158581127422240e-01 1.065183739150291908e-01
3.826512210343193665e-01 1.118202093356852021e-02 -9.446117866887310255e-01
2.562732900969124095e-01 -5.042122490434001181e-01 -7.505487344676271544e-01
-1.462236087175790289e-01 -4.038917588973658934e-01 8.306466922144133402e-01
-1.551831792495352025e-01 -9.189080069865581679e-01 1.618658333812213468e-01
2.074446983097547603e-01 4.033743898633554981e-01 8.285736489934031335e-01
-3.934145051854946035e-02 -9.846242324538612839e-03 -9.260131335402029817e-01
-6.151878204199177080e-01 4.873486131228838003e-01 -7.167449563489936004e-01
-3.418073535882208969e-01 -6.153303533877285680e-01 7.271785286533469783e-01
-5.195742544453930967e-02 -2.150900932739511218e-01 -8.965300391024655369e-01
-1.591895784475672593e-01 -1.886624092969247934e-01 9.017814556345151722e-01
-2.991099248304444069e-01 -7.403571413221603503e-01 5.974029465959375118e-01
-2.540132027739003262e-01 7.689059841632227554e-01 -4.888621826413067639e-01
-4.951464696621489248e-01 5.989650823537423507e-01 -6.427824091685745422e-01
-1.628050375500477744e-03 8.568078540982693170e-01 3.803986560370130054e-01
-1.076700327956679470e-01 1.689684302838005969e-01 9.001781936659074557e-01
2.913826269029134997e-01 8.096880624252384973e-01 5.159290792704038786e-01
8.847117346177366115e-03 -3.265031607701104344e-01 8.464561598644058105e-01
-5.021674341773124661e-02 -8.338963045697201926e-01 3.801387112217376463e-01
-5.165156539889812631e-02 -8.741949819771768770e-02 -9.199553495193619757e-01
-1.248308760600457812e-01 -5.926462676005302965e-01 7.091520234118592336e-01
5.624394032784733703e-03 -8.954164055477618067e-01 -1.585821916189928960e-01
5.582747857965486560e-01 -7.673155950227191768e-01 -3.567283195697860121e-01
-1.045281217861524781e-01 -6.407078617987129743e-01 -6.613949889765015078e-01
1.305057190699717984e-01 -8.494572744423206645e-01 2.617204076692372650e-01
7.098466804473201053e-02 7.373225262853899675e-01 5.773235109638054086e-01
-2.945765172147630229e-01 8.999772206739140579e-01 8.311944652773116393e-02
1.397531535985780671e-01 4.643875826031366727e-01 7.988640681937569932e-01
9.285027683978110125e-02 5.585652522844780643e-01 -7.746300363084989149e-01
-5.782285867984131578e-01 6.180085352332448378e-01 -6.067948323184821913e-01
-3.951235373344529067e-02 8.611730536677523196e-01 -3.864277878300357849e-01
5.421794749487693910e-01 -2.012377516882034034e-01 8.371786829298726307e-01
1.949487044543925796e-01 -7.503132158231089477e-01 -4.833796958254825693e-01
-2.813702171896517723e-01 8.585756102638444354e-01 2.884048941108993125e-01
-4.177524492142944967e-02 7.454066239367382884e-01 -5.764081089983088546e-01
-1.934927306526663671e-01 2.845343168815114843e-01 -8.735309618194954107e-01
1.724667675799383681e-02 -8.792121935495874618e-01 -2.272274976149407377e-01
-3.268604392846543583e-01 1.285348659094283641e-01 9.124815078956141079e-01
-4.665857547485480761e-01 6.399424494777360417e-01 -6.062661487760188095e-01
-1.549465359932406250e-01 8.458398526534633977e-01 3.629369193508948932e-01
-4.330896488497849861e-02 9.056505897505854330e-01 2.373417569754816825e-01
7.126768651534970411e-03 -3.201376795633507129e-03 9.104189361001674419e-01
-2.808484157294684480e-01 4.318471449375729798e-01 8.038369316360728378e-01
4.608418624409081898e-01 -4.790634972379080314e-01 7.020470133303409188e-01
6.782710732043502333e-02 -8.305118855280697598e-01 -3.545191178095992712e-01
4.163010578653112970e-01 -2.949115072650527192e-01 -8.680329956926993162e-01
2.804644185570019932e-01 7.217712308186803316e-01 -6.719948989191675270e-01
3.433124876913098422e-01 -4.894167920636698782e-02 -9.369991947419051836e-01
2.217477350255379065e-01 4.684574340798823844e-01 7.988954742230232053e-01
2.362864495050727154e-01 2.707794357321208767e-01 -9.159668767198541062e-01
-1.720786864789812798e-01 -2.192834134154927617e-01 -8.939458858937222585e-01
-2.718791064110328004e-01 2.263063342338849371e-01 8.892388211316920588e-01
-6.031273055415602435e-01 8.416033527855613094e-01 -1.607172088885371608e-01
-1.517127645316731967e-03 -3.561729589640598159e-01 8.354111213915288436e-01
4.273475740248878219e-01 -6.656086860144908579e-01 -5.706428138018870833e-01
-8.029991436000355476e-02 3.448588166022202861e-01 -8.637197266278324737e-01
-2.616753951655770294e-01 8.922303535032869437e-01 1.700030819616650535e-01
3.502132018586604500e-01 4.487561682748749670e-01 -8.682914481373227300e-01
2.232335579043477902e-01 -4.926267453716766664e-01 7.292964991298316324e-01
4.274878107144279848e-01 7.181484331929069986e-01 6.348967450644225075e-01
5.472222813895881721e-01 -7.637893044394864495e-01 3.101573829809851635e-01
3.583850249082188855e-01 9.974451885173570842e-01 2.947971271319393613e-02
-4.783641773234272032e-02 -9.159293509051725790e-01 3.792953403967310594e-02
2.318532238018164160e-01 3.143672204842858364e-01 8.603312581046214103e-01
-1.627241295364454943e-01 8.099334377392933826e-01 -4.466680376189800517e-01
1.401525681294259890e-02 4.958540089954708296e-01 7.772750103206841343e-01
-1.449130629972650020e-01 8.012557003150277968e-01 -4.673863986946565352e-01
-1.931367045056784915e-01 8.138776159623858364e-01 -4.296042928892623847e-01
-6.026559997390342760e-01 7.642739681378215577e-01 4.190735971590978104e-01
1.726226065274302779e-01 -2.412432788727102706e-01 -8.903899475426597654e-01
4.240904842474767511e-01 -8.457441875079941829e-01 -7.991668890523907776e-02
-3.698562773206008347e-01 3.622488416879199313e-01 -8.242852189433431676e-01
-2.617422844255168357e-01 -4.744457639087430456e-01 -7.944113472762135419e-01
8.927100207400423537e-02 6.839873223963721660e-01 6.366919075158118391e-01
3.320695216484893519e-01 -1.322215516251377433e-02 -9.406913685646304257e-01
4.483846809822746304e-01 -2.512232107700058115e-01 8.289845008106558888e-01
-3.616071962076982671e-01 7.246702501366297788e-01 -5.258501736603007348e-01
1.164492671693550530e-01 7.689204635294335510e-01 -5.837968166338546316e-01
5.146935514222574296e-03 -5.754307506658706828e-01 -7.108484654391512558e-01
3.344031241310764790e-01 9.773493902583154647e-01 -2.153843610476123827e-01
9.656910823345324357e-02 4.192888989810542727e-02 -9.331598172907190625e-01
2.456666054794497678e-01 -8.182491810206198313e-01 -3.276877552943979199e-01
1.347902476901120250e-01 6.991868801866976124e-01 -6.660484710638148176e-01
3.107581425631742444e-01 -3.537197997272076844e-01 -8.422612767529051858e-01
-1.446225476649084796e-01 1.601883978415811760e-01 9.026200657764963386e-01
-6.067153285030160020e-02 9.280870832008203397e-01 1.227453932796724323e-01
-4.332471366221777795e-03 -8.476977328732600014e-01 -3.344920794689847932e-01
4.047206035900171028e-01 -6.330584330316926245e-01 -6.149001027929102969e-01
3.536135800089312275e-01 6.707631118740930987e-01 6.711621471958840734e-01
1.165640955501962839e-01 -1.154931559916421852e-01 -9.207676115813658857e-01
8.164173875435595806e-02 9.261332353465341338e-01 2.234742544879385895e-01
1.881894354868830777e-01 -4.469938458155477828e-02 8.978427464274282288e-01
-9.751923315239753587e-02 -8.887383340701967560e-01 2.534000456531756984e-01
3.649765906647010061e-01 7.363050433081111956e-01 -6.740040120653789657e-01
3.336223767110439997e-01 2.971758905115390870e-01 8.642785794903111718e-01
2.858579541457360595e-01 8.079148086241255688e-01 5.175048589392259313e-01
4.210497122096863998e-01 6.837206490412952586e-01 6.652322101825144385e-01
2.226867015965474372e-01 1.893716124460642913e-01 8.887271352987584638e-01
-2.335640297279048261e-01 8.543278770886032492e-01 3.178027421263743268e-01
-6.505629243231696168e-02 -1.161614879305585338e-02 -9.248079745736940138e-01
6.690742292751263032e-02 -4.502638576916032642e-01 7.792662325746242402e-01
7.451987199219842206e-02 7.882624263532190811e-01 -5.478099797565233464e-01
-3.648129186057766371e-01 4.888002998205291383e-01 7.649089069983462386e-01
3.614123741470141593e-01 9.999229989685100017e-01 -4.702743400002201007e-02
4.867115798599983001e-01 -8.008175346271675377e-01 2.323914081957529909e-01
4.731380030155320493e-01 7.246414302518770778e-02 8.875800390438578491e-01
1.449140086214149303e-01 -5.692087622108028544e-01 -7.055849453833616947e-01
2.829275319039757375e-01 9.310856946802275047e-01 -3.472786571404753997e-01
-4.884503681640275374e-01 -2.088123080479543092e-01 -8.901889624494917497e-01
-6.119428958296416754e-01 8.225764138422924088e-01 -2.341642879605863869e-01
-6.244135942361499492e-01 6.612398525332379151e-01 -5.461308188288158671e-01
-2.054447765613218735e-01 -6.340881841457420842e-01 6.879021639064085702e-01
3.945045689233696584e-01 -8.271027524860009583e-01 -2.327340886477176629e-01
-1.062051363006705079e-01 9.200350609427968562e-01 -1.538809488225839073e-01
4.039085164746916146e-01 7.794272723895607768e-01 5.687374418998908387e-01
-3.317367182850195495e-01 -4.156957403236856141e-01 -8.261959141201219436e-01
-1.915834175859888050e-02 -7.815267424074966163e-02 9.077675843271473255e-01
2.521225601741821504e-02 -8.784477912253516596e-01 -2.260190039513430560e-01
4.119332803381847152e-01 1.972168402184162617e-01 8.822994919193926089e-01
8.455643423820960458e-02 7.767713868565073732e-01 -5.659662442542647831e-01
1.224570134383281966e-01 -2.462121282016035695e-01 8.631402799455415442e-01
1.139885868071315901e-02 9.443354615431625021e-01 7.334087504338338004e-02
-1.720813576728433825e-01 8.869976978814463342e-01 -2.560638840677887940e-01
-3.633134382812279739e-01 -9.336217988973473103e-01 2.448811466571602646e-01
5.576121777715263850e-01 -7.678132199881227971e-01 -3.556468465578572213e-01
3.353579509896729705e-01 1.663934907022938114e-01 -9.403929840511888738e-01
2.954993453329026187e-01 -2.272268719063584574e-01 -8.951208208289057611e-01
-3.042356582187240033e-01 -6.410985305931377054e-01 -6.781905290176141188e-01
-1.854592289252065818e-01 -6.638300031556111369e-01 -6.464076237499541966e-01
-5.638178812373694226e-01 2.268636282486194977e-01 -8.563888464978238746e-01
-3.687515925563165098e-01 -9.157649911394707409e-01 -2.762590984329819088e-01
-2.460949262658850348e-02 -6.820041293904638424e-01 6.047820674879149649e-01
-1.273110121412012463e-01 -4.862242232400376118e-01 7.843688075405813587e-01
-7.883785246474382669e-02 9.125079604941872535e-01 1.920502948929722342e-01
3.147266574181341037e-01 3.554324957837395882e-01 8.471223205030850023e-01
-7.743509511564045100e-02 -6.441140126221859274e-01 6.548866337372809543e-01
-4.885337398105853990e-01 -3.067292322082067896e-02 -9.042324703285927745e-01
-5.556381096785035778e-01 8.637908152819361307e-01 -4.488895596580950303e-02
3.925493361853646390e-01 2.831700486923422466e-01 -9.260310260009957384e-01
4.436808058473062366e-01 -7.867419111108074903e-01 -3.441425875028290560e-01
2.852788353923692566e-01 2.550608675005183734e-01 8.750487716262446147e-01
-5.434272462760889599e-01 7.345008286154381949e-01 -4.616980029565281307e-01
-6.032620014722649415e-01 8.443460541295938482e-01 1.749612722317974711e-01
5.408782905153242115e-01 -4.975646375768450480e-01 -7.366484113916232923e-01
-3.001903345249888888e-01 -9.413533671227117816e-01 1.620590144677153399e-01
3.704710997257246730e-01 5.096911697518662354e-01 -8.416077251183705643e-01
5.935206960268252230e-01 -8.015634091412034978e-01 -2.265703891752665344e-01
-1.356795798136940512e-01 1.857303052282112052e-02 9.172174553737822977e-01
7.289733202263616596e-02 8.130881029895432599e-01 -5.108253160288550587e-01
6.135957078032910905e-01 -8.081886716601330845e-01 -1.770575859765833315e-01
-2.092295026394326574e-01 -8.032473874968083516e-01 -4.738935111127628996e-01
1.745354503749987907e-02 1.258272416580978603e-01 -9.241288281651784953e-01
3.613862462712829626e-01 -1.745585403776325484e-01 -9.115027300334905824e-01
-2.756377615620442811e-01 -7.101612587629116957e-01 6.266800714689930718e-01
2.719789371641242459e-01 5.338888513988065965e-01 7.644507673258339464e-01
2.455382967028510721e-01 9.483919206701677540e-01 -2.760469551221676476e-01
3.861732255115726820e-01 1.477601987309591358e-01 8.885618040922101946e-01
-4.379453445135205736e-01 5.108996837863171159e-01 7.450169168612790216e-01
4.156981126664268111e-01 9.712893367065565664e-02 -9.488078638203732984e-01
1.458387445466582943e-01 4.033507015294809372e-01 -8.647912814788576430e-01
-1.373882178350970262e-01 -8.141429214705785400e-01 4.483515447228409445e-01
1.016869372167249347e-01 2.578074831349088103e-01 8.770715854413380086e-01
-2.849366678125425101e-01 2.486703870750502920e-01 -8.759921069988475528e-01
6.257689627658201414e-02 6.284911485609878667e-01 6.851488845546458428e-01
-3.686912239195731522e-01 -9.029328914090232194e-01 -3.118687748154191364e-01
4.343202168410636999e-01 -6.459334786714543419e-01 -5.953031419954359915e-01
5.835181677462687455e-01 -5.940404057025950868e-01 5.735040000654491044e-01
-5.162499031496613489e-01 1.091276899331280331e-01 -8.893017640523077638e-01
2.725143303085397206e-01 -8.369725981420071959e-01 -2.580196145571766464e-01
1.973752812658291222e-01 1.417915033116112777e-01 -9.340222838314717890e-01
-5.078440765322509431e-01 3.792124574930125780e-01 -7.992594637159488036e-01
-2.506663353462444399e-01 7.774154874220174927e-01 4.720618386195963301e-01
2.154291430017422210e-02 8.737173646326676923e-01 -3.813498777511009630e-01
4.080832784695648252e-02 -7.205327648171975241e-01 5.429837736757608946e-01
-5.620620656343220389e-01 8.269421124776555887e-01 -2.467468714791978823e-01
-1.097045303459233262e-01 -8.819906862695171545e-01 -2.762198138659475721e-01
-1.631287142342437435e-01 8.125432092819798724e-01 4.287869692192555204e-01
-4.975323279124723164e-01 6.990188398653105484e-01 5.479137725415823557e-01
5.916346978483019714e-02 -8.940582000440658872e-01 1.072970113634987149e-01
4.642340675896278746e-01 -7.119715122907559479e-01 4.428108865895383772e-01
-3.962745877475960521e-01 -1.031801032449129463e-01 -9.062600687142825517e-01
3.547694214027158899e-01 -3.067283165907859210e-01 8.166678544555785457e-01
-2.296843655048854960e-01 1.710894560075807425e-01 9.022129392571540674e-01
3.210678359401312743e-01 8.699340229430532201e-01 -4.897134865392480108e-01
3.078677582956812486e-01 -8.548989684625037944e-01 1.149123739622707058e-01
-4.531968416879221251e-01 2.151094202510462905e-01 -8.702955673102715783e-01
2.355106131165000394e-01 -6.689158715519181175e-01 -5.932046092498087786e-01
1.167569927734885410e-01 -8.353108601054786142e-01 -3.263430952657874196e-01
-2.944770861044856969e-01 8.756363488084054625e-01 2.244352861893035289e-01
-3.531646571304552507e-01 -8.685529647204639492e-01 4.155807664208098773e-01
-3.530700755548196734e-01 -7.538171061207096235e-01 -5.659510506922477147e-01
2.017987994949167474e-01 3.864199738040274140e-02 -9.382020091776748227e-01
-1.791222337494471351e-01 3.158763894784010762e-01 -8.642268133020266641e-01
4.688717166932484387e-02 2.980000317184469116e-01 -8.921239275072045949e-01
3.510446597594995416e-02 4.669255642112703497e-01 -8.217312751382614966e-01
-3.581968731265364747e-01 8.136849953624922804e-01 -3.724309595038789999e-01
2.971780544194233542e-01 -4.139960045612641748e-01 -8.094272128388755316e-01
4.305796153622974409e-01 -8.337559913647067944e-01 1.287799548552972517e-01
6.036798572819025710e-02 -7.971626765140794602e-01 4.164355141350575829e-01
-4.048675941466181594e-01 8.660180234239157615e-01 2.022666047786410570e-01
6.173612824719544312e-01 -7.507031513107199627e-01 3.135865316074163966e-01
1.771361846662487805e-01 -1.428691481147200126e-01 8.845400435915491411e-01
-8.672877934027059532e-03 4.184467963573049731e-01 8.182443569803053984e-01
3.267156376069221824e-01 9.390823426310508371e-01 -3.451819842982721265e-01
-7.751542530445519608e-02 8.277727552245022213e-01 -4.410430011417973417e-01
-4.718405306251026166e-01 8.703837798462493724e-01 -1.084950072386406256e-01
-8.929213318139647693e-02 -7.617498564034268504e-01 5.187195191633093838e-01
-3.196598271640754274e-01 8.994643988236707965e-01 3.630882128516377955e-02
-2.444114881271789996e-01 -4.055734039939086766e-01 8.413073679822360429e-01
2.328601262321482179e-01 -7.773891192735712385e-01 3.972405474134390602e-01
-4.456663126902406513e-01 7.560046645844747948e-01 -4.545488158195117312e-01
2.021232071523016982e-01 -8.740648700325586162e-01 9.219545119616938400e-02
-4.655590630969985155e-01 4.105152001367705639e-01 -7.878331011994504918e-01
-3.429494220169632124e-01 7.802746340674415748e-01 -4.436012196329690571e-01
1.133817806652128585e-01 9.636343170071353104e-01 -2.817263337992530550e-02
2.774506546267121454e-01 9.055400031278637574e-01 -4.066713594864205805e-01
3.846757355035668180e-01 -6.851418881140145523e-01 5.055407372884346273e-01
1.599438478573855793e-01 -4.765914821712677329e-01 7.497403439410309511e-01
-2.533813966710461996e-01 7.364120154299803600e-01 -5.369046464734417157e-01
-1.026799657416146809e-02 -8.520601382002730428e-01 -3.250994438545397047e-01
2.355181824331289142e-01 -2.921728430497724238e-01 -8.715306392306065852e-01
-5.370564562967437006e-01 5.773339408692346186e-01 6.818021298757673820e-01
-3.649560404893464338e-01 -5.603584330194144592e-01 -7.451842228376310828e-01
-4.807128827581533814e-01 7.438905376367415112e-01 4.830470612949064324e-01
8.139415112485261228e-02 3.762538797239872168e-01 -8.687172245850531827e-01
3.688261114396996776e-01 6.637330148463899127e-01 6.781517483120167444e-01
5.014436878785893947e-01 -7.318521652792434606e-01 -4.511635671927385349e-01
3.940966644612833858e-01 1.826533004361880763e-01 8.847025808347015463e-01
1.555197681019694356e-01 -8.899323856026368496e-02 -9.259932447028914604e-01
1.714479298052019596e-01 7.964511985632384272e-01 -5.608981837243512958e-01
-1.890998826470225991e-01 -7.033718702709275128e-01 -6.050139380827026514e-01
1.789933253477934694e-01 -8.832886725863472455e-01 6.409111330305020636e-03
-2.206544013324433229e-01 -3.589847394203717901e-01 -8.491061292100205993e-01
-7.196075066268366183e-02 9.319022157675850293e-01 -1.030337199640785767e-01
4.526908430221367463e-01 -8.363233666094653795e-01 8.821667145938109911e-02
-3.439285934701206138e-01 4.658932316232869963e-01 -7.716831868044518039e-01
5.732734909938635992e-01 -8.050334582405048733e-01 1.621603082067665236e-01
5.752326415142577920e-02 -1.675773790058813217e-01 -9.093944087672408694e-01
6.892814639231509277e-02 4.692282318470766822e-02 9.071913969232442421e-01
-3.397385120946939674e-01 -9.272155694448817043e-01 2.547584131755219472e-01
1.163566843715011789e-01 -8.674309387002380189e-01 -2.209443454088570458e-01
-4.289722806136339259e-03 -8.736566933830355319e-01 -2.581570233187346353e-01
7.872730698665753035e-02 -8.968433907366167857e-01 -5.496084630115495584e-02
3.103645803751319820e-01 2.827607326032008372e-01 8.682127507580353898e-01
-3.936832016138256951e-01 6.193649335677388068e-01 6.543111049695645720e-01
-3.895970813746014727e-01 6.703029288432341692e-01 -5.885529803083537903e-01
-2.377641353824933024e-01 -3.646112726441854135e-01 -8.469978618969105089e-01
-3.705453638604155331e-01 5.159403817351125854e-01 -7.341151728892569839e-01
-5.559352469435601130e-01 8.592655257532687552e-01 1.187430260523252429e-01
-2.127250863456872990e-02 6.417384040538670620e-01 -6.910692735617136595e-01
-2.058207769698739975e-01 -8.145956631114724678e-01 -4.543085547626798948e-01
-3.591912989012402968e-01 4.868247966192280618e-01 -7.560364755610653464e-01
4.737694032187997895e-01 -8.297845980057221293e-01 -1.631830394726072053e-01
4.682393882326553736e-01 -7.345043773857319325e-01 -4.537492498195858648e-01
5.228654493987492380e-01 -8.315754971476826407e-01 2.364114565974044860e-02
2.780956890482489396e-01 8.683124228499388142e-01 -4.795002084032733425e-01
-1.747630899501208535e-01 -7.007543901530917108e-01 -6.062980135206746946e-01
-4.369396608658574488e-01 2.440443069225586015e-01 -8.630874478199196398e-01
5.793833677712168645e-02 9.184877249829379031e-02 -9.294603070128820699e-01
-3.252814333115537915e-01 1.375524951481256752e-01 -8.986278274618506590e-01
5.883930704556595420e-02 -8.978851617430544385e-01 -8.124254305924615005e-02
-3.209596337977267955e-01 -2.082388047437398401e-02 9.266022113552235817e-01
6.343989947527426398e-01 -7.754743389204051818e-01 2.372465949635517990e-01
-4.782377861485198611e-02 -6.063131885574389590e-02 9.109604631284617948e-01
-2.027054597265857405e-01 -1.216457660949553793e-01 9.150979733911277503e-01
-2.291936369009981711e-01 3.237863951971448051e-01 8.563804079282497650e-01
1.088908271922494481e-01 -2.523393517286041665e-01 8.625154691051531985e-01
-6.252472849422514578e-01 5.773919634707117554e-01 -6.387994496339340911e-01
6.737784204245998720e-02 -7.204822734600034861e-01 5.365392725209124913e-01
-3.444003752324696910e-01 3.709720101801857739e-01 8.339247571721299934e-01
-4.566328130619642239e-02 -6.599072423856069403e-01 6.328780121142152382e-01
-4.696579358699118356e-01 7.440829208564678776e-01 -4.673461832982979680e-01
-8.092564576010126409e-02 -3.866197921048965536e-01 -8.349615077540366581e-01
5.521160616356434181e-01 -5.218975946954830247e-01 -7.146736469692536176e-01
2.954178741216084703e-01 9.511838638897955889e-01 2.347390309074474934e-01
-7.989434532806295730e-02 8.441190246510216211e-01 -4.082395363946341171e-01
2.682920069789072048e-01 -7.393058263266764074e-01 4.547694783657962314e-01
2.247828733149498381e-01 -8.188545121767398793e-01 -3.333200527161905846e-01
5.600783532121383912e-01 -7.815609086687875795e-01 -3.160354732658366417e-01
-7.518694033086870121e-02 4.060309993467915365e-03 -9.246534074938453918e-01
-1.850230416765978048e-01 2.626566161352386075e-01 8.779912010016778234e-01
1.565243875924308137e-01 -3.896354172652277681e-01 8.009848684142011344e-01
2.682815817789109200e-02 -3.039145397994974518e-01 8.531172358887010310e-01
-4.490779805299083272e-02 -5.567049506435119977e-01 -7.293399971219198807e-01
3.822763964937628961e-02 9.418496869213719425e-01 1.227197733386919815e-01
8.402434318241312761e-02 3.157625674924146586e-01 8.604061845766428629e-01
4.048964160724556616e-02 -6.644904303405393398e-01 -6.221271547783199241e-01
4.384489763999244172e-02 -8.826227721341296517e-01 -1.973703831828133026e-01
-5.292722894285531998e-01 8.681355071241951826e-01 5.944870974752612669e-02
-4.007653314632252384e-01 6.617446190389669747e-01 6.080017792276073418e-01
-3.463886903214886681e-01 6.801689340179720711e-01 -5.865456023618977888e-01
-5.187938167418461033e-01 2.505598720467955842e-01 -8.529557918802203043e-01
1.571117684293614203e-01 -4.892699469705218962e-01 7.416400921598614859e-01
9.250324408237434182e-03 -8.716827541841606353e-01 -2.587847890953263175e-01
-3.870278679656178888e-01 8.901333743385361208e-01 -1.334745106592922365e-02
-2.176999276793970817e-01 2.223752130756640188e-01 -8.892226188606965342e-01
-7.146843737704070519e-03 5.729104849595906268e-02 -9.274749811070658323e-01
2.852926260549241699e-01 9.740863957573447918e-01 -1.927053766426825021e-01
-3.192418043402945882e-01 -8.308870318856479420e-01 -4.493056303137129559e-01
-1.905058530514202042e-01 9.086218593000776611e-01 1.319723190923178524e-01
-2.485616769023464290e-01 6.956380858692576830e-01 -5.900320518064693376e-01
-6.146874397742507767e-01 8.153778628432269970e-01 -2.567615933603541456e-01
3.139399785481102323e-01 9.026728085152618819e-01 -4.259519977456261985e-01
4.825516583112974822e-01 -7.637354003865574059e-01 3.361331582767763115e-01
3.573408747084809711e-01 -5.738295396325703290e-01 6.397560145306603330e-01
-3.234034179789482821e-01 7.078951890079431264e-01 -5.577233129806993261e-01
5.979032416450349996e-02 -5.453779359243916547e-01 7.160669701810373766e-01
-2.659309844129884581e-01 -5.167573943860600538e-01 -7.692605632541310579e-01
-2.253338507700234639e-01 -1.342593378747767019e-01 -9.087471905329230770e-01
5.231919570912325623e-01 -8.061838151354236981e-01 1.912605901777136852e-01
2.810225601866226941e-01 9.019111723363844035e-01 3.587426071036741715e-01
6.650112235261636251e-02 6.715848542202472460e-02 -9.311324439387353991e-01
3.586546204007787786e-01 -7.880009476062644902e-01 3.278543063114164879e-01
1.983429750303606909e-01 2.999380282846850765e-01 8.647629714096445319e-01
-4.399676207948702844e-01 -6.273748566516589020e-02 9.325109558005069132e-01
2.401145384693263996e-01 -8.739047211987284181e-01 1.873467022546242491e-02
-4.833334518332533802e-01 4.682489759135099461e-01 -7.501744228228728328e-01
-1.903693614357878094e-01 8.906265090763788583e-01 2.203857497874883165e-01
2.659440906756576489e-02 8.567551236763885081e-01 -4.195550692448890562e-01
-3.187099341954656162e-01 -8.617195225196048192e-01 4.174941399183101365e-01
-2.473401093801831652e-01 5.722589900619259318e-01 -7.108966666312507288e-01
4.929828238851080568e-01 -6.381905379221093355e-01 5.413811584402543620e-01
3.772663238614759051e-01 -7.612150366549024216e-01 -4.229580162409812827e-01
2.468381027360919133e-02 5.128860662247495261e-01 -7.941695254504760326e-01
5.702315100159454503e-02 5.699665643832274586e-01 -7.613627596259836539e-01
1.069465639559697839e-01 -2.865931394026653423e-01 -8.746804883980550116e-01
-3.749178212979955432e-02 -7.439017692277786198e-01 -5.338157086566243104e-01
3.161898817622103008e-01 -3.864881799217162461e-01 7.824202915014797366e-01
-4.557193680427723548e-02 -2.494226450454526123e-01 -8.870855714201449915e-01
-5.488683320187234260e-01 7.815891921256009622e-01 3.966750443686051786e-01
8.772787985181276782e-02 -1.800691023760348508e-01 -9.070027213044198344e-01
-1.270545392374240468e-01 -8.158696563814196168e-01 4.420007566027716051e-01
2.912611271813037028e-01 9.762894372344234073e-01 -1.855500586274965169e-01
-1.664858037879762553e-01 9.209135415318651097e-01 4.878636621980210475e-02
1.993176710262603568e-02 -8.498229875429930136e-02 9.045800681323836745e-01
4.891251785007200703e-01 -8.232595533782894881e-01 -1.895088900303511514e-01
-3.815253034780571317e-01 -8.717073357365849873e-01 -3.871644888256931538e-01
-4.275964059988455745e-01 7.384472974594400441e-01 -4.881396393500032627e-01
2.185909366900844475e-01 7.391068434285229527e-01 -6.414039820975657724e-01
5.276603698820665489e-01 -6.675156732679573546e-01 -5.524311670807451335e-01
-2.571993283401172725e-01 -5.165024213782216655e-01 -7.690394775595392751e-01
3.154263844688788287e-01 -8.298606141807436387e-01 2.271878832074679666e-01
4.517086167589284273e-01 -3.869761581669199924e-01 -8.196309085977585562e-01
-6.428357040787667787e-01 8.081473235547372846e-01 -2.650915095443218128e-01
-6.865855514296885509e-02 9.027680186182297506e-01 2.356431889602397800e-01
-3.127545047611496321e-01 -8.013878246719626786e-01 5.196242939545042683e-01
-3.045040468578578685e-01 -1.537746769052705242e-01 -9.037400717112643589e-01
-1.272313644298459223e-01 1.649710701402686344e-02 9.168892030694377748e-01
-6.176415821600400591e-01 6.202774736181198012e-01 -5.961080885489445924e-01
1.985191347072965892e-02 -8.200311096287189461e-01 3.843993358038765296e-01
-4.941447627977614276e-01 8.744742524712625364e-01 2.342948232429475225e-02
4.487853137838935247e-01 -6.861948991713784363e-01 -5.381584321846605290e-01
3.690478278376675414e-01 4.388704837368738176e-01 8.156144021232148988e-01
-1.379656184469763534e-02 -5.940515949730856837e-01 -6.964041856008532649e-01
-3.106021272946028478e-01 -6.307016937761474873e-01 7.093369176949047006e-01
-3.431527830490774811e-01 8.797830197410594355e-01 1.765996509639175260e-01
-2.490905499851318872e-01 -6.872181783418420675e-01 -6.289952588639743380e-01
-3.190733358188975743e-01 3.481879309628565511e-01 8.450009361124283247e-01
-1.078892313989252873e-02 -9.023070529914630766e-01 1.258349827086039929e-01
9.973684563239142153e-02 1.390140394888061681e-01 8.992495024606136367e-01
-4.530819370614083130e-01 4.391863539721976850e-01 7.930903271906046825e-01
-3.245734022488870330e-01 -6.173889163701625771e-01 7.226641093769460289e-01
9.886010338202996794e-02 -6.108149882605442560e-01 6.533444061040317719e-01
-2.603307450236033160e-01 -1.892029012957607004e-01 9.094055252537583955e-01
-3.272210693723062724e-01 8.670620907928598964e-01 -2.383480665105466301e-01
4.495211449165145701e-01 -8.129998316933907399e-01 -2.594157037317127990e-01
-1.962977674909746340e-01 -8.751631622921399734e-01 3.408323682530240428e-01
-2.342742778226357958e-01 4.014555716004324371e-01 8.214124568519508562e-01
-1.427251801611804094e-01 -3.372955784572557736e-01 8.583042584691452648e-01
-3.634419908625193263e-01 6.323025693845433226e-01 -6.353202200760817986e-01
-3.405267549374181857e-01 -9.542777415657657247e-01 -8.404523048942774688e-02
-5.649688769116235632e-01 6.160234369001240662e-01 -6.116361963915490918e-01
1.129463467338460009e-01 -7.884773826426112464e-01 4.157061077420203254e-01
3.744169210238413870e-01 -8.045986003422626043e-01 -3.192971179086400157e-01
6.081297110346027823e-01 -7.780344550796652880e-01 -3.074929126670680191e-01
3.461246035813821398e-01 2.805315443960272326e-01 -9.228211881930193927e-01
1.635478256021990207e-01 8.565064587923290063e-01 -4.650092518159151256e-01
2.231743629600324574e-01 -1.844433095734119843e-01 8.714013336898001061e-01
1.082223231294076465e-01 -6.813161594707536350e-01 -5.945784454039072520e-01
-3.160969765508929719e-01 7.714812441680897193e-01 4.691789007392412891e-01
-4.580674420553588755e-01 2.882404042408507130e-02 -9.031911448106419993e-01
-3.530688491773566473e-01 3.515143491083207450e-01 -8.310924867485535161e-01
-1.266140555648428145e-01 -9.143078763610872350e-01 1.627979719021385441e-01
5.352498922160614514e-02 7.310074571429752144e-01 -6.152930443484051493e-01
1.178086545322706152e-01 -6.400641673090611272e-01 -6.400914714058696386e-01
1.802861359910589711e-01 -8.683842062004188955e-01 1.528307966068866430e-01
3.831841158725020069e-01 -8.465143689203531441e-01 -1.338395172270724076e-01
2.361083385740736784e-01 7.360942343123473286e-01 5.978925177406406721e-01
2.195120227979863170e-01 4.391034951322509983e-01 -8.576518704715107022e-01
5.251105266046462994e-01 -1.979845558741044620e-02 8.787170083921210795e-01
-5.702886774385083207e-02 7.270143770385294468e-01 5.735309591439461396e-01
2.124298718576372313e-01 -8.782801912365888475e-01 -3.492594089500616200e-02
1.849971321959155701e-01 6.563009077292314419e-02 9.014321249531495051e-01
-2.531158246835801817e-01 7.879336167425589066e-01 4.537168441362914861e-01
5.816538004437290382e-02 9.465893486330113626e-01 -1.456973256026236896e-01
-8.964212664664920893e-02 -8.112248220825720724e-01 -4.357608957639287905e-01
1.217415591313315976e-01 -4.594793010682677870e-01 -7.886197799623827498e-01
-6.368196875666902734e-01 7.770400685672920194e-01 -3.492828504791923305e-01
2.475149566397076908e-02 -7.860879573531066589e-01 4.479360997282783030e-01
3.347443980581173845e-02 1.694197755295838437e-01 8.967914432588298679e-01
-3.006409971121002389e-01 -5.791543468131498118e-01 -7.281720330255376794e-01
1.568099818168952053e-01 -1.166762040481317680e-01 -9.215118562744313291e-01
-4.830930656522429145e-01 6.950634344115815821e-01 -5.359994950272644054e-01
2.573320948078188786e-01 -8.449448112254563936e-01 2.052271187876236191e-01
-2.511434818053461249e-01 6.646241103512896542e-01 6.219078355776893607e-01
3.813283320569929580e-01 -6.187634373023148671e-01 5.889413000163761236e-01
-1.759757777213933339e-01 -3.513570378690260565e-01 -8.517395850985260974e-01
-5.848773360437878877e-01 8.470210046476509547e-01 -1.470090225307820464e-01
3.633742558882057661e-01 -8.285617732843973959e-01 2.033285817984777644e-01
3.522152837086425792e-01 -3.881199617672868030e-01 -8.225392579863096687e-01
9.701050955933121500e-02 2.077450135052855695e-01 -9.179384223970812329e-01
-3.785143550448328287e-01 -7.076635170207061787e-01 -6.210964701301088242e-01
-1.370331372744949261e-01 3.806642216690550584e-01 -8.428423575309896831e-01
1.164871482175280221e-01 -4.302871767109238688e-01 7.841767961812795562e-01
1.220868342230070347e-01 -5.086681091224576345e-01 -7.552272413293944497e-01
1.836396174803422154e-01 -7.761133514342969386e-01 4.159998847070858208e-01
8.595095266926290611e-02 9.421933054974952482e-01 -1.968739354361247751e-01
2.831542895693023310e-01 -2.301411043047400795e-01 8.528753301573426260e-01
4.872230896228234576e-01 -6.254867072816195916e-01 5.581969176629781870e-01
-5.186820352179516425e-01 7.585562436202943071e-02 -8.942775224621748453e-01
-1.386292789190540775e-01 -8.186449367545343136e-01 -4.329120531004391204e-01
1.096087655332251970e-01 9.237539616376049256e-01 -2.853519819300645577e-01
4.709144533655374998e-01 -5.678627422886706189e-01 -6.784470046102120122e-01
-1.142860926196641730e-01 4.465540124564484903e-02 9.152362556808842919e-01
1.221164211689943907e-01 4.837562899187452525e-01 -8.238383055195163118e-01
3.212330134624523104e-01 -7.749738590844557073e-01 -4.086440463277540847e-01
3.046160390273268126e-01 -8.487713452689624738e-01 -1.886897496741521130e-01
3.041119760101099745e-01 -7.729149462790532166e-01 3.817350858744429920e-01
9.683912146291757950e-02 -7.670964270231139803e-01 4.587943088786793355e-01
7.502951952173689265e-02 -4.617040431882242779e-01 7.712881043101380563e-01
6.768766976767089105e-02 -7.769087278629190907e-01 4.508245623615455555e-01
-6.826034195468885790e-03 -6.638832020708604897e-01 6.208342682328581441e-01
9.262072191095853391e-02 3.175262895352963799e-01 -8.904658324557597204e-01
-3.057458349003510101e-01 1.362487377978056358e-01 -9.003032759439986155e-01
-4.812392517080464893e-01 7.110269799102711952e-01 5.335613658843373353e-01
-1.533070174385001982e-01 8.474201556507255928e-01 -3.742464186610960364e-01
-3.139313416895907483e-01 -6.614477132378030477e-01 6.828903490869481230e-01
-2.588388467093030720e-01 -1.623445735144398161e-01 -9.036500320978839706e-01
-3.433659220770882703e-01 -9.296454170197568923e-01 2.478990027331625656e-01
-2.771488872775096368e-01 -4.772595422317796321e-01 -7.933400229609836041e-01
4.291819179209876989e-01 1.349879923981872620e-01 -9.483665276475780059e-01
-2.059096238175227023e-01 -9.021969703321726097e-01 -2.517059315288885935e-01
4.544080939050635370e-01 -8.106959039590712068e-01 2.159698466818379126e-01
-2.102797585205655739e-01 -9.018317106573773279e-01 2.706371348774859742e-01
-3.919209499577990252e-01 5.821507883004604089e-01 -6.774975440870579790e-01
3.018035255801037806e-02 8.596683115358217941e-01 -4.148699914064202798e-01
-5.815820489430505447e-01 8.341367873504776931e-01 -2.091851709384124625e-01
-5.995222392262700151e-01 7.452850278559254305e-01 -4.262621267275872872e-01
-2.777814651652552036e-01 6.575411578501326737e-01 -6.263959159149946609e-01
-3.431290378352545162e-02 -7.848441359389659588e-01 -4.705608938068187030e-01
2.975287598121163501e-01 -6.447422491098727670e-01 -6.143790196851187657e-01
3.229843188325172143e-01 -6.289058052319976277e-02 8.869911680070519111e-01
2.258593501992507413e-01 9.451710583774701746e-01 2.238990998573639479e-01
7.319926646457753684e-03 -8.579023287664580000e-01 2.969110395388905865e-01
-1.383162563210687257e-01 -3.818806882869918984e-01 8.396936969084498603e-01
-4.265778346431253198e-01 2.235652517137087791e-01 8.910101539679490257e-01
-3.518504924290072333e-01 -2.460405469604319273e-01 9.051515568677300783e-01
1.365430066047969293e-01 3.247756455217166160e-01 8.573916710884729175e-01
3.992301861122470874e-01 9.186904190465279563e-02 -9.480260318953490639e-01
-1.467149954255487221e-01 -5.504248611412766445e-01 -7.402885053605622323e-01
-3.280248805082808805e-01 4.794316219432493420e-01 -7.653836726437538429e-01
-4.270612644370876954e-01 -3.884011585792388477e-01 -8.392880872698174066e-01
2.222989099162903937e-01 6.026691822514265162e-01 -7.634361852853155384e-01
1.131097449593340687e-01 4.805629293654684053e-01 -8.243986855873060016e-01
-1.105231167577955115e-01 3.857010417674012759e-01 8.316067846502989136e-01
3.986399394765836046e-01 -8.349104581653400414e-01 1.498554900713203741e-01
-4.205994910616000504e-01 2.250193363065563501e-01 -8.704197977138928843e-01
-3.151587437055515251e-01 6.969005800757471780e-01 -5.734610111747405758e-01
7.645013246291679221e-02 -6.530930170319773076e-01 -6.305953272237970753e-01
2.017412757118799138e-01 -4.720476016344883896e-01 -7.766411177754706241e-01
-3.106360972666206144e-01 2.225407001751563418e-01 -8.810481340940664596e-01
2.066069359145160031e-02 8.376670611278907996e-02 9.073750222298128110e-01
4.490817954203413787e-01 -6.001520807724162188e-01 -6.470972846963571889e-01
-3.762449757235590830e-01 2.702810237180231501e-01 8.755794658802801278e-01
2.270384283640244361e-01 9.523877574930800227e-01 -2.502051564233088721e-01
5.742998810620059125e-01 -2.758190104122379416e-01 8.053067441184945663e-01
-3.019009737317635556e-01 -8.160624194072001458e-01 4.939729823100654782e-01
5.171629103328413413e-01 -8.322212010162529650e-01 -8.249012687597795379e-02
-4.527746034779570605e-01 4.034917033229794003e-01 -7.933649788284030668e-01
1.017442873282187882e-01 -5.388586299655255818e-01 7.142850321852572959e-01
-1.833007374939187029e-01 9.060504325396642189e-01 -1.659332345396120623e-01
-5.386306221692847007e-01 5.100605315464918910e-01 7.393425066369032628e-01
5.815078406642443243e-01 -5.219832109799795727e-01 6.462405797815377051e-01
2.871145822969219941e-01 3.313203510150891651e-01 8.549252332663745957e-01
1.074010973389013940e-01 -8.926036506401948678e-01 4.205808345060547265e-02
-2.814927395395057097e-01 -6.357252441552030398e-01 6.999819303177841068e-01
2.632533361137064376e-01 3.746798130487431489e-01 -8.881652084349140885e-01
-8.745359644105506203e-02 -6.453524079270889224e-02 9.130431899748066016e-01
2.379380571548204981e-01 1.383508340948281790e-01 -9.368531485853150986e-01
6.773157402466384314e-02 -7.889322897354954511e-01 -4.420658822938723920e-01
5.795315740592480447e-01 -7.682035663201751685e-01 2.848779496570648662e-01
1.837696880236499575e-01 -6.205875143036887476e-01 6.273941574639978480e-01
-1.451424869747059143e-01 9.185020328962455460e-01 1.066476654747429559e-01
-4.047142199458350076e-01 -4.978275944263166886e-01 -7.860057040998142952e-01
-6.079257278449251567e-01 5.856137400492732459e-01 -6.341182456340477280e-01
