4.136445761584201519e-01 3.764167401041757510e-01 -5.727799381911032883e-01
6.849383641784506649e-01 -3.200155409513142923e-01 -7.623375928492130971e-01
4.005755990703083191e-01 6.224941140004235374e-01 -5.092358996438032248e-01
5.416593153294302354e-01 6.472363188852946481e-01 -5.087536603108765432e-01
-5.893853360999404822e-01 -2.755948051584485858e-01 -6.981037864117529690e-01
-5.884462283742988853e-02 -3.936950175695819731e-01 -7.503480540722062830e-01
-5.194511667013649303e-01 4.767327048024186942e-01 -5.083902497498028472e-01
6.035308335037602445e-01 -2.770683628822067091e-01 -7.479651339150924505e-01
-2.247938299350475955e-01 -6.092388806053690153e-01 -7.986487938472406345e-01
-3.426269089818437252e-01 -6.165571294496936527e-01 -7.956345417028674039e-01
3.119262246756339119e-01 5.505460546673264233e-01 -5.239790703399529459e-01
3.272164678763665457e-01 -6.174410947569186625e-01 -8.236470387085014222e-01
4.575906010299738425e-01 1.076110097078321476e-01 -6.434238297860501721e-01
4.768726685862839099e-01 6.454886018432831607e-01 -5.065136650175894317e-01
4.785356650163177794e-01 1.062917209956606157e-01 -6.446304353667002829e-01
-3.022591392743598782e-01 1.241258795405934950e-01 -6.076758245711835205e-01
-5.898059299866010852e-01 -5.887834220345149888e-02 -6.426015451896878172e-01
3.582441951487125298e-01 1.893942064851271423e-02 -6.620049091790808360e-01
-3.774296870905712309e-01 -4.189999632468961455e-01 -7.436113277963578572e-01
3.968873595464396387e-02 -3.191911418065495609e-01 -7.353605344839080349e-01
-8.771614594664028930e-02 9.118655415682809240e-01 -4.148945043579224112e-01
-6.238763452219087818e-02 6.284141099606871395e-01 -4.885157746469654949e-01
-6.723216840727156418e-01 1.711100866929380904e-01 -5.802959120212285438e-01
6.731866637158854250e-01 3.548113061660893713e-02 -6.708341406121175465e-01
3.098489698948398430e-01 -4.849466853245268938e-01 -7.890047491050251605e-01
-2.326806315534121761e-01 7.992203506861693674e-01 -4.377211096699847315e-01
3.847312873313921133e-01 7.815156416170087050e-01 -4.678651934864854756e-01
-3.541338042060340752e-01 3.931069462063479514e-01 -5.366581498049235455e-01
3.810213443356715302e-01 3.925826011173146890e-01 -5.672878123756066593e-01
-9.058044758161583332e-02 -9.211876255089318510e-02 -6.718205934018780523e-01
6.462254643904441487e-01 -1.724525698245928385e-01 -7.229519358118130512e-01
-8.125098894356956869e-01 3.922651626745193298e-01 -5.178594905005088345e-01
-3.143956302062828612e-01 5.303876214820969492e-01 -5.031592923931750283e-01
3.415905079148148782e-01 2.783376157445330290e-01 -5.949017101882739800e-01
-5.267474395481589466e-01 5.342541792238516551e-01 -4.933606632526942315e-01
7.035011539815438919e-01 5.766598386489379946e-01 -5.335364508536878381e-01
1.988604701131402031e-01 2.950672646759016637e-01 -5.846978333782394399e-01
-6.634209522892427213e-02 -6.311243050860293469e-01 -8.108248384433071054e-01
-5.905197714300263190e-01 1.554596287828921286e-01 -5.876960925755589926e-01
-6.060117555188837546e-01 4.177970582480132200e-01 -5.198885659360776845e-01
-1.451553643788774939e-01 3.049162370351968243e-01 -5.679059221943969504e-01
-5.820585870683555596e-01 3.121724175130543566e-01 -5.479247119312097292e-01
-6.739184799398676429e-01 2.416869059351599569e-01 -5.621602566287297043e-01
5.183526786198042746e-01 -1.146156353850695878e-03 -6.737888727428186231e-01
-4.094484006737932891e-01 1.562120414490048015e-01 -5.950145877586825449e-01
3.342072074506446389e-01 -4.992467323160406645e-01 -7.936763349668848333e-01
-4.280846984517561737e-01 3.901955322814332217e-02 -6.242457103565799414e-01
7.053423017969626674e-01 2.057259455431706130e-01 -6.285811093663780103e-01
3.141488919959256609e-01 3.579236605916317204e-01 -5.733873847174845162e-01
5.261096452337666873e-01 1.267096190098280506e-01 -6.413763917861065034e-01
-3.972967075260171455e-01 5.180966945819024394e-01 -5.028672048529659877e-01
-1.514928599481266125e-01 4.341683006076740847e-01 -5.345512958485468813e-01
-6.208404791461171746e-01 5.359794086298975690e-01 -4.890158311746883868e-01
-3.391894712870028861e-01 7.631553411288927169e-01 -4.425364895298198875e-01
-5.295600359212525587e-01 -3.479618535869624663e-02 -6.389350117410518282e-01
4.595228461636991502e-01 7.913859341744942100e-01 -4.684406276468666142e-01
-2.783362836635083215e-01 -5.797597454181691035e-01 -7.888803764037773947e-01
-1.023319974781731617e-01 9.139765600852147731e-01 -4.137477421991297977e-01
6.143634669599509213e-01 1.603413621320476379e-01 -6.364267410482307152e-01
-7.044543289400158059e-01 -1.439270906088729873e-01 -6.596203361732383419e-01
2.240395211939639752e-01 8.290011646761820119e-01 -4.490419680501626654e-01
2.190946624679299126e-01 7.636680917632110432e-01 -4.655637358637543799e-01
7.741251041253627285e-01 -5.373897989038007444e-02 -6.978637924638503298e-01
-5.839068169592780411e-01 6.896849720172186782e-01 -4.511954590151853739e-01
1.899810162121191304e-01 -3.693125696863723828e-01 -7.544272295984395527e-01
2.807411454054163369e-01 -4.886547925072123183e-02 -6.761496956724402096e-01
2.293814226168502945e-02 -2.653050666021231074e-01 -7.208695200068530040e-01
3.167170403147007707e-01 6.014884536235847179e-01 -5.111352823402249834e-01
3.531718685613055575e-01 7.473310705805900067e-01 -4.753081568561019488e-01
-5.125986592724377511e-01 -1.651894957652024487e-01 -6.730225212703114801e-01
-2.067091988393839341e-01 3.607291843340518223e-01 -5.510630701868411974e-01
1.489157383413631901e-02 4.485638012734045887e-02 -6.411267055676383997e-01
4.520289697351970726e-01 -4.465762413676332976e-01 -7.850788178656994409e-01
-1.363132778590737948e-01 -5.176946541006490765e-01 -7.788815148764466345e-01
3.965108500399892599e-01 4.407918049066413824e-01 -5.555875890481954960e-01
-1.008919325496212827e-01 7.721307213535875125e-01 -4.501235343202369954e-01
4.060337496011311997e-01 -2.154426770383919831e-01 -7.239949320489814655e-01
-4.948001841396876266e-01 3.336339442605363304e-01 -5.460496471284530529e-01
1.097573195046175759e-01 8.396282327368483900e-01 -4.415805654017225246e-01
-5.726249871659596646e-01 1.993659330381252204e-01 -5.771972931653405192e-01
2.495669717327684278e-01 8.647214718953462054e-01 -4.409556023567622884e-01
-3.650682325596457112e-01 7.577624301728449474e-01 -4.428437159950699420e-01
-8.184436870498132954e-01 -9.829203767720004481e-02 -6.432081679778417493e-01
-7.759352234238697799e-01 4.335476900189915161e-01 -5.088073146323568441e-01
5.504324410321694838e-01 5.053186279575955231e-01 -5.454520355255376707e-01
-6.001546271648210834e-02 -2.571272148158312287e-01 -7.153347380718166892e-01
-6.643925175085412249e-01 2.538702712369810821e-01 -5.594361649033470218e-01
-9.303702466209241850e-03 4.247436485686555963e-01 -5.428624755289860326e-01
-3.382944921593752929e-01 1.322417537780497254e-01 -6.041031549379581866e-01
6.564310463145548447e-01 -3.663320239458497940e-01 -7.730132328955022780e-01
8.209138410444023481e-01 5.714376834581435388e-02 -6.714159283620914076e-01
9.409878092617718348e-02 9.409284819079343221e-01 -4.149956455755989260e-01
-2.197143199054782392e-01 8.717268631024269743e-01 -4.196955060297051232e-01
-2.534458792707119379e-01 -1.795651373873267675e-01 -6.874531162513145555e-01
-7.661589809524360639e-02 -1.470427308438123637e-01 -6.864617646825368347e-01
-2.258790295305328211e-01 1.215453730228376883e-01 -6.115048680200999565e-01
2.071728437078493301e-01 8.130892325611696059e-01 -4.524161607785517347e-01
-5.886566308447040985e-01 7.609185957693779256e-01 -4.327608531081554299e-01
-1.263506732620865158e-01 5.541921716729419911e-01 -5.048651436850315477e-01
-5.121979549385068387e-01 -4.371419682295095144e-01 -7.426657270613808981e-01
-8.129358672661141094e-01 1.660816977990700050e-01 -5.757504020686261548e-01
-4.329852716611810037e-01 -1.995034908209233626e-01 -6.851102471037653352e-01
-4.833671840101310679e-01 -3.213185102947951344e-01 -7.142079933340494957e-01
-4.439180974879246983e-02 1.502939356038111018e-01 -6.116729039312722715e-01
6.806062414266028648e-01 -8.664062193572576176e-02 -7.024081168396367758e-01
3.294316160216602674e-01 -3.152044600909286176e-01 -7.463588453815972468e-01
-3.986712512193921754e-01 3.075033911976839396e-01 -5.567273000306435238e-01
-5.863582761375694119e-01 5.590811623368922012e-01 -4.845315859507154932e-01
-6.634412597234380371e-01 9.024685113396797853e-02 -6.013672819587931873e-01
-7.801467969974307248e-01 -2.850376523494089209e-01 -6.926082976849615713e-01
-8.098291160451783766e-01 2.570701517939391612e-01 -5.525839721720625652e-01
-2.052205994493255803e-01 -5.196912591124742686e-01 -7.765343088658408499e-01
5.351806745521457964e-01 2.802044580515860445e-02 -6.670195508746432633e-01
-8.561428764740075525e-02 -3.387953644194026670e-01 -7.351819313057945671e-01
-8.306741479587470556e-01 3.576548785541406317e-01 -5.259670997652988733e-01
-8.009414228050638906e-02 -5.353296172683363885e-01 -7.857285633272876879e-01
2.093752284688529530e-01 2.993537288578380084e-01 -5.840365612174377441e-01
-4.865202534004740564e-01 -3.065437840036517869e-01 -7.102945022475722903e-01
-6.484534472963254803e-01 3.169060151459376362e-01 -5.439586279079179354e-01
-4.217251925616024577e-01 7.203899927280590365e-01 -4.500617659504270174e-01
3.305077040771474683e-01 3.690449685459628038e-01 -5.712186436239398146e-01
5.006581979201958355e-01 5.898929801522752037e-01 -5.217341862711682987e-01
-3.136450888028647910e-01 5.383576727318617472e-01 -5.011498950875344915e-01
-7.759053705867050565e-01 1.803985890311394780e-01 -5.736210070321613452e-01
-1.505713341345217005e-01 -3.338677239359893467e-01 -7.312258103208616467e-01
5.222952166076372596e-03 -4.096597713525892415e-01 -7.570930533416116992e-01
-2.324521524536406480e-01 8.838824231770463502e-01 -4.160549951313162187e-01
-5.590047519590576330e-01 4.647890416255829882e-01 -5.098073777211256097e-01
4.308367814964970122e-01 -3.259531155816776660e-01 -7.533172172703862524e-01
-3.573255051877807786e-01 -4.081645279938580506e-01 -7.416711411711921498e-01
-8.256633368355855707e-01 -1.589638892791594149e-01 -6.584421854355669845e-01
3.845130901031431070e-01 -1.333588024127419121e-02 -6.713578633987146160e-01
6.871251817358296765e-02 8.347070992594585181e-02 -6.334730578526763800e-01
4.880715496892576999e-01 -4.409495885637854107e-01 -7.851333592206735101e-01
-1.082847252663938498e-01 5.456708778834895579e-01 -5.077962109898591647e-01
2.717252256872817462e-01 -3.140107064788653091e-01 -7.436594609977212889e-01
-8.606911610763021692e-01 2.122264692213853346e-02 -6.108569487447339519e-01
-6.470653541449437052e-01 8.954593038318678366e-02 -6.022260339559039055e-01
3.942018669442934331e-01 -3.639158236612565767e-01 -7.615169377888441060e-01
2.405454532423127179e-01 4.087088563211443981e-01 -5.573319249671979669e-01
5.772151931044674500e-01 5.016383323520610116e-01 -5.475052741658035238e-01
-6.413747093994361104e-02 -6.940160535922799134e-01 -8.270181386522207356e-01
-4.785728158094084139e-01 -7.484787271448550827e-02 -6.513042697963942196e-01
-4.219582460286718240e-01 -5.593624108739065903e-01 -7.777004825652537034e-01
-4.978860339804542234e-01 -4.199739216456655488e-01 -7.388639624398704031e-01
1.912134997616769805e-01 6.137989695348082808e-01 -5.027773960792742969e-01
2.175915750797916826e-01 -3.197539658559219733e-01 -7.428843271307978835e-01
6.413567966558262334e-01 5.487856511906942236e-01 -5.380950869656628832e-01
2.944349936323318873e-01 9.330079609062424950e-01 -4.253337636849955361e-01
-2.683554597562492483e-01 4.927578646688686725e-01 -5.147032645357302316e-01
-2.512027578805621775e-01 5.173657241160840581e-01 -5.091145632929879872e-01
3.650777004155626448e-01 3.926721289237986023e-01 -5.666035230579115067e-01
5.033781883005108426e-01 -5.828929398584314914e-02 -6.877977685769629534e-01
1.774282946800337102e-01 4.714773147212008575e-01 -5.386434402567568114e-01
2.307686816699172361e-01 4.020497449073385243e-01 -5.586312665962074320e-01
2.616834689448589435e-01 6.700495097268119871e-01 -4.912990690115190406e-01
-1.477129343656997940e-01 6.946841392213256583e-01 -4.680095714762542713e-01
-4.015025283686369240e-01 2.556041022391619122e-01 -5.698973604311192709e-01
-2.241397306307232329e-01 -1.143205605568519828e-01 -6.719645510943745847e-01
1.295258493147324608e-01 1.303232420606807995e-01 -6.240002812772872387e-01
-7.008789111685492790e-01 3.183994417446000535e-01 -5.414015811182903981e-01
-3.243390433792699978e-01 -5.317657367815113723e-02 -6.521537440599100011e-01
5.966268335958347935e-01 -2.749466695970174679e-01 -7.471355387516092073e-01
-6.272995043809223015e-01 -4.430445965605456782e-01 -7.394023491625821842e-01
-3.879751894530590606e-02 8.883153628458725359e-01 -4.229531580005433944e-01
-3.373600079707803068e-01 -5.933148998471613478e-01 -7.899024334764409572e-01
4.417108773552640422e-01 2.183597555545514490e-01 -6.144106851470501063e-01
-1.145586647465050983e-01 -4.099080076991149651e-02 -6.577359109900390299e-01
2.481500040244631056e-01 1.110468074898832286e-01 -6.338562476555328340e-01
-7.309717251565528429e-01 -1.829506079745574568e-03 -6.221398428687858750e-01
-1.842444997445714105e-01 9.007988974086035272e-01 -4.137236887123135198e-01
1.040032171393651672e-01 8.778294184286492552e-01 -4.315614241389124084e-01
-1.924250477553072491e-01 4.068480986373146924e-01 -5.398480128103843034e-01
-3.505320308672821850e-01 -7.133667891237367720e-02 -6.557166545862305185e-01
-1.913691169040673823e-01 4.865518442187967141e-01 -5.194856770752686037e-01
-4.613328393845902986e-02 4.250413017937765825e-01 -5.412585186769621748e-01
-3.044466914794902168e-02 6.133521516619832026e-01 -4.936970554184463844e-01
7.335610049133878263e-01 2.687092596898139618e-01 -6.136263746021306531e-01
8.913188407296185334e-02 1.261496684804785384e-01 -6.233932131137256416e-01
-7.626826515894502556e-01 8.594449368590142968e-02 -5.983520998176984351e-01
-7.910145203802932956e-01 5.067739161382895929e-01 -4.894340694938857927e-01
-1.898254442315053248e-01 9.324336554836256674e-01 -4.053928987922925109e-01
-5.995317433153863895e-01 -3.128534440778971693e-01 -7.072220336078925973e-01
-6.446153940600214405e-01 -2.102312654576620199e-01 -6.790780660780120215e-01
-8.564980891538094554e-02 4.824349798657813215e-01 -5.249251033702311275e-01
-8.306319478813494195e-01 4.989616217721550007e-02 -6.047627215236331955e-01
-5.971028880643088899e-01 5.772102292799887735e-01 -4.794443910021302657e-01
2.542701708508093850e-01 2.851276825830624875e-02 -6.552408848907682604e-01
-7.945079273027608746e-01 3.330841750258359268e-01 -5.337580427791012161e-01
-5.650535234359854719e-01 8.081913831201881226e-01 -4.216369408747949743e-01
-8.232220092442930071e-01 -7.734469031569492226e-02 -6.376469145688138385e-01
4.304274338897082219e-02 2.051889775327364607e-01 -6.012453362783360955e-01
7.599764572799903167e-03 9.199104842532138671e-01 -4.167886564961311158e-01
-5.311928718910352565e-01 -1.821320161720761666e-01 -6.765889092508177161e-01
4.210574118744477290e-01 9.997160302643685881e-02 -6.438642521303122868e-01
-8.356327611020432089e-01 -1.238680199344835940e-02 -6.205012647005572202e-01
-7.853889202141403625e-02 -5.144431138942394677e-01 -7.804456142550622033e-01
-6.033759064609092171e-01 6.695769029903982927e-01 -4.555360147250119285e-01
6.597836516640586124e-01 -3.559853324285846554e-01 -7.705032944782876925e-01
-2.025363803569754095e-01 7.249327403802988679e-01 -4.579910140246409855e-01
2.178608361245581437e-01 5.119950180617180990e-01 -5.299471091935946676e-01
3.861998615068870100e-01 3.907192196107387994e-01 -5.679796975140330995e-01
-5.518486610997909159e-01 2.345466890267450255e-01 -5.690519817010089021e-01
-1.397349241741317229e-02 7.174438833058248699e-01 -4.677302390178479374e-01
1.467244024566901894e-01 8.350041528521879863e-01 -4.442978986607115655e-01
-3.278549175916063013e-02 5.813801302868768506e-01 -5.017855854832873330e-01
-5.283162532389558130e-01 -1.184203904300200477e-01 -6.603964782413279666e-01
-1.137605603822571532e-01 1.339398616349461203e-02 -6.438451621325597118e-01
5.368391211600853641e-01 2.699342004400950845e-01 -6.051524194234197962e-01
6.628512472360246210e-01 -1.083316339739465173e-01 -7.072250486841962225e-01
-4.045417882580791269e-01 -1.970853833348364115e-01 -6.856710329700703710e-01
-6.219390775088944334e-01 -2.364883642830553911e-01 -6.867411852459089916e-01
-7.278211431031096357e-01 2.475147126417049093e-01 -5.584322243333550428e-01
-2.308048087657827707e-01 4.774462084922214133e-01 -5.201810899753560591e-01
1.974881214823174524e-01 -3.196151479792471162e-01 -7.420148627398737151e-01
1.957568298744920277e-02 7.720413863877330085e-01 -4.551435966149863233e-01
-4.067754849622358670e-01 3.045714539522031972e-01 -5.571417721062686956e-01
-1.656121219701785913e-02 -3.590417043072898218e-01 -7.432299294766190334e-01
6.173060349611281250e-02 -5.503154385131317494e-02 -6.686434519728089443e-01
-2.289601939400094932e-01 4.204410798664583448e-01 -5.348523355935220769e-01
3.688249441325988642e-01 -4.871442482627108550e-03 -6.685399876991319212e-01
-7.422697667934302634e-01 5.996375151124075931e-01 -4.676806936280927807e-01
5.037580427313466114e-01 1.953237622514948924e-01 -6.228822874320285585e-01
4.880427095389913150e-01 -3.871194983788931454e-01 -7.713503235130220181e-01
1.061594683153658791e-01 -2.461418616425258832e-01 -7.194154181978461571e-01
-3.600622032953704754e-01 -4.788274013123455797e-01 -7.596490682479273282e-01
7.471527779738768027e-01 4.292279006704408095e-01 -5.730934263706027876e-01
-1.312072464723313958e-01 7.491967672124333344e-01 -4.547376679467987626e-01
1.746154431074263937e-03 -3.691740236610370762e-01 -7.465834737511110042e-01
-6.509706257509113581e-01 5.549931055673451574e-01 -4.828980058496482597e-01
-2.393428913873511255e-01 3.265973453110626590e-01 -5.584479702489558717e-01
1.078676865088615822e-01 -6.296158044277555543e-01 -8.176651265897746379e-01
1.385260381041993616e-01 -3.510853350155068719e-01 5.596783956094378842e-01
-1.462712974779677155e-01 5.079224928290938523e-01 7.914195748979497846e-01
-7.988103388014207440e-03 4.761568036636504297e-01 7.775505607563361066e-01
-7.674591025948375167e-01 -1.820090174298746866e-01 6.405478499512550217e-01
8.585591095834056441e-01 -3.733503048804090452e-01 5.241098814672787709e-01
7.761057383295782985e-02 2.179538576393382776e-01 7.078934261956524310e-01
2.228306508297838995e-01 -2.455964412040542721e-01 5.831890802512680327e-01
-1.041505186023807261e-01 1.993972330548080818e-01 7.106822119176691155e-01
9.252759291861678559e-02 -9.278543845526294742e-01 4.139192905865792249e-01
1.812384181246571302e-01 -7.751614521026228832e-02 6.279471211366304262e-01
-4.844479839129566257e-01 -8.372360200209005843e-01 4.610537157550788634e-01
-2.104827644886437532e-01 -6.386195991429175489e-01 5.005399323182817550e-01
4.113298668256810120e-01 1.222298885615163005e-01 6.695425011722981878e-01
9.283009547787762772e-02 -3.711333967029214476e-01 5.564411352914139242e-01
-2.326889335210894916e-01 -5.432254538957628220e-01 5.258843491616073118e-01
3.662661121645834905e-01 3.519050725452123052e-01 7.302143667325424747e-01
3.352432268994445241e-01 -4.779819546149308152e-01 5.190295657111230199e-01
7.701582734201097014e-02 -8.156703704516377051e-01 4.432846360345961134e-01
6.603625883955580589e-01 -6.409903189129375622e-01 4.638089042171708032e-01
3.668417075860984089e-01 -9.241552556934891360e-02 6.164333871248319774e-01
-5.007019011610951420e-01 -4.607880996330002699e-01 5.581079669752627703e-01
5.187494229406738322e-01 -5.058492099167037903e-01 5.042827246037631106e-01
4.903834305977645691e-01 -6.626705460951705096e-01 4.653092365470634650e-01
3.353786013527411680e-01 -1.087639623355579066e-01 6.135529216958660603e-01
-4.602666623281302383e-01 -5.016869722859236269e-01 5.459595215973771509e-01
4.351735573476470664e-01 -8.937272179639296765e-02 6.143779054644754600e-01
3.492673421442600290e-01 -9.125673168369520249e-01 4.071831819418322840e-01
4.673961729450184510e-01 -5.567493060140052963e-01 4.933812518051948204e-01
-3.935700718476685123e-01 3.692853778641754237e-01 7.661833825787645047e-01
5.830338637816253472e-02 -8.146680835568463896e-01 4.443174684891315618e-01
3.579067253323538478e-01 4.363065012847085478e-01 7.521699884831525296e-01
-6.543479279054985331e-02 4.879725224952007334e-01 7.829586591052402067e-01
-4.878472447333550011e-01 3.445940686105788964e-01 7.637725631373607493e-01
-6.465652914577767474e-01 -6.397934630324902949e-01 5.183287981773644360e-01
-6.308071145469102969e-01 2.871312093228687856e-01 7.549908498809785318e-01
-3.481715141512875533e-01 5.389798521604138859e-01 8.077461753698004232e-01
2.746149102528346320e-01 -3.238257015157399721e-01 5.610123533228783543e-01
-1.197076394761419083e-01 -8.620312436588527527e-01 4.395755072323848101e-01
-4.319583859408211990e-01 -3.424849033782292329e-01 5.855449304829581925e-01
-3.207532904304736254e-01 3.167459942276280027e-01 7.497114389888551722e-01
1.398345383808755615e-01 -8.196907182312822560e-01 4.396495060960118884e-01
-7.199658556233710094e-01 -1.009450004993813904e-01 6.593321544056718331e-01
-1.150237995838193222e-01 -3.157446171667536161e-01 5.792441514909422162e-01
3.200951961611676194e-02 -6.567601083101733961e-01 4.858365419352242975e-01
-4.829885451851701622e-02 1.652471667149327250e-01 6.996221303901267730e-01
-1.794579258665605637e-01 -3.429459481327348791e-01 5.749527666408477122e-01
-7.876224826010701507e-01 -3.921297882600239260e-01 5.875881259680743041e-01
4.552453208834535969e-01 -6.809053202278778638e-01 4.620982669770103413e-01
3.614259741508121793e-01 4.374251637208448340e-01 7.523104097389659017e-01
-5.464092474385446874e-01 -6.357693669946116177e-01 5.152044329661877864e-01
5.018156341232468121e-01 -4.631875605837245669e-01 5.159076066494725499e-01
-6.296586760422824280e-01 -6.511684781395521426e-01 5.147151983529903996e-01
4.386628202451097747e-01 1.110455137294041744e-01 6.655452087316336973e-01
-6.690919430577123295e-02 -5.313561121513280527e-01 5.220463852457842835e-01
-5.468548527523764413e-01 3.438200359439030351e-01 7.660221219863883046e-01
-2.227711877932805895e-01 5.854941329742588962e-01 8.144531788348940982e-01
5.240893216384909792e-01 4.900788742102486495e-01 7.590435295958394279e-01
3.353663887326980841e-01 -8.174881516999554787e-01 4.321024423645298818e-01
2.891142635250076309e-01 1.971729993818642224e-01 6.937994976068474484e-01
-4.877740846096232930e-01 -4.002291520025922367e-01 5.730762942810787575e-01
3.975633635644454378e-01 -6.073832185947196649e-01 4.833144904210086024e-01
-6.706584058385431923e-01 -1.493245424879237060e-01 6.449004384058353301e-01
-7.949824250976533779e-01 -1.500533689063212051e-01 6.498710009010530975e-01
4.357947587583081983e-01 3.978770058124179165e-01 7.391001628442380733e-01
-1.962775578217361705e-01 -6.405928263436778680e-01 4.994454823660113285e-01
-3.814189277507726294e-01 -7.645349863534580681e-01 4.753931742598793697e-01
-1.724029365759430776e-01 -1.803209966306999756e-01 6.162961389508168075e-01
-6.799375369847100448e-01 -4.292310544167405872e-01 5.736223361944106092e-01
-4.897742825000827444e-02 1.344167686769592307e-01 6.917569314840418260e-01
-7.819416814343536082e-01 1.339045558146306422e-02 6.911757263106061977e-01
-4.414591669604338992e-02 -5.796834314294093682e-01 5.087291344837472362e-01
-3.145806014987741900e-02 4.750531819382610155e-01 7.782415777290645487e-01
1.730245595530910674e-01 -7.362435224407649637e-01 4.596372842953198035e-01
-5.234337843869841800e-01 -2.987689764660853009e-02 6.693748867287099280e-01
-1.630371814969139299e-01 4.670106451083302357e-01 7.816406020985960934e-01
1.987500760933493815e-01 2.255006474242799708e-01 7.048005304559326056e-01
-1.447000335474138699e-01 -3.181816159081179429e-01 5.798512372016456640e-01
5.540523015296003884e-01 -1.961966919346479765e-01 5.820970359100543501e-01
2.056941227136702410e-01 -3.382700551107560294e-01 5.601731852810083456e-01
-1.730087274852947637e-02 8.027783847440154996e-02 6.765820269635343109e-01
-8.263702504654305003e-02 -4.931810399456901250e-01 5.324725670921588438e-01
1.806025687349274711e-01 5.981955774262882886e-02 6.631348463850323949e-01
-3.675137661790595645e-01 -3.929883802244111268e-01 5.699415202934163815e-01
-3.426301374009297906e-01 -2.626821614418566875e-01 6.022709341203865696e-01
-2.177758543499654642e-01 3.947410771173401889e-01 7.654084467986207452e-01
6.534435051326391575e-01 1.693866127980199476e-01 6.715725303231618870e-01
-3.658859209510597621e-01 -3.718124309758643053e-01 5.752955633387439871e-01
-8.603745456905174949e-02 6.681425433250115509e-01 8.299412885258076189e-01
5.832051081393223591e-01 7.824988299690138760e-02 6.511528667099204526e-01
-5.120622786044468633e-01 -6.261338388991499748e-01 5.162465998773542175e-01
-5.777423246648424326e-01 1.850187862464051647e-01 7.266463219446487320e-01
7.198194334591008492e-02 -9.277433922516339360e-01 4.147999739391996510e-01
7.149309902435032615e-01 2.897105483948063664e-01 6.998278450573879317e-01
4.042387394552397484e-01 3.026331588840833892e-03 6.393175828253199189e-01
-5.481853549123641423e-02 5.058057784326083217e-01 7.870840359032796885e-01
-5.363354389200580830e-01 -4.580361259951182817e-01 5.602906769636084583e-01
5.145773139362419535e-01 -4.113352841672988647e-01 5.286537016080239404e-01
2.641277188977124157e-01 -2.483386412285202016e-01 5.807739402100995374e-01
7.078016276563491305e-01 -2.678760113066097071e-01 5.573675815985529303e-01
-4.485093985192682708e-02 -9.091169593455954434e-01 4.244152189340391068e-01
2.449377640412170043e-01 3.008012456851949512e-01 7.221634133459364779e-01
-4.526980377279728462e-01 -2.489086021530372353e-02 6.677172036167480229e-01
2.593897859418652918e-01 1.606103978290300549e-01 6.856715830826946023e-01
6.861378030810414419e-01 -3.629737307773892030e-01 5.339188549616731283e-01
7.921327914874567444e-01 -2.809369553800871167e-01 5.505254634641001399e-01
-3.090970159174551320e-03 2.857146687391623127e-02 6.627544626690602403e-01
7.685011420634798585e-01 -3.389377674514796879e-01 5.366560945571851038e-01
4.657657042789021817e-01 -6.853377609485916677e-01 4.605270497079166914e-01
8.515431315212799168e-01 -1.217407671084510812e-01 5.888192031689790662e-01
5.944605799796899293e-01 -5.010119167473264801e-01 5.023805712485254205e-01
-2.024466976014277220e-01 6.433632015261576687e-01 8.284260044111054766e-01
1.862386137304751776e-01 -6.266803073080776665e-01 4.871400469726496207e-01
-3.736061657037355599e-01 -3.944768417679321293e-01 5.698131597134176163e-01
-4.434698661879820647e-01 4.026641399373730446e-01 7.767990979434018506e-01
6.324533817170243655e-01 3.822695916421948725e-01 7.269465615972410255e-01
5.769634419890902199e-01 -3.485555539453408236e-01 5.421389941284637803e-01
5.271568138232808343e-01 4.890780222146033918e-01 7.586600421333340449e-01
-3.805939008834415271e-01 4.825680137470234610e-01 7.946482770775191717e-01
6.862491598576268004e-01 -5.132513509920662020e-01 4.954394344192032951e-01
-1.695768493221349593e-01 -9.729018439185595224e-02 6.374368574088783435e-01
6.394286453885505983e-01 -6.690118567794522964e-01 4.575030685174274470e-01
-6.093336386521288617e-01 -3.488896051547698551e-01 5.912629784232678043e-01
-6.355954677984938517e-01 -3.488411382867114274e-01 5.923647700295213703e-01
5.533253548401686484e-01 5.210892924672633209e-02 6.456995938177488847e-01
-3.679686836315708143e-01 2.628310792294223375e-01 7.378664527606211276e-01
7.373309020332067254e-01 2.612787151182799361e-01 6.916194055979181243e-01
-5.469184255039728493e-01 -3.138078559664286837e-01 5.976556937246392254e-01
2.541416829323103199e-01 -1.596582644833843545e-01 6.038925548919000796e-01
4.773899137218538535e-01 -2.513202771676576464e-01 5.711641087653818172e-01
-8.655038493628551544e-02 -8.196304157035674276e-01 4.490557555385576438e-01
4.356738666568477636e-01 3.660270723841070328e-01 7.309508040387575623e-01
9.668005495325224241e-02 -6.437061739335107058e-01 4.864960354342379167e-01
-6.278707334800420758e-01 1.010687162507619141e-01 7.072324270107300803e-01
-7.482787560252852632e-01 -2.902854615164807139e-01 6.120307607926285254e-01
-2.200647340382805850e-01 -6.088645358489780564e-03 6.628810340088331365e-01
1.625932896210538308e-04 2.963031662356843676e-02 6.628905914485186956e-01
-3.434462606494161907e-01 -8.077773451248680681e-02 6.488768371354701747e-01
4.923081765027987333e-01 5.377199369675463893e-03 6.362662015284891170e-01
5.193838047978563965e-01 4.110031081485208265e-02 6.442890642715716210e-01
-5.167317300037459482e-01 -7.318378375907257372e-01 4.893774485532115803e-01
5.219946897990997980e-01 4.671020372000774801e-01 7.532477776370140043e-01
-2.971921704535422926e-01 -1.016177125804751114e-01 6.416225914082501758e-01
-4.605469092622017646e-01 3.307450039130898634e-01 7.590943969875059150e-01
-4.681198251421905265e-01 -6.842628032309677755e-01 4.995413384077000418e-01
-4.936083741067422426e-01 -6.414052692747310713e-01 5.115712369810035964e-01
-3.770760059126287284e-02 -1.101981780370936276e-01 6.286619422090381493e-01
-2.988394095859455146e-01 -8.586674870896449097e-01 4.478673861675959156e-01
-7.841664058339699039e-01 -3.208264554395487966e-01 6.057001855930727041e-01
-7.691861918714428814e-01 -2.148604575660746294e-02 6.817173579800860361e-01
-6.652189962678560775e-01 -4.729073944699895282e-01 5.618295601873954936e-01
-5.313298906144696687e-01 -6.770691347985144937e-01 5.040051512192315064e-01
5.967510330811462982e-01 -4.972101214875633834e-01 5.032589135350372667e-01
-1.838481110399800833e-01 -8.774500957813757829e-01 4.382885481861196197e-01
5.866399451397507070e-01 4.490400115999719222e-01 7.459418616105893962e-01
-4.574933124419638397e-01 -3.563812831202781140e-01 5.830463420983924561e-01
3.076712580002595732e-01 5.080802801994804829e-01 7.726297055369177880e-01
-3.631126477940519459e-01 -8.441539152540882274e-01 4.542493780744407683e-01
1.036470911016418861e-01 -7.612497839022729362e-01 4.561129495078636853e-01
3.500285259827851797e-02 -5.866427757342395077e-01 5.036641514121991126e-01
2.660281159834263498e-01 -2.694809646010108417e-01 5.752821490614897781e-01
-7.257164349027316330e-01 2.588087844141950811e-01 7.516765971857722883e-01
-5.978700042658111613e-01 -1.867013910084885653e-01 6.323116574437486204e-01
-5.338082295239618968e-01 2.070996315936393939e-01 7.304771096072461001e-01
-1.639772288548223267e-02 -9.158946007534198852e-01 4.214996893106811027e-01
4.983135976667921740e-01 2.018167021788485477e-02 6.398073990508845732e-01
-7.332655235756966317e-01 -4.234527803883920138e-01 5.773138483866397941e-01
3.031284297489931778e-01 1.320029808473685284e-01 6.765330249331535928e-01
-1.641846644154720813e-01 2.103455568777641005e-01 7.159755674629085798e-01
5.128290172012270887e-01 -7.937023862104994887e-01 4.308307537174567159e-01
-2.313903815157917765e-01 4.419550024901844898e-01 7.780611362082584526e-01
7.830540699743320232e-01 -3.381075040835006956e-02 6.141725065880532242e-01
-7.418306232631801667e-01 -4.926705812908336868e-01 5.599476671868631739e-01
2.528566914416621736e-01 -1.287336375224847895e-01 6.118633305829503932e-01
2.527456664663564889e-01 -7.425347306039722928e-02 6.258162106017269855e-01
-5.567428904317175409e-01 2.915147839151037146e-01 7.530408507317027933e-01
3.660145052058501047e-01 -6.725667370759852437e-01 4.679345889211279919e-01
6.385816630628489143e-01 -3.710071775984468134e-01 5.338347982794572344e-01
5.028054220347603076e-01 2.249306058412705103e-02 6.402128442681634946e-01
-1.669723119625877161e-01 3.339185674820012162e-01 7.477289618696076889e-01
5.392384612458416271e-01 -8.204225556579903822e-01 4.228942208461189400e-01
-8.557415782724414610e-02 3.057357981540260727e-01 7.371369470405705338e-01
-2.836889456318745784e-01 -1.508321155563251414e-01 6.284623470722873195e-01
7.238836554725335271e-01 -3.471060233105373594e-01 5.364156233471254476e-01
2.665660342679968542e-01 8.025042877883409656e-03 6.463082621029955233e-01
1.582496507914031014e-01 1.999799285826285578e-01 6.999466156429170471e-01
9.322362820549816298e-02 5.596117305615759818e-01 7.947186684282396829e-01
6.599534599218885855e-01 -2.634826511789649661e-01 5.604772097587921165e-01
4.668907230965094746e-01 7.241678354910777160e-02 6.544843560989754838e-01
5.957012529202978524e-01 -5.846271369223221548e-01 4.809215341018351908e-01
7.002398367325878281e-01 1.494520368658166544e-02 6.300905086660701926e-01
-7.249926342043635508e-01 2.529356697992415914e-01 7.501429096330841650e-01
3.132665337228521807e-01 -7.828942994021087509e-01 4.418760648226232601e-01
-3.023917618390175033e-01 1.154512671773434557e-01 6.974133261805181005e-01
1.547297861576535649e-01 2.743339087232052331e-01 7.191290899735623965e-01
2.451412708758394510e-01 -6.875972988528459284e-01 4.691004080311375057e-01
1.659706667063047536e-01 -1.503540607424868891e-01 6.099321374927640926e-01
-4.250609060101881442e-01 4.452428656065197110e-01 7.869366754362532301e-01
6.242249936176126335e-01 1.027070653030709435e-01 6.557129417254278225e-01
3.440284160906198485e-02 -1.662101031738812129e-02 6.496287630669430602e-01
7.847812327877715655e-01 -5.041496951499403467e-01 4.936824154949209786e-01
-2.203924391411951067e-01 -5.012213481989581387e-01 5.361283645832600753e-01
2.068772675603611222e-01 -5.097408958471060653e-02 6.336790055747620887e-01
-4.549819809694566897e-01 2.584456933239899223e-01 7.403531365396951447e-01
5.540872643823514521e-01 -2.199728079120046587e-01 5.760083096834044403e-01
-7.064179236329880540e-01 -2.763875322830403602e-01 6.138525210676820665e-01
1.908868173243389588e-01 4.891899639020985679e-01 7.726377219417858155e-01
7.291047143537584541e-01 1.203835628783798267e-01 6.558879845138561038e-01
5.114870052080098262e-01 -6.713966800682374947e-01 4.621997194357594374e-01
-1.702495414882171654e-01 4.161682678458908380e-01 7.689228716874307867e-01
-2.398562691301618366e-01 -4.181124002433346254e-01 5.582137093193461075e-01
5.129257351450717817e-01 -3.876008636522616790e-02 6.241107112390811285e-01
5.211985126737447294e-01 1.905970935977259473e-01 6.824886747902587647e-01
7.571252972937850823e-01 8.729508385864555298e-02 6.462541736733115050e-01
-4.743525289827034697e-01 1.588260376409684344e-02 6.790544856643143667e-01
-3.219580740744688030e-01 4.424834153113544333e-01 7.819533164689713711e-01
8.557889916715642753e-02 2.338479918411487668e-01 7.116321801664521329e-01
4.052152772545057346e-01 1.107536788199032923e-01 6.668579495953403935e-01
-5.328293479307329994e-01 -6.412907899291849997e-03 6.757719936546142669e-01
-7.941069050911566674e-01 -3.253044348210470949e-01 6.049660595965462573e-01
-2.786321264517047647e-01 5.062455052560487223e-01 7.964807643852238606e-01
4.259980091446690098e-01 -1.554670368397924329e-01 5.978367365680221646e-01
-4.716136418647067785e-01 -3.692401888793309661e-01 5.803398769738115082e-01
8.181281854399861109e-01 -2.811107802357213151e-02 6.141768335220822994e-01
-4.269185991242733375e-02 -5.062687653605808524e-01 5.274647948391676389e-01
-4.531812100337046512e-01 -2.392495528765685164e-01 6.128560997937743116e-01
-2.718162876441992948e-01 -2.900509557370375968e-02 6.591605914993826643e-01
3.302672937519478703e-03 -2.910156074494948952e-01 5.806670195824497060e-01
-2.459665284907528726e-01 5.803766174608396833e-01 8.141051478407579367e-01
-3.845274009904675605e-01 4.054003775301279894e-02 6.816413101752010206e-01
2.079582610747827687e-01 3.088676454283466599e-01 7.257625811434139651e-01
2.538482038034952093e-01 8.164053768891774143e-02 6.656832122640202742e-01
-4.193660979751980822e-01 -3.176929844444534301e-01 5.913699288225349182e-01
-3.053048904385153861e-01 -3.873894884704850994e-02 6.580576444988194273e-01
-6.559764240631540400e-01 2.343112243418477292e-01 7.425116859308452666e-01
-6.207030771120229939e-01 -1.919882806295951025e-02 6.761436242236009697e-01
4.010477945138936351e-02 2.582256004058840482e-01 7.197597926901988519e-01
2.602607503209778406e-01 6.004050001755865118e-01 7.982337897942866078e-01
3.389266982459594457e-01 1.854524825390303500e-01 6.887324544854546149e-01
1.501155311049361674e-01 -1.040540603410604059e-01 6.224437834616804999e-01
9.062518134198729869e-02 -7.144476740514979496e-02 6.332603272800682026e-01
3.867843921211690239e-02 -2.078273701518148775e-01 6.004978297590757297e-01
-2.376470229879996399e-01 -3.377688712087077438e-01 5.786920041284808747e-01
-2.684517459941671569e-01 -6.091009451783595541e-01 5.105020870369297858e-01
1.613523754358502649e-01 6.150406437896417389e-01 8.060837562468230466e-01
3.143693621186505749e-01 2.140044749188166340e-01 6.970611510874579198e-01
-2.323494667634828231e-02 5.579201619392821776e-01 7.991164737447603583e-01
6.989234968763841094e-01 -4.707855131194468301e-01 5.057859912199741403e-01
-1.861954603421931698e-01 -4.019215004526121432e-02 6.527447383069681086e-01
-2.755964842813005689e-01 -5.127598245335444060e-01 5.354641807336132375e-01
-2.387112203213969663e-01 -1.604679018161994652e-01 6.241295982491366079e-01
7.826715876279241590e-02 -4.507381256095679412e-01 5.366644425967456167e-01
-4.350738177644400961e-01 -8.043207322227912126e-01 4.674327267510995365e-01
-4.871865093318054618e-01 -5.809524836033640449e-01 5.267822615269458497e-01
2.512782337623438167e-01 -2.107714852776061409e-01 5.909250820020653938e-01
1.204481584912711345e-01 3.569825688373548522e-01 7.417112556610042651e-01
-3.278647577793066814e-01 -2.012469705101813944e-01 6.173873763935416870e-01
1.138229013404628287e-01 -5.642393095823698967e-01 5.061304125803189891e-01
-6.492186657846510389e-01 -9.948963546580641762e-03 6.796946916121335835e-01
1.421105687664511730e-01 -6.333276922416305327e-03 6.477947885537056472e-01
-1.507695689300813657e-01 5.064665353860532404e-01 7.912334091797916802e-01
7.108610973470183003e-01 -1.453525982099677189e-03 6.254514398245355489e-01
-3.697725259412542043e-01 2.041073559296113782e-02 6.758756531967919923e-01
-4.785293444086057280e-01 9.092480126074661828e-02 6.984404120973105590e-01
1.498923705686016350e-01 -8.013797835422503679e-01 4.439203448836331334e-01
-6.097811453643208202e-01 -7.318556097185274778e-01 4.932327377592423678e-01
6.853603588087477938e-01 2.186661602052454578e-01 6.828653553887609196e-01
-8.906675957603502058e-02 -9.653314348563308833e-01 4.118570610008517874e-01
-1.518279318153547552e-01 -1.449595677640691249e-01 6.244960582883128941e-01
6.937639242036428566e-01 -2.016338866888367221e-01 5.749095164057339558e-01
6.114515776510535128e-01 -4.332368151947784685e-01 5.190278658092702946e-01
7.938931162654231377e-01 2.916666007272882347e-02 6.298466659676299484e-01
-1.022286391115136660e-02 6.649429259299152184e-01 8.259771959640803685e-01
-5.006237763160173992e-01 4.850243951824380617e-01 8.002562038651827026e-01
-4.879205049544559358e-01 -7.640750185607517175e-02 6.559887490568091506e-01
-3.272190665019358846e-01 -3.694889039962693800e-01 5.742864806513978682e-01
2.265303325080113006e-01 2.034555787715258413e-01 6.980040759428211006e-01
4.360191494651890487e-01 -4.772323315765799601e-01 5.150411405676920129e-01
8.463528617247785268e-01 -1.400003908845056932e-01 5.843595869369747620e-01
4.318455065496585865e-01 -5.582640361666825202e-01 4.944681420686321549e-01
7.964198385217337028e-01 -4.284723226729680312e-01 5.125749133999457641e-01
-5.356240711114110820e-01 -7.038115897037612312e-01 4.973365484148771221e-01
7.695519983581042833e-01 -3.599139108666412623e-01 5.312420899204443048e-01
-2.143026998883904022e-01 -5.797452090581782791e-01 5.157716947451488343e-01
5.954110143646293984e-01 2.288697998453194937e-01 6.892089838203967478e-01
7.924574750728802242e-01 -3.421501813318178487e-01 5.348398896590881302e-01
-7.302342489108649692e-01 1.146476231319678261e-02 6.885377936173925351e-01
-1.754477923705345943e-01 -6.889287286707377334e-01 4.862062393225310974e-01
-6.310536200318143107e-01 3.106510076584647617e-01 7.610227275568826055e-01
-2.227495056864435274e-01 4.249549548537472354e-01 7.733502645838421508e-01
-1.532145471729460806e-01 3.733430795166569061e-01 7.572519214322458447e-01
-2.531588255284114020e-01 -7.729029132484552811e-01 4.679303420495817822e-01
7.205185335006063507e-01 1.389494829388138869e-02 6.289804242770196119e-01
-1.992638107339221934e-02 -8.628830289261155695e-01 4.352183420774196621e-01
-2.500971609553799824e-01 -5.427093495610613161e-01 5.267386059381756747e-01
-2.414170371082884625e-01 -1.915193795467111382e-02 6.604222346714093694e-01
-2.102211054266768242e-01 -6.357710307312760545e-01 5.012583825063938736e-01
-4.013240802559807086e-01 -6.655294236294820864e-01 5.015667537634425077e-01
-2.358120307150891881e-01 4.805093121363581687e-01 7.881154136703395485e-01
3.827788948977342565e-02 2.928516859489729840e-01 7.287007124833306815e-01
8.963170326474546867e-02 -8.502709594624930922e-01 4.339026995073255732e-01
-4.607554392734009574e-01 -1.699450535227137737e-01 6.309139632547388077e-01
8.433494737357859483e-01 2.508286864836436342e-02 6.267495847850353963e-01
-2.923202266359230528e-01 -1.964854619134963343e-01 6.171319965102962657e-01
3.405899689195027169e-01 4.320263582662224877e-01 7.517924925096978184e-01
-8.780046102154751009e-02 1.076255001831817187e-01 6.865081434814926942e-01
7.336576016970405290e-01 1.391266430515142039e-01 6.604978172335466136e-01
5.364729684955317213e-01 -4.358210678306311814e-01 5.214764662071686985e-01
6.742561611286091994e-01 -5.939802028977235748e-01 4.752683331729797289e-01
-1.296960628258958526e-01 -1.028049458900558849e-01 6.343706224400904592e-01
7.504011584916046029e-01 -5.014696094525253889e-01 4.957947247067639451e-01
-1.772408336083938774e-02 1.505562413109727549e-01 6.945925981455318698e-01
1.720602089903147114e-01 7.196493320049852926e-02 6.665987148132344053e-01
2.854822396092309145e-01 3.420142270098553983e-01 7.310331096253429584e-01
3.441916456726912821e-01 -8.961315320089870973e-01 4.116016989097091017e-01
3.630823512999061808e-01 -5.394402375243849690e-01 5.021399080113285729e-01
-8.999275236285320112e-02 -2.439873336146157756e-01 5.965774693192662514e-01
3.346022670604956728e-01 -2.608007334008882183e-01 5.746599377186233371e-01
-3.586882880482465952e-01 1.479762383478656559e-02 6.739787652421217468e-01
5.757885668989928263e-01 1.236369512403569376e-01 6.630807329258088245e-01
-1.807998958271420376e-01 1.436652402707874199e-01 6.995929776368619013e-01
-1.240607320908408044e-03 -3.491944026148529612e-01 5.659602663505719500e-01
-8.116331959375652216e-01 -2.866162915747580767e-02 6.816410004576913817e-01
6.283090617750337614e-01 -2.077474777692873975e-01 5.760594582268947494e-01
-5.429133608291986102e-01 -9.903137631848972500e-02 6.524776676310213297e-01
5.926925637780259271e-01 -4.939604227116599633e-01 5.042592689226405023e-01
4.802552536632780367e-01 -6.974019035576886072e-01 4.568372799200753342e-01
-7.932074670095449198e-01 -3.912188686102250901e-01 5.880530181414757029e-01
-5.953228570481301496e-01 -4.354539862085440860e-01 5.685191582479285355e-01
3.612663712074042355e-01 -1.645079500357009283e-01 5.982072107450608911e-01
-1.074459883357960048e-02 -6.714014476353734606e-01 4.838615051636623310e-01
1.944000515532969542e-01 -2.520121270528061230e-01 5.827258523660912015e-01
-3.916909419606269815e-01 -2.242531172336301171e-01 6.141448444357444636e-01
2.980149051987031616e-01 -1.935739295926457715e-01 5.933893709183089005e-01
4.315821833466360058e-01 4.283431185375294326e-01 7.470749883954045378e-01
-2.640995661619884860e-01 -1.060073525599940225e-01 6.391260001872141050e-01
-4.639377743265654108e-01 -1.264358046985958051e-01 6.421854194055798271e-01
2.918895127816542034e-01 -2.493211831033518081e-02 6.368199521139588093e-01
-4.300022902433432020e-02 -1.202631962514376096e-01 6.263045944254609365e-01
-4.570864491321198209e-01 2.987964883477090550e-01 7.507712384606781697e-01
-3.231456025682183375e-01 3.747622904496291651e-01 7.646642879778428048e-01
-2.037115611889824540e-01 5.972897812439564857e-01 8.166825336615112230e-01
-2.457288164780979944e-01 -2.312871168588264414e-01 6.062892223419452664e-01
-2.338022754505108547e-01 -8.301163640659020571e-01 4.524793375569021170e-01
2.372742293362702440e-02 3.566676387287169292e-01 7.456427573101187534e-01
-5.940670094724271877e-01 -8.086677719756805993e-02 6.592501914935591234e-01
8.676976204244508661e-01 -2.255103611827823373e-01 5.615814969316800243e-01
1.094221661019411235e-01 -2.382743296352072271e-01 5.897680888112409869e-01
2.055968099823689277e-02 3.643074080340576448e-01 7.477301309299663190e-01
-9.558965300379772267e-02 -4.592555521185312517e-02 6.475183697341547751e-01
1.811861299808279757e-01 2.374589083807446821e-01 7.085907228301895344e-01
-3.506826234404005205e-01 -5.264802019461510829e-01 5.350661172615697181e-01
-2.728716179314281676e-01 6.186053801537261254e-01 8.250087264413008548e-01
3.251565761685885070e-01 5.360301629728114053e-02 6.555469248779556279e-01
-2.039989872261773751e-01 -8.558419704206531309e-01 4.446566554147950989e-01
-1.474325494212392340e-01 -4.397556107725408836e-03 6.603010950737349116e-01
5.281172048176819844e-01 1.254140218305088879e-02 6.366149992416691994e-01
-4.005594984049742346e-01 -4.471701818556643171e-01 5.574404241490734657e-01
-5.845655825350505319e-01 -1.878655353615026891e-01 6.314617187922955122e-01
4.875116578275429102e-02 6.188195804242550002e-01 8.117221369997661418e-01
-4.536689661995765288e-01 4.216529857311400176e-01 7.820837889099432338e-01
-6.234442963995014964e-01 -2.739730495720477665e-01 6.110288091539823885e-01
4.931599192827101352e-01 1.567872221489965689e-01 6.749955943207637254e-01
1.637890610208797004e-01 -4.774336595234988934e-02 6.362935190895017135e-01
6.262535201561257869e-01 2.425577500467016590e-01 6.914340421483826660e-01
3.092132318502075483e-01 4.542201850711489741e-01 7.587762206009046606e-01
2.297327269087993673e-01 4.483539583240102044e-01 7.605713000275107216e-01
-2.081461281162705346e-01 -8.796287690881147148e-01 4.387386745396381627e-01
1.400201693963994409e-01 1.199378504025580411e-01 6.802100448441773528e-01
5.817292574115229264e-01 -5.405128807131743818e-01 4.927954596204538462e-01
-3.765487440653952356e-01 3.546995162141491353e-01 7.617429678796001635e-01
-4.084030173103624928e-01 5.619370036386962530e-01 8.161222756032959769e-01
-5.240566917518221235e-01 -5.163940378404895393e-01 5.448402606787275948e-01
-6.403134498089129156e-01 -2.303956233834141554e-01 6.228854716274763170e-01
-3.344378790752830510e-01 -8.884194709263400214e-02 6.464385163806879442e-01
-5.584544360340009117e-01 3.864395998954420763e-01 7.774149577101681086e-01
-3.631526894271563388e-01 -5.437418161426224583e-02 6.564542564631224986e-01
5.621214107563129447e-01 1.137440953825932279e-02 6.349056710361206113e-01
-2.347763517698036456e-02 5.325518931359437547e-01 7.926316342952895999e-01
-4.404692108771047776e-01 -6.093630272797219138e-01 5.175705484482537866e-01
-4.133301085259000751e-01 1.675772696094204525e-02 6.767472308420700022e-01
-6.800908991052233288e-02 -4.690401213743481956e-01 5.380464512618214901e-01
-2.303303134633325200e-01 3.898685815967849466e-01 7.646817461333570431e-01
3.126579425242493118e-03 -1.047261020144380807e-02 6.525002957524516090e-01
3.919660073428312130e-01 -6.597018934966032422e-01 4.701517982141188434e-01
2.201711047374416419e-01 7.937089916030047598e-02 6.664991086589880931e-01
1.404819974771613633e-01 -3.853663732395186670e-01 5.508204624888431988e-01
5.014917028438315993e-01 4.401623533053367621e-01 7.472010466603933310e-01
2.103338174286961126e-01 -2.163778409273347803e-01 5.911881559843338296e-01
2.461841892294386672e-02 -1.369470196502036163e-01 6.192281912706351088e-01
4.301952886448530688e-01 5.451890602005353692e-01 7.770479806800715261e-01
5.567535596379780127e-01 -1.554622757475804529e-01 5.924140051217157144e-01
2.445288431901070925e-01 -9.429028351023522880e-01 4.037612575012031746e-01
5.938997717706271384e-01 -6.646911983500752852e-01 4.604978751902883416e-01
5.631178820592376288e-01 -2.482358057777978022e-01 5.683976760891767954e-01
-4.385515734712884806e-01 -8.473601757358741882e-01 4.565578236921932764e-01
2.072098681934500530e-01 -7.985005664977504747e-01 4.422798739904201248e-01
