-3.008467829572308294e-01 -7.136547631150177429e-01 1.266179376177820615e-01
-4.360972935559228603e-01 -4.809424316578923553e-01 7.294834334638994333e-01
5.583459820202602703e-02 5.176047070022499197e-01 6.583675620356761460e-01
5.509735387001082341e-01 4.424659017100213698e-01 4.073475360861339989e-01
-6.300467346825771031e-01 2.262035807708669410e-01 -5.498748596457124771e-01
7.149176207519565285e-01 6.697309111486999811e-01 -3.002114321168210531e-01
-4.077319222690464207e-01 -3.813257272778763363e-01 -5.386655961822669481e-01
3.781580505073380838e-01 -2.318841482631474604e-01 6.290130788733059308e-01
1.541182786566629714e-01 -5.313189997155789435e-01 5.169901582938100093e-01
4.670422963302704455e-01 6.490071170949784918e-01 1.766130586992022133e-01
5.758878303212539018e-01 2.001948819925673528e-01 5.361878177535823742e-01
1.433347827593976775e-01 -7.986676019984292330e-01 -1.374759824178235501e-01
-5.042157127505443315e-01 8.253843611663398416e-01 -6.574687812699463174e-02
1.381004472600929900e-01 7.456675062045864388e-01 -2.513769475920146768e-01
3.672380347721016514e-01 5.060191361355420581e-01 4.670776819214560449e-01
-4.757055249365489402e-01 8.856796050178997737e-01 1.710220437597776699e-01
-4.201326372307964685e-01 -1.617523683254769029e-01 -6.392459097499156861e-01
2.894292588058811760e-02 7.902362494542946036e-01 1.664182734770877081e-01
1.412617315205245971e-01 -7.479005904998414778e-01 -4.404422362586636885e-01
-8.587062523828765670e-01 -2.087800766827158094e-01 -3.787449686111343805e-01
5.746891266034042101e-01 5.773575448736361082e-01 2.266514760153601482e-01
-3.681064829346903933e-01 8.651814575510972105e-01 1.168486148052677032e-01
-7.959977665784421230e-01 -5.853074393294345201e-01 4.461381721139445061e-02
5.459357474406866251e-01 -5.240293289980042513e-01 4.043698457594613882e-01
-5.167185534811944425e-01 -4.124889975506472739e-01 -4.452889160586605000e-01
-5.047402993826227702e-01 -4.571935544929370820e-01 -4.102300785648374526e-01
-2.520792244068855575e-02 -4.736347670473277094e-01 -7.050819809072615962e-01
-6.324307062928826717e-01 1.326924221654135309e-02 -5.628692733422360206e-01
-2.161601304289568343e-02 -4.091816769456116387e-01 6.815569780124242083e-01
4.071292133460275298e-01 -6.013166777079537173e-01 3.722170265693733882e-01
-1.681142523288610413e-01 9.266728766156465125e-02 9.287299222780203145e-01
6.106327568986421456e-02 5.777323159343517034e-01 -5.749500106197593663e-01
-2.432401340486139152e-01 8.486932938515967528e-01 1.439206809114447205e-01
6.572551909563758565e-01 -1.055501115441098287e-01 5.333503385733430191e-01
7.544939937017459963e-02 -7.835746461955566122e-01 -1.792744018205447709e-01
-5.036205818466552575e-01 -6.494865140358881961e-01 -6.088552933389385080e-02
6.627422772590143563e-01 3.372075594767590112e-02 5.288482596180967832e-01
-1.912543702409288671e-01 -9.561904656995928731e-02 -7.702756389430486239e-01
-3.705346307540344775e-01 8.720574063952403199e-01 2.778003024913327512e-01
4.705832495934736404e-02 -2.070653863238823555e-01 7.731456882644123230e-01
-5.865086302025469822e-02 -3.468017413524016601e-01 7.396431730653216796e-01
1.645158073195297499e-01 -1.892232237919272697e-01 7.316429932410650760e-01
1.678202638460472018e-01 -6.392865639160095759e-01 -6.645536102427708203e-01
5.744863449688673018e-01 1.920797758816543133e-01 5.397029732239493338e-01
8.297702122761390076e-01 4.640725844634757680e-01 1.976804590470346290e-01
-8.287089831946239937e-02 6.870727708361846764e-01 5.610850626463244062e-01
-7.248762306583147463e-01 2.027291597436353954e-01 -5.123625718405315776e-01
-2.722361677505531485e-01 -1.429152850260090590e-01 9.269020206804053919e-01
8.815359701777926438e-02 -2.727897094269789435e-01 7.281227143129533896e-01
2.548154669765929636e-01 -4.148624223817212742e-01 5.839766384355830064e-01
2.609355871640299251e-01 -2.201416442938026186e-01 6.813262170371983117e-01
3.257840346850006674e-01 -8.081567168811261137e-01 -4.419265526281122014e-01
3.528026642188235584e-01 -8.365282227188852726e-01 -1.941961088428065807e-01
8.636186748671728086e-01 5.397742337276110192e-01 6.036777649862037215e-02
4.029579138846343112e-01 -6.991130772336365817e-01 2.433790279586349747e-01
-4.238537507415627292e-01 -6.725212230421724335e-01 3.186035648441178370e-01
3.894648174053220169e-01 3.356789393171562552e-01 5.807742872313141902e-01
-1.435280769123856159e-01 7.009070933027747863e-01 -3.536590790736102163e-01
-1.932742339674830417e-02 -5.968457065285697194e-01 -5.850795210642442123e-01
4.021400309221055958e-01 3.541834878112977703e-01 5.630409675680071446e-01
7.109331783553662909e-01 -3.882604022811557698e-01 4.320822715914773293e-01
1.336681624929828838e-01 6.689895789103010859e-01 4.211394484383966796e-01
9.400664564805053525e-01 -1.098926981746420339e-01 4.011340196580895356e-01
7.739178125391647789e-02 -6.659162075309464912e-01 3.512619535546955274e-01
5.093192966053160520e-01 1.337785053230347299e-01 5.901196618052474419e-01
-3.138416268530074271e-01 -2.951894325076646064e-01 -6.460738215872185997e-01
4.795005829485348703e-01 5.798633140010468479e-01 2.963364852014823692e-01
7.392791642759536375e-01 3.442847875399137614e-01 3.681530332732090294e-01
-7.596324277523699431e-01 -1.411951043405529627e-01 -4.637032290770913279e-01
-6.546630030785890453e-01 -2.266228280192494338e-01 -4.861119936260838159e-01
5.044055522610964015e-01 1.888652196209447132e-01 5.782836592680123955e-01
7.338344327908244979e-01 -3.741941612286868168e-01 4.297801603456528063e-01
5.836312955918906420e-01 6.915437664370412962e-01 -1.452867651217262801e-01
6.074237948252264596e-01 6.481459849506965298e-01 -5.088902650204403244e-01
1.875842191469686560e-01 3.567242869449531173e-01 6.856121283296846558e-01
-2.985946107955795518e-03 2.012390313167365941e-01 8.396711861782795161e-01
2.396133775830915080e-01 8.708443709086467754e-02 -9.585373349761188155e-01
-5.045312973429501024e-01 3.822195852439269625e-01 -5.475513787867233306e-01
-3.569908588411495054e-01 -6.523732473168396551e-01 4.054009091200067583e-01
5.204567664603713117e-01 6.976313379724514707e-01 -6.299241636865102190e-02
-4.997323971202346504e-01 -6.729063967609162367e-01 2.623453594801544164e-01
6.967076339527357443e-02 1.607329935097777662e-01 8.092649173634662851e-01
5.741892073991190087e-02 4.755608425733845457e-01 6.901962900030231829e-01
-3.134333671101911523e-01 -2.986570443663709717e-01 -6.445918431805011117e-01
2.117118481136938124e-01 -7.857897247777233529e-01 -3.918011545161074749e-01
1.132716357808127988e-01 5.961441659798492054e-01 5.412622333119178064e-01
2.365726907106426302e-01 6.987286562191462325e-02 -9.612688052670177452e-01
-1.547008474806620681e-01 -6.857185847109501520e-01 -3.178720642336413382e-01
-2.139770634774946188e-03 -5.372092664902136105e-01 5.529528307251623254e-01
-9.729627377672693533e-02 7.070354807338102843e-01 -3.490629082003111061e-01
-5.287789801798484790e-01 -6.695150403725210753e-01 9.592847449067672116e-02
-8.611841613930375505e-01 4.204485600618695362e-01 -3.908840114231728058e-01
-1.137985664405451736e-01 3.292476774949157359e-01 8.646018918458454605e-01
4.252022061008263187e-01 2.738203419538438183e-02 6.458288345076683701e-01
-7.498599236451826133e-01 4.459379882136886852e-01 -4.218209696125935770e-01
5.929327285599759190e-01 6.812540480656474884e-01 -7.878409164174680901e-02
-1.137511007012357855e-01 6.188472080718451229e-01 6.720766821827220960e-01
4.296212861468615696e-01 7.155123429178568140e-01 -2.624965943065526650e-02
-3.031434003293285995e-02 7.685270621757680498e-01 3.416647978638832073e-01
-3.969679162648938608e-01 -5.250437351046024492e-01 -4.067066622491991024e-01
2.166439784227924825e-01 -1.431095919676997896e-01 -9.673830409609405212e-01
4.251868382884175790e-01 -8.511772748404842215e-01 -2.571339955252439635e-01
-8.183638457113419085e-01 -3.391005875035050798e-01 -3.161705533120691691e-01
1.430689169686109596e-01 -7.615570391426869090e-01 -4.007778964490980589e-01
-4.313128451330805468e-01 -4.562751054601994483e-01 7.580438546950141188e-01
1.902000256401011058e-01 6.777887608509585160e-01 3.581850773750102634e-01
1.894162450755705884e-01 -6.475012346431018306e-01 3.632044970826799335e-01
1.582970213685091498e-01 2.474733089867926783e-02 7.731058023512734634e-01
-2.260860570383546250e-02 6.462856930798372979e-01 -4.629440307893238349e-01
4.259713685471115674e-02 7.950259664603741561e-01 7.466316389639048035e-02
-3.747389330460624279e-01 -3.902031151986145030e-01 8.097292732310581442e-01
-4.027653322242831235e-01 -3.533468674715939395e-01 8.505191763266424232e-01
2.859978857550200537e-01 -8.253143013878694312e-01 -2.247357154305673343e-01
3.863299919149943418e-01 -8.084168578824524332e-01 -5.121076873118666217e-01
2.096463624574392837e-01 -8.030503477604994389e-01 -2.976768711605748408e-01
-7.221277991532205898e-02 1.854514835858942223e-01 -7.989908339854343566e-01
9.314903922625993316e-01 -1.962546988888800026e-01 3.983874386160545789e-01
4.101755483712863914e-01 -1.373798328132995461e-01 6.402413867046642393e-01
1.673579764697863403e-01 2.507393672103149992e-02 7.688551449486352718e-01
-1.785570636418472579e-01 1.166989815246982365e-01 -7.697880220067022661e-01
-4.233195545102079738e-01 -6.533348306136714800e-01 -1.384079915800568994e-01
3.580856874369972576e-01 -6.619465745126035250e-01 3.080074130087979145e-01
-4.861676794917545175e-02 8.127695378416963656e-01 8.848639260127352801e-02
-9.541213066455104252e-01 2.177826127713852755e-01 -4.070286739443444435e-01
-1.693479672185517204e-01 -5.520919433030496704e-01 5.746668307425371047e-01
4.599423029008651853e-01 7.097384098350083548e-01 -3.993020264191723956e-02
1.217671742117974569e-02 -6.963014734283488050e-01 -4.462840612943347329e-01
4.969623379368232063e-01 -4.873545447313335499e-01 4.491328709890075599e-01
7.568683383522278874e-01 3.918011313900597870e-01 3.199791414431228387e-01
2.522821707832182403e-01 1.796902495952800993e-01 7.129900427375132077e-01
2.515618732749071162e-02 4.915549919191790351e-02 8.364879058893109898e-01
3.204695642683100809e-01 6.820624377467142674e-01 2.327325752135153691e-01
7.674476543077825008e-01 5.926573223770815746e-01 3.389558546567485176e-02
-7.810084025169620192e-01 -1.202169535955573548e-01 -4.593807404689602691e-01
-5.625630770040030981e-01 -3.102897866391887693e-01 -4.933758163548829789e-01
4.497592484417570202e-01 -8.490523618278785767e-01 -1.765890519484230037e-01
-3.613881703026163295e-01 8.646360429960483485e-01 3.416492862625972182e-01
-6.896741174896064974e-01 -4.871805835582244115e-01 -2.449933469613945203e-01
-1.005087453457561564e-01 6.775578700096495099e-01 -3.997788024219788294e-01
-3.914120929635550583e-01 8.752704868341446565e-01 1.897585160872703736e-01
-8.226283821867426405e-02 8.151289562730931193e-01 1.227940604331053190e-02
-3.095049110185375540e-01 -7.139618926019456469e-01 7.244825764981538407e-02
-3.634517440494565155e-01 7.546116370424609254e-01 -2.264609930887112321e-01
1.056800951421177359e-01 -5.102360273925743428e-01 5.522606020173211894e-01
2.875018709991137289e-01 -2.990157412780484192e-01 6.384746286185181141e-01
-1.435195639649678168e-01 -5.883697390624866852e-01 -5.064378818254724468e-01
-1.327415844360244068e-01 -6.982527023579745418e-01 2.870093651945146984e-01
-4.013328294225611548e-01 -3.836856768281665664e-01 -5.408619931405787007e-01
2.279027203278730096e-01 -3.787828861860892959e-01 -9.124559376689398427e-01
3.832208458294802857e-03 -5.264491549438470308e-01 -6.780561739045938285e-01
5.023482454201828595e-01 4.969010613628997430e-01 -7.829211231657352554e-01
1.603246781118242426e-01 3.675395476809397155e-01 6.956836564627921771e-01
-5.124135052838553195e-01 8.924500212063233295e-01 1.877031304845964976e-01
2.499932669665839990e-01 -2.084728870685487734e-01 6.898504252311765672e-01
-6.383072410521897222e-01 -5.290713193106790779e-01 -2.213903722497661264e-01
2.317246196507396772e-01 -4.693043648791981326e-01 -8.649837657324259688e-01
-1.770460948878045948e-01 5.910397237326631137e-01 -4.982658862990104187e-01
3.561392624336677248e-01 -6.748045094643534414e-01 2.896807051026956681e-01
5.037374477895667502e-01 -3.153285433752773259e-01 5.463211229674416192e-01
-6.307911105588763778e-01 9.969944237864446224e-02 -5.655165108703028576e-01
6.435873538778977831e-01 6.791510544317178599e-01 -1.604779853113892096e-01
-1.729693219210466093e-01 -2.365500113440537344e-01 -7.480653477665394346e-01
4.985611862027233276e-01 -3.104712695696033586e-01 5.504399473202492565e-01
3.961950632273572581e-01 7.264573047562060404e-02 6.569183619698985011e-01
3.261336248213900224e-01 -7.116504734734623305e-01 2.342828981439756542e-01
3.933799109802930266e-02 6.327095297313369837e-01 5.478677214878590052e-01
-3.593020137878186748e-01 -7.019778539838900100e-01 2.442578623715840891e-02
1.970566268528694751e-02 7.926178843482898362e-01 1.658440521695176695e-01
3.303308837848243501e-03 3.591241269324974006e-01 7.884872455184533946e-01
-7.134562293411235157e-01 -6.357061824820394724e-01 3.337194192554398531e-01
1.387188295569402041e-01 -6.646967974510963328e-01 3.444081301138568474e-01
-1.027519749618245049e-01 6.943041897927043106e-03 -8.166976285876219599e-01
-5.886766649926056250e-01 7.877194502434691215e-01 -1.355297735215651445e-01
3.745562500102636583e-01 4.691648160840101722e-01 -7.811259630412638044e-01
-4.416056211460577252e-01 3.094653755210451940e-01 -6.040902289413981885e-01
1.739081650539570922e-01 -4.339629322379531806e-01 -8.526600890301596625e-01
3.388178925108391026e-01 6.309504801079812708e-01 3.228425700070346460e-01
-2.300612058022132866e-01 4.214505963287602519e-01 8.910593650259799325e-01
-6.129026430729773711e-01 4.599553512823952722e-02 -5.742337026349236817e-01
-4.941712709677417159e-01 -5.561081301513871589e-01 6.285848070573242241e-01
-7.314943834855354154e-01 6.529592135422294108e-01 -2.779303103262356633e-01
-2.697665690443912245e-01 -6.132496455235217914e-01 -3.711742284593274044e-01
-1.849395988493745813e-01 -7.095680883897790281e-01 -2.108836206400492852e-01
3.201764918396375337e-01 -8.072582845409014274e-01 -4.386298261859389869e-01
-7.617515406573810433e-01 6.275177299139146347e-01 -2.925524888251856415e-01
6.587434434891982216e-01 -7.226712286447628530e-01 1.584478135660122300e-01
-3.062694353283232709e-02 6.216616898284040849e-01 6.114639991065218272e-01
-6.853424902872824465e-01 2.456414846852041090e-01 -5.215379737848024888e-01
-4.789563322580822069e-01 -6.539518291624664137e-01 3.810296355563455029e-01
-4.198190943948472698e-01 2.752644593237227322e-01 -6.254514755134125137e-01
2.907725555519212746e-01 -8.218717258498420275e-01 -3.050450012373301933e-01
5.965575346215779007e-01 -2.263351764262068744e-01 5.390452579318738557e-01
7.339788379715871391e-01 1.701969432554584494e-01 4.610525603989835131e-01
5.363420130927005758e-01 5.856737318963881611e-01 -6.559800701627760411e-01
-6.441625536565362964e-01 -6.358143538382061699e-01 4.004010052304574629e-01
-5.376101392785266331e-01 -5.850148345289170049e-01 -2.021748303216830134e-01
7.966537625533944844e-01 -2.791036601977171516e-01 4.394779438446539954e-01
-2.711740038124778318e-02 -7.117166543087587449e-01 2.551498279302982231e-01
-5.159996236988808604e-01 -5.678743030575767597e-02 -6.126440074374414069e-01
-2.349148414542099050e-01 -7.647287491129758918e-02 -7.507208167432078971e-01
-2.887304590617665312e-01 -4.779549930774337763e-02 9.639436139458599229e-01
1.312116380293108231e-01 2.686519676498636336e-02 -9.223012864798104671e-01
-5.031896647905489961e-02 -3.340992795165581009e-01 7.450401085256086464e-01
2.715344070269505236e-02 5.770797202074663401e-01 6.214379960494578192e-01
-8.419120189013205857e-02 -1.891579026893958626e-01 -8.083913840326949485e-01
6.590890568783233094e-01 6.625642744917026317e-01 -7.559923345210531331e-02
9.210648896106964079e-02 5.776552732284671032e-01 5.769809900698628091e-01
-1.761386435749716650e-01 -6.640749868762794161e-01 -3.500009130794427548e-01
-3.816972902442506976e-01 -6.737164743311820914e-01 -1.133951581929527608e-01
-8.047692326914698269e-01 2.911922202747437849e-01 -4.590182389142157815e-01
3.441293925873558507e-02 -1.509604737198872067e-02 8.272749828865763044e-01
-1.405763872542572790e-01 3.708597606664932878e-01 8.634718085725343606e-01
-6.849472603218503819e-01 -6.269796156680093602e-02 -5.254135909079297173e-01
-6.986349567032844599e-01 -8.480698734677989681e-02 -5.132658854079917843e-01
-1.138001513939310289e-01 -7.504484864321527837e-01 -3.818399556058668654e-02
3.429917569786881254e-02 7.482820686831973545e-01 3.352967030558606232e-01
-2.546638375823492284e-01 3.935759145793677471e-01 -6.354353226284423783e-01
-2.285837261612458648e-01 -6.725091084800667307e-01 3.553316306112411227e-01
7.977308098103308431e-02 -7.009466157104439210e-01 -4.953241635537863896e-01
6.119103428886395468e-01 -4.074834139384845288e-01 4.597561129222669796e-01
-1.074742882810135886e-01 -6.797194461468710758e-01 -3.764112003368190185e-01
-3.558051228612620596e-03 -5.252407582389468921e-01 5.669207736761439076e-01
-4.500311666293095314e-01 -3.658548926677891444e-01 8.547734771178082669e-01
-9.681830663389816571e-01 -1.946323907102429362e-01 -3.232605723034355782e-01
-4.515369047991982798e-01 -6.873592617908139690e-01 1.312524782379166643e-01
-2.270028680078698194e-02 -1.809751009959557899e-01 -8.419171497496676926e-01
2.079503855705108484e-01 -1.777566675103904245e-02 -9.622996922707495182e-01
-1.503846378879855894e-01 2.850430246888155938e-01 8.975606865720781036e-01
1.661318075005728534e-01 6.961585668115392034e-01 -3.940570712196803660e-01
-1.604257002528063913e-01 -3.230403991665496410e-01 -7.195466584584584435e-01
-5.202571078078174205e-01 5.242699089939680812e-01 -4.550411211193007843e-01
8.812320322795427208e-01 -3.908282572634984020e-01 3.644630416541864149e-01
-1.032297331108341515e-01 -6.447209975913352764e-01 4.136173232144644829e-01
1.513436441727830650e-01 7.483779907836278777e-01 -2.372555492086330375e-01
3.499170083638345474e-01 6.129984695535117822e-01 -5.808679713517788112e-01
-2.177088430781588535e-01 2.453423114605074173e-01 -7.189452096776135503e-01
-3.305833580112384484e-01 -3.069897552986011746e-01 8.615799800965127098e-01
3.601961462016483040e-01 -7.849849977232792320e-01 6.845497200989256181e-02
1.281250474223117053e-01 -4.386985032255899530e-01 -8.227848062068657820e-01
1.093120394341144108e-01 6.755244403536384556e-01 4.292578838995281254e-01
-1.136161481527103723e-01 -4.309246590770949292e-01 -6.826463218643833430e-01
-2.361806456513929411e-02 7.850408246359974473e-01 2.737029294469843221e-01
3.283043273640756099e-01 -8.259298828856096453e-01 -1.155560684258067766e-01
4.595147636765598564e-01 -4.593303488999908035e-01 4.822089669495075448e-01
3.338584206592457027e-01 2.065656439566469771e-01 6.636695654323458982e-01
-3.811294535122897870e-02 -7.010814629108910179e-01 -3.896719948851521953e-01
4.480701725060710627e-01 7.197821560581995071e-01 -1.428691586372362321e-01
-7.131219926114488183e-01 7.490467041509609736e-01 -1.719888907240615383e-01
3.553336138606918992e-01 7.250848940609826432e-01 -2.606034946299420341e-01
-2.863940777125348336e-01 -7.140637192250286480e-01 -2.827507162902203816e-02
-9.734670606730011500e-01 -2.792118292577547845e-01 -2.665211612914544781e-01
7.106272655868017818e-01 6.612208478236131226e-01 -4.125640425716743942e-01
1.024936577673437460e-01 2.740547240255842079e-02 7.993791854720444512e-01
3.370135106404427427e-02 7.969516668974870877e-01 1.450711241537549177e-02
-9.195668238392700200e-01 1.684621539645568822e-01 -4.272851605215743920e-01
-5.389093411495490121e-02 -4.403211647555918540e-01 -7.123552419005144687e-01
7.721677776078864630e-01 -3.081083094781603138e-02 4.803086739355197365e-01
-7.117187340630065640e-01 -3.740166090038998803e-01 -3.541823320831168354e-01
1.556604295505043534e-01 -1.067461754057099643e-01 -9.398737154905464353e-01
-6.000683008141062258e-01 7.208049044895066260e-01 -2.353380939577105480e-01
3.713460315747574292e-02 -4.412142914124851933e-01 6.364096334992895843e-01
5.022922395754909619e-01 6.355433273623930512e-01 1.756241994916335480e-01
-1.961445266955034183e-01 6.492529668898460171e-01 6.942718433007866174e-01
-3.647459845479780749e-01 7.313267520466391058e-01 -2.668866608850044564e-01
-1.358943923926552444e-01 8.372505226250704508e-03 9.073158080097900591e-01
-1.550751636759585550e-01 -6.878870150753015889e-01 3.157595068081643919e-01
-2.311105442145973063e-02 -1.064410526633004506e-01 8.351669197043020132e-01
-4.185536132876438442e-01 -8.375116895754075239e-03 -6.659903550174649522e-01
-1.157771245692596068e-01 -7.029084451845587500e-01 2.744133893954027736e-01
8.168578885232914422e-01 -2.200195916935501761e-01 4.453011483010511085e-01
4.638244572349727868e-01 -8.307992902363873222e-01 -6.967424059327714803e-02
3.247346767461636863e-01 -3.360158219206567654e-01 6.059572622262979769e-01
-7.292203528990948147e-01 -6.339181303406823398e-01 2.178671131873089473e-01
4.141756190505695850e-02 -7.784527171158773795e-01 -4.956083889451677604e-02
7.214694199445316203e-01 6.686785563192020332e-01 -2.901294854045485261e-01
7.369499077472727033e-02 7.799641409930182512e-01 -1.122973366335446865e-01
-2.203459485460984857e-01 7.763759517508455055e-01 5.068831600518989289e-01
-7.745423469778215386e-01 -3.996986419789311240e-01 -2.889559334952468972e-01
-7.783324444562971234e-01 3.731637940789976349e-01 -4.434793342226591162e-01
-6.266553681993701774e-01 -2.713293907487833168e-01 -4.788599104845215337e-01
8.549584940610724937e-01 5.423852788908705147e-01 6.267318824237115560e-02
3.268917865781446608e-01 7.395551716603738779e-01 -1.710713797659844104e-01
8.235540467011700505e-01 -5.512559396737433115e-01 2.915198368666305773e-01
-2.828035408528434269e-01 -3.515544890361357866e-01 -6.333681008929106238e-01
3.835016708684582110e-01 -3.299270916962061539e-01 5.865713056174665097e-01
7.243417208407458563e-02 1.424598432338982645e-01 8.101320347328999638e-01
4.086876397647031256e-01 -8.241902427525323871e-01 -5.901729202050909340e-02
4.397322744145607532e-01 5.536471645851619439e-01 3.626377930305423325e-01
1.693931656421701348e-01 7.343889157605271167e-01 2.361535152559028350e-01
-5.380855472854368521e-02 -3.056590964305181957e-01 -7.872240990082637335e-01
-3.038723534344493493e-01 -7.129928126081431783e-01 1.295322265959326924e-01
-1.327281929699130891e-01 6.441919324944772596e-01 -4.432295944089761353e-01
-1.375307482031882800e-01 -7.401839427682159744e-01 -1.155490511534623538e-01
-4.596260794634322022e-01 -6.169524752193256134e-01 -2.015203149325129339e-01
-7.471818773473533071e-01 -4.290081419845634958e-01 -2.762651106825761427e-01
-4.784394613284405628e-01 8.924535113407690012e-01 2.491524155931890416e-01
-6.990547375991693624e-01 7.549453058739892253e-01 -1.668967802563617875e-01
1.168158579461613250e-01 4.217824710737019256e-01 6.903901921783199835e-01
1.072046348063188381e-01 -5.979650117110483221e-01 -6.727722906497014543e-01
-7.419432692667674578e-01 -6.325900255579227638e-01 3.058693738624451153e-01
7.332516921971685697e-01 5.385151705361271302e-02 4.907124420232862883e-01
-9.918248716404459708e-02 -1.335351267370980533e-01 8.592901838306926665e-01
3.301106837003729422e-01 6.733940613907634098e-01 2.447264662121809431e-01
-2.894668106672498298e-01 6.944501411835261040e-01 7.041518819520868888e-01
-1.823046645801437715e-01 -7.292226599449916913e-01 -1.146120279305586631e-01
3.250784818470593973e-01 -8.162224835584780402e-01 -5.600098577682694617e-02
1.437095469071907050e-01 -6.002217028157433854e-01 4.395362869837057263e-01
5.098825948635746785e-01 -1.671825441051154881e-01 5.905356473518025284e-01
-6.963121800633954583e-01 -6.243322776070675539e-01 4.344136943837343945e-01
2.928138028939886728e-01 -7.665814324242172795e-01 -5.383480568018463863e-01
2.603395595766043180e-01 -5.435310673280832061e-01 -8.276687780249150084e-01
-3.929438204655846811e-01 -6.952746113871185463e-01 3.530150420307971021e-02
2.800349563426005606e-01 -5.883434225590901123e-01 4.205095737711586623e-01
-1.760429421867793220e-01 4.114108431746661965e-01 -6.527794634724343181e-01
-5.620036353122670469e-01 5.530165204292335490e-01 -4.189690717412203336e-01
-7.583801596037378356e-01 -2.660086509793779808e-01 -4.048339267195176783e-01
2.947793482595736925e-01 5.602236741702915079e-01 4.571648799120689444e-01
-1.786196377181903105e-01 2.560179809761274905e-01 -7.309481654224960767e-01
6.869981307158143924e-01 -4.410375835698616132e-01 4.129588976814352885e-01
3.604857971795255578e-01 -2.440184402376251727e-01 6.320558896040925356e-01
-8.251238307302569686e-01 -2.630753049653239417e-01 -3.671499330838461916e-01
-1.021212171690477621e-01 2.607599057008682664e-01 8.783999083262983287e-01
-5.907137050649214904e-01 3.098810845704099148e-01 -5.431670257734936280e-01
-1.931788598666124568e-01 -5.991021945068343291e-01 -4.540544497193070295e-01
-7.803907004424076588e-01 6.275372776084989779e-01 -2.867491165862952607e-01
8.633424766015667107e-01 -6.884231338235067763e-03 4.336651531670834836e-01
3.120087733074906056e-01 -2.860560975362094402e-02 6.986813753905585234e-01
4.748042777966600125e-01 3.890737198071619884e-01 4.974069781271222568e-01
-8.931275068516587867e-02 4.727290352159961850e-01 -6.374665254618506749e-01
1.475728666795708688e-01 6.545362943977809378e-01 -4.779371257754941316e-01
2.059003585465351283e-01 7.494192373649589678e-01 1.297321929829938769e-01
-1.203253871791490764e-01 -5.618337895768170664e-01 5.505486521679204825e-01
1.044039311110065704e-01 -6.515996307079193750e-01 3.719725798270442363e-01
-4.188422046056963777e-01 8.792998195867849365e-01 1.866624259649847795e-01
-2.810369383447259284e-01 4.658155011692201308e-02 9.777990217685754715e-01
8.904649856162925869e-02 2.147176841627357891e-01 -8.549977414253023822e-01
-2.851414039069645745e-01 5.988868576145682798e-01 8.055148850041874420e-01
3.053686780560888603e-01 5.463036919991867135e-01 4.659412820048825510e-01
9.130442938228150451e-01 -2.802402948416674033e-01 3.897477155483449751e-01
7.361845893276764974e-01 5.542063816808436849e-01 1.377850076755149644e-01
-8.371996395190588192e-02 8.724565661863353805e-02 8.887130385246901909e-01
-2.072974626652968611e-01 -1.019893853505232650e-01 -7.614428836067161921e-01
3.211595113135825175e-03 6.764297819061158012e-01 -4.183235188899089296e-01
5.133129772690237652e-02 -3.585721304037850499e-01 -8.223659256068307499e-01
7.985381440655622831e-02 -5.117467691832160437e-01 5.581738976841625899e-01
2.657876327815393847e-01 4.640253463014092916e-01 -7.550829856280563135e-01
-8.837993129784588175e-02 1.489195822624653220e-02 -8.229608651214287418e-01
-7.990849703243800839e-01 -6.064626245802939852e-01 1.344144566158610443e-01
-6.216372509249481482e-01 8.610740529741783833e-01 2.550306065907500044e-02
-2.069357400721421811e-02 8.057729685612744497e-01 1.263918498276555835e-01
-4.601109659035241412e-02 -4.206183247354624011e-01 -7.305875207367964475e-01
1.934883200071810805e-01 3.186697637505316316e-01 7.000463487055226253e-01
1.437142138539095615e-01 7.754188350695914167e-01 4.114271147826372571e-02
2.281274223851435246e-01 -6.013315377721277777e-01 4.180711910216854954e-01
-1.262957177464883451e-01 -1.156393048287521902e-02 9.001314287134420944e-01
-4.031262409646125811e-01 5.626749071563448279e-01 -4.613018912682809725e-01
-2.025438506055284027e-01 -1.573546501856203095e-01 8.931746626302553560e-01
2.160283963786109040e-01 7.214838731938687522e-01 -3.221822919986701561e-01
1.888729489144325840e-02 -7.077508443571524088e-01 -4.264182305055604361e-01
-3.074451631557596487e-01 -6.226747529183520591e-01 -3.225875455255557966e-01
1.310815828791100750e-02 -5.562519948880738641e-01 -6.545592408661821127e-01
-4.280884018956336856e-01 -3.988900688815669171e-01 8.176636573390353435e-01
2.455189721048829932e-01 -8.142355643665191156e-01 -1.117639384818804593e-01
3.859762307323926223e-01 -8.316910223648148470e-01 -1.081757733332001231e-01
-5.802560065743842532e-01 -3.614987545669565150e-01 -4.472061681264569710e-01
3.687963444656839340e-01 -3.006215541836423366e-01 6.059720410246673961e-01
6.043449587375490650e-02 -7.824997710715254629e-01 -6.966394189282913707e-02
-1.484032016689490752e-01 8.300950601720785693e-01 7.923565169627201643e-02
-2.480831820391156406e-01 -7.194829594452640809e-01 -6.303534215155859322e-02
-1.459612269629879250e-02 7.967955120405524339e-01 1.984325986442455059e-01
-1.620718739876636505e-01 -4.822391166925311667e-01 -6.111474777356806776e-01
-5.743991889004482210e-02 -6.140597313131425095e-01 -5.340260447551515854e-01
8.246151347084339500e-01 6.373623320643904133e-01 -1.857979548318895724e-01
-1.623275730968110897e-01 4.095301721970612610e-03 -7.888545715329855490e-01
6.939950040496385419e-01 2.062721378437496200e-01 4.694734327160864362e-01
-1.079729772563674250e-01 -2.758032084849653676e-01 -7.693129126131664774e-01
-1.667348405674665413e-01 -5.670081308349391724e-01 5.532563588841395985e-01
8.960167624554667976e-01 1.343846886086512149e-01 3.857700937708831157e-01
4.126956649625068141e-01 4.371478375549281981e-01 4.996761475339631109e-01
-5.268364735024334139e-02 -9.555040887791531323e-02 8.506366325616069313e-01
-3.892340157155416147e-01 5.149799682886605501e-01 -5.057537816894848159e-01
6.652084868324454892e-01 3.096623060280732087e-01 4.350053732986063348e-01
2.738421014033476930e-01 6.935718644889906637e-01 2.478996300839558520e-01
-7.715651836056086621e-02 -3.968374944744583188e-01 7.095436769121136189e-01
-2.507691854902949213e-01 5.220680651542028983e-01 8.448399255639088556e-01
1.326721791391887173e-01 -5.519587344034060372e-01 -7.380839861867054541e-01
-1.477498828169424572e-01 7.897714252654898237e-01 3.998737996251581772e-01
2.171576650360076688e-01 4.676903797577171007e-01 -7.371601445582269818e-01
4.789870735127306767e-01 6.720989123987559655e-01 1.026797893934940226e-01
-7.137076903030399322e-01 -5.643121591304025575e-01 -9.218200846994308029e-02
-2.795590216865461164e-01 4.490706883346534117e-01 -5.912885577991733310e-01
-6.459903997594762352e-03 -1.603414839513415610e-02 -8.627671716777710609e-01
-3.579981456811873741e-01 7.901866509882888856e-01 -1.539108161442579170e-01
-7.517752204081683542e-01 -5.555527049130902784e-01 -7.769242014181450273e-02
-3.447617990720992509e-01 -6.148718748450686666e-01 -3.064233265689058072e-01
7.182671724832589977e-01 3.421591010728542437e-01 3.824233291563508552e-01
-8.470189092882156601e-01 2.152395623555647675e-01 -4.557480879945078334e-01
2.425007166573617257e-01 -2.193777306094180923e-01 -9.703545920135924208e-01
-1.029232933637455188e-01 -7.070412870526993077e-01 -3.102504568821359832e-01
-2.090371691571792923e-01 4.935002850866267998e-01 -5.817857763365970047e-01
-1.657174165927113030e-01 -5.137031643149875260e-01 6.225253718660143099e-01
2.832079284077618775e-01 -6.457976284187173510e-01 3.466837105663472252e-01
2.761037774079883045e-01 -8.225945886561991660e-01 -1.661137263796144958e-01
-4.334724961130068804e-02 -3.553235085045234887e-01 -7.701125881301056353e-01
4.401151825058304823e-01 4.903761312462406874e-01 4.343860694907092368e-01
-1.933019937549180223e-01 -6.135733508210972076e-01 -4.312891847868915995e-01
-1.842972023683135951e-01 5.633794670501116597e-01 7.720027209894024800e-01
4.111236939956566805e-01 -4.979356974421041415e-01 4.692682277449011785e-01
-1.751564997104892718e-01 2.301515781548896800e-01 9.222277284900159966e-01
-4.876183325146378755e-01 -6.048157365865193258e-01 5.280943821486336898e-01
-4.343640877714464721e-01 -4.804386742380835074e-01 7.296999551175591403e-01
-4.456656804969933439e-01 -6.516020860752707033e-01 3.973406205061864593e-01
-1.538896053315752799e-01 6.273906862731266632e-01 6.900490881638806639e-01
4.049893052125508874e-01 -7.478729267799635316e-01 1.556178835830061002e-01
-3.445359732765495564e-01 -5.667958567884928689e-01 -3.879290517266346661e-01
3.271038491985520102e-01 7.237775971813048548e-01 -2.835575046365935159e-01
-1.785642587957891325e-01 -5.887152393233526793e-01 5.228096210108957864e-01
-7.189914905777450294e-02 -4.533376778145647990e-01 -6.917700531254440399e-01
6.402034891780152837e-01 6.834931997601833009e-01 -2.733767302908434726e-01
4.311926034735916180e-01 5.968514009868725045e-01 -6.212313627429265628e-01
-2.818295513339576508e-01 -7.155180058820755917e-01 -2.399371848509285893e-02
-2.649916139061998521e-01 1.691929356416403130e-01 9.738633338206311718e-01
-3.092708800717520190e-01 1.388507692023891182e-01 9.961408787590649849e-01
2.782648938293844076e-01 -8.052225950263297571e-01 -3.927723641164762025e-01
1.756341473333018766e-01 7.934452896904985175e-02 -9.326780668718804845e-01
9.531185978074883935e-02 1.525992024257570578e-01 7.975003279606243112e-01
4.962014801080493198e-01 5.411611703787033711e-01 3.382303233252555996e-01
-1.683276807957517496e-01 7.658343267081704209e-01 4.839997156315508642e-01
1.490373753790615319e-01 -6.447579445038779111e-01 3.750496053548802444e-01
2.914086729971880896e-01 2.209789361725628468e-02 7.101131624623682193e-01
-7.087299838000226115e-01 -9.690128241112827556e-02 -5.048432203301471688e-01
-3.145653327248394970e-01 -4.111749394887238007e-01 7.721104903580372492e-01
-1.982151413570417131e-01 -5.579734460457849154e-01 5.727368440894603507e-01
-2.910189147764501993e-01 -4.541588678076073360e-01 -5.532590145288597272e-01
-2.384047016704204103e-01 4.475753884667768023e-01 -6.065921614328817491e-01
9.466606525397965877e-01 -8.006860941315736835e-02 3.978492821836333015e-01
-4.783862743771357673e-01 8.691778500098729099e-01 7.521430197622865077e-02
-2.541915356551818772e-01 7.894492144481773943e-01 -1.572056875537684306e-01
1.993714259196231187e-01 -7.742458000696680331e-01 -4.203101277916123091e-01
4.248098276288206909e-01 3.745367584296811492e-01 5.372099733419126721e-01
-6.858510201156191588e-01 -8.085681609304523620e-02 -5.208912422728444458e-01
-4.775626420852019383e-01 -4.123307694146249869e-01 -4.704607154498972044e-01
-3.612755678128499737e-01 -7.003865060234178985e-01 1.091508440102169873e-02
-6.512383787768299959e-01 -3.653633343797676458e-01 -3.998712932782758078e-01
3.049709656707481620e-01 -6.781015539909168721e-01 -7.119458159865121871e-01
-5.756994155439997263e-01 4.278043820293580546e-01 -4.971239103803173909e-01
-5.790743854472036878e-01 -5.328574458998529551e-01 6.819628775627663009e-01
-3.200351465115502392e-01 8.610376511485681172e-01 2.798159467686953117e-01
8.049898814041871464e-01 -4.478795462398666438e-01 3.654577333135256567e-01
-3.716261970289285732e-01 1.090021539730384459e-01 -6.843756822300883780e-01
-9.933569356620990110e-02 1.844139899256766746e-01 -7.879148703335920878e-01
2.419028326919448191e-01 -7.260825634682888108e-01 -5.829643991356439070e-01
-7.872452372655565078e-01 -3.513247465367844158e-01 -3.256117241387058714e-01
-8.845456743408144362e-01 -5.141404227849201147e-01 -4.886060836216056524e-02
-4.908361803449295402e-01 -6.747340841618884033e-01 2.565887164533318665e-01
-8.108042454792994125e-01 4.926603397872443835e-01 -3.735110070863759679e-01
5.597288483312037322e-01 -7.149113716564865495e-01 1.897154489705743519e-01
2.956715205645737976e-01 -3.808704005594524267e-01 5.915206456642380095e-01
2.472277965108060915e-01 7.170020525851780180e-01 -3.325465855024737905e-01
1.439515838755548449e-01 -6.037220185970354480e-01 -6.915640344613931401e-01
5.452041201087318156e-02 -7.247098552937027982e-01 -4.179083756865749621e-01
5.042672860207620955e-01 7.092696834728426936e-01 -1.923081649571191654e-01
-8.519044369218499169e-01 -1.273662397951896563e-01 -4.185191680656666358e-01
1.001664167808414968e-01 -6.959412958388483395e-02 7.896723753488111841e-01
-5.148439914314850707e-01 3.597844576110040271e-02 -6.211380324271161824e-01
9.302039911581069798e-02 -4.359361280474743361e-01 6.227405352544644890e-01
-7.974308191870066453e-02 3.237934904215751808e-01 8.480659422881410281e-01
-7.386016733645144050e-02 -7.486141696722198313e-01 9.136309868152640845e-02
-5.036159399865017816e-01 8.042681134339459137e-02 -6.258847530326827613e-01
6.673018365727451107e-02 -3.625499836689833333e-01 -8.291698734267591853e-01
-1.662331418272002814e-01 6.495164060722730115e-01 6.730702869630743601e-01
-3.373743100240432780e-01 -4.705580300260171489e-01 -5.079763619218320425e-01
4.339110504828307957e-01 5.446591488964291905e-01 -7.039827470900288375e-01
5.583634658682378182e-01 8.717753082671658715e-02 5.738932785915751289e-01
-7.160616726474419158e-01 2.351441205707222315e-01 -5.104132726028306477e-01
-4.624788245287592692e-01 -5.592906409095789177e-01 -3.094211806722924063e-01
-4.918321362932041030e-01 -5.598685208203486585e-01 -2.856047646814422469e-01
2.308622749128738660e-01 6.155403940415808961e-01 -5.575914877242659218e-01
-3.166958327238872384e-01 -2.067913688322761678e-01 -6.805778983945017790e-01
6.031378737428596537e-01 6.845682755383776241e-01 -3.363464145315331333e-01
4.033352060990470084e-02 2.546337745315415679e-01 8.053363440687928421e-01
-4.958871125313422112e-01 -6.032470044662803232e-01 5.320829478081381403e-01
-1.493277925513699644e-01 4.336602224692574503e-01 -6.470787550875622962e-01
2.729258847482017927e-02 5.714320285357601392e-01 -5.741527561360648679e-01
4.609906106449420671e-01 7.054286900213947442e-01 -1.280749931824162399e-02
-5.287646474547881559e-02 6.673241761257080462e-01 -4.245916447898583357e-01
4.295793261588294887e-01 7.146975081548988529e-01 -2.016035626317979126e-02
-9.527641657558241217e-01 2.582480460323796634e-01 -4.017133601401001175e-01
-1.838517050035368139e-01 -1.247804609962632413e-02 9.256135645021487113e-01
3.689807560434691380e-01 -5.315241688171655765e-01 4.536144417981236021e-01
2.213113681686785239e-01 1.127779372561243526e-01 -9.439523651954000449e-01
7.537208909941069956e-01 3.545841128770277351e-01 3.517929609111575817e-01
1.887865865658941988e-01 7.472149558692279259e-01 1.641221895603773295e-01
4.414320852795581285e-01 -8.516882853209705173e-01 -3.584132213949829393e-01
2.543737117118907709e-01 1.786542673528331016e-01 -9.357269034347373005e-01
-8.067729618129433622e-02 5.753508327387768517e-01 -5.415321037460024689e-01
3.105709461630870930e-02 -9.591962183332236602e-02 -8.798846876908094083e-01
1.408816848339845829e-01 6.991484081140709739e-01 3.565630894182915678e-01
-3.785016156783005958e-01 8.501135447526448896e-01 2.601873948400632713e-02
2.727224862531902883e-01 3.675740776861451953e-01 6.308509721522571612e-01
-7.232196383058069333e-01 -5.991025919403777378e-01 1.054361995781055543e-02
6.468793316270017302e-01 -6.552789404732387024e-02 5.404898286717617628e-01
8.977144926912600242e-02 -7.043083810924792854e-01 2.728621014046009319e-01
3.609985473359462738e-01 6.484256080734175365e-01 2.716657811482696139e-01
2.500795455571751605e-02 6.734683577600026894e-01 -4.267301204160199868e-01
-9.429642504744507603e-01 -5.481679632015534070e-02 -3.928326637112509734e-01
2.464284738602423863e-01 7.015123448804784223e-01 2.536524244813939122e-01
-4.023061857412655318e-01 8.569781981954537331e-01 4.493294417457113221e-01
5.926469170267880671e-01 6.047154407388285469e-01 -6.235924333123630259e-01
-3.021263288552901161e-01 6.100593803786028557e-01 -4.435599084736228104e-01
3.084522153454263838e-01 4.739171258534155551e-01 -7.575566844846345349e-01
8.722812529909283741e-02 -6.884217399444934049e-01 3.069151250656505514e-01
-3.828083956419907063e-01 5.533192864517749721e-01 -4.759145981849507434e-01
2.128841869619397253e-01 -7.243363849721874415e-01 2.209050088743008955e-01
-1.657335028479915984e-01 7.721329448311629040e-01 4.665011507525518297e-01
2.087014425028601294e-01 -6.442303447599959654e-01 -6.875726848470107289e-01
-6.142334270920242478e-02 -3.503258952817849270e-01 -7.623265649050686710e-01
6.131978369962282072e-01 -1.741194314376660196e-02 5.566305766974198876e-01
-2.271331767117894529e-01 7.474972930402636884e-01 -2.556485259461602766e-01
4.170355745424379063e-03 -7.638774943377197868e-01 -2.051118418393544085e-01
4.246788211882749353e-01 6.853258982364565099e-01 1.188242266924006002e-01
2.365925252095346654e-01 -2.811696760914424997e-01 -9.529510798009408479e-01
-1.546892236718023228e-01 -4.228870150748018641e-01 7.125729040417972948e-01
-8.905786138264200069e-01 -2.299420565591344945e-01 -3.486101820830682652e-01
1.373673838438894124e-01 -7.001790477531074641e-01 -5.454223041307320052e-01
1.185087403575061232e-01 7.626419021584099900e-01 -1.850586936214658473e-01
1.744679684580387469e-01 -1.449782774144961206e-01 7.406700784639229651e-01
-8.314396532031219367e-02 -2.427205369877863117e-01 8.087245493171154598e-01
3.886128128166873030e-01 -8.246165917233965192e-01 -4.512367252337840529e-01
2.648455317898181227e-01 -4.588915034629136858e-01 5.482107337536820113e-01
2.756134144428546984e-01 -6.399390768595013546e-01 3.564918013554034815e-01
1.525361826637718354e-01 -7.059365392826577601e-01 2.648870651234655482e-01
-4.243543214085979121e-01 1.014868197702337438e-01 -6.611199969467910220e-01
1.480092143772794300e-01 -7.893841635922986821e-01 -9.145430072269885788e-03
4.423788789778212993e-01 -4.976465212834066398e-01 4.593083731866249853e-01
-1.184973540717793178e-01 7.796292905576845955e-01 4.000822628765804967e-01
3.938146375795188447e-01 6.630617723219015547e-01 -4.791439091592248345e-01
3.179806497022591993e-01 -8.030807169312846883e-01 1.506871926485454016e-03
-2.068773759124805378e-01 4.123142215504091435e-01 -6.412301804390623250e-01
3.732187703511821719e-01 -8.365588380386993483e-01 -3.514996561647301121e-01
2.829121325178754476e-01 2.773456503629551095e-01 6.675116032792483001e-01
-1.283816439651061514e-01 -3.340089299900453890e-01 7.726764652495327068e-01
1.374136165335104187e-01 3.543557274760390507e-01 7.152791970223205675e-01
-4.605218456595700505e-01 1.176815896190669120e-01 -6.429447710860978216e-01
4.194423286042314736e-01 6.373949052676778360e-01 2.440274809018131708e-01
-1.620509224337834120e-01 -3.932612250455826408e-01 -6.790021278912354852e-01
1.732253103948127593e-01 6.403322296914877310e-01 -5.067492892836996665e-01
5.883255706091807813e-01 4.345134255827576980e-02 5.647432386976436458e-01
-7.188571011154520907e-01 -7.276844396712056628e-02 -5.056257744883133620e-01
-3.183011288753434531e-01 -6.835451970783108511e-01 -1.515027896429808618e-01
1.779830986818317917e-01 7.694546110234484759e-01 1.587010135399092442e-02
3.005160712087563413e-01 7.161116789797070670e-01 -3.255514752657250876e-01
-2.314167102636847662e-01 8.469952220970334844e-01 1.701528003137635636e-01
1.141724080786072903e-01 7.153650622447453866e-01 -3.460405453657039443e-01
3.849065900290871700e-01 -8.406871865649886422e-01 -3.367253753814475337e-01
-3.375552584879447093e-01 -5.894418201241097277e-01 -3.579029113606059243e-01
1.701177457589249931e-01 -2.223767442869193645e-01 -9.326444266455351517e-01
2.690220582252544346e-01 5.811259218508423308e-01 4.496650837409872925e-01
7.155520532932326816e-01 4.830615226835241471e-01 2.549306513863442425e-01
8.446631148877191686e-01 -2.511110384274697349e-01 4.263812241658763713e-01
-7.604013946042996741e-01 -5.261976554252829619e-01 -1.290289155236462038e-01
-3.212872696127667127e-01 4.116610901509740184e-01 -6.003844064856229679e-01
-5.179490824037250585e-01 -4.731187436938619761e-01 7.588942341894339139e-01
-6.920753746280636776e-01 -2.307593361903841900e-01 -4.628119854255054455e-01
-4.953483300965250136e-01 -5.902191512282177754e-01 -2.277561388138911458e-01
4.179593301041880093e-01 7.193186320017850299e-01 -2.472964688008424117e-01
7.304275750552032820e-01 6.657909931313272800e-01 -3.366060471272455112e-01
5.806189517006354883e-02 7.525208048272652439e-01 -2.420589027109109892e-01
-2.997230833587271048e-01 -2.266669334122833057e-01 -6.829125552490907802e-01
9.744716976487034776e-02 4.407721878007211241e-02 -9.046699794986365895e-01
-7.382336766336667910e-01 1.845303968683267570e-01 -5.089499406427410166e-01
2.147307814832047912e-01 5.749353578059444025e-01 4.955986870202616079e-01
1.040531984571349822e-01 5.543801984339739031e-01 5.932898422197676602e-01
8.879785345346094538e-02 -7.513285379354780469e-01 1.438204932468251651e-01
-1.162848180491061860e-02 -7.695868385955798585e-01 -5.650687890474394293e-02
5.045564883319267890e-01 -7.841701140052482755e-01 7.027738391958321396e-02
2.649143614821143355e-01 2.653432244393932327e-01 -9.001767729699340359e-01
-9.682084547705553657e-02 -7.531627332717938383e-01 -6.372407664619694767e-02
1.766903635939910400e-01 7.580065484083715610e-01 1.262732773155017807e-01
7.580566373851768125e-01 5.726110362459658765e-01 8.564167338210310065e-02
8.682821081376963512e-01 5.381932954867538754e-01 5.944048037874805068e-02
-2.698421096312444978e-01 -6.133226759368097802e-01 4.933863403603334641e-01
4.748503088283327900e-01 7.148156598710181386e-01 -1.740563828562828874e-01
2.266245242509171698e-01 5.829983168551556849e-01 -6.059091528479710886e-01
3.545482555552891268e-01 -8.340049912569093005e-01 -3.333668705664007414e-01
7.248068279519985779e-01 6.590144805659486904e-01 -1.576088030240037352e-01
-3.619588644373238906e-01 -7.017651683315953015e-01 2.951410623281192427e-02
-4.421130960413159894e-01 -6.427496902720900573e-01 4.270142604733337399e-01
3.963264293324248455e-01 -2.078273193123671425e-01 6.290405188467171893e-01
8.035979760976058595e-01 6.033334767363881523e-01 -2.819663947535373805e-02
3.029049108381431377e-01 7.453560995193484473e-01 -1.408052249371604114e-01
1.183688094463546947e-01 -1.751447179058025494e-01 7.554046626491456307e-01
-1.729140106914300590e-01 3.574922630595979145e-01 8.865306407473010353e-01
3.731096900276377748e-01 3.085695745213765107e-01 6.038503386638104375e-01
8.736003764703673125e-02 5.736656487354721001e-01 5.845065465269750904e-01
-6.301777861735983199e-01 -4.951659385881688330e-02 -5.559758083799016815e-01
-1.169360134997518563e-01 -7.462172656246890412e-01 -1.042279112288604093e-01
3.124092230446868235e-01 7.011062934398990532e-01 -3.756611168055264405e-01
-3.510885833755597596e-02 -5.231687386492402947e-01 5.776483464770914011e-01
8.827592339050540637e-01 -9.173934496906607783e-02 4.285100389427324297e-01
-9.757072318799077382e-02 -6.060126489226539404e-01 4.808317057771009928e-01
-1.020809958925313204e-01 -5.954958449131573239e-01 -5.270267384754897533e-01
-1.839514096857937375e-01 -3.079720381909004101e-01 -7.134496364928548662e-01
7.825719882365120283e-02 2.135036349062386513e-02 8.103789020641877228e-01
-1.689300994963055524e-01 -7.262480698244113686e-01 1.656289601382423538e-01
5.154897909458661109e-01 1.969824659921778076e-01 5.698063239694597382e-01
-2.352110919768420072e-01 2.661590633619644736e-02 -7.538466754898587308e-01
-7.641463978243109301e-01 -6.288699531848603863e-01 2.937826242792114795e-01
4.305386758243043843e-01 6.513057738276923914e-01 2.045204377715517663e-01
-8.189679993989573692e-01 -3.027264170763089290e-01 -3.440448691330746933e-01
9.107921533862687324e-01 -1.097811283442419739e-01 4.149630665994982759e-01
3.809137021102459997e-02 -7.747452208400550377e-01 -5.584806662323686666e-03
4.821655972732243889e-01 -2.260121105299870981e-01 5.875340586852958458e-01
-1.726690274394546698e-01 5.378613692493586229e-02 -7.810245108420278415e-01
-5.955865034276595082e-01 -6.008801880022696107e-01 -1.139585395806001072e-01
-2.856469636683610092e-01 6.043419605092589242e-01 -4.542904376043110370e-01
6.761221759328448488e-01 6.521622571732141882e-01 -5.131362372133142780e-02
1.970376642895046715e-01 -4.538391922474672713e-01 5.744604507403003879e-01
-2.820879915455801190e-01 -5.134409639830480598e-01 6.514793718793614463e-01
-8.594774531144425689e-01 -1.746923600440787594e-01 -3.949520680122354799e-01
3.090426607897160324e-02 -6.562523395333442755e-01 -5.368661983404070526e-01
-1.623955574059868234e-02 -7.687167551061728776e-01 -8.384992921788284037e-02
4.710732036609855400e-01 -8.036790163652823837e-01 2.146186890244050280e-02
-8.785885736359357878e-01 -5.151300400512813793e-01 -5.194161329614453704e-02
-6.922000405841421955e-01 -5.417005664082684691e-01 -1.564789391204942370e-01
4.384332729203525569e-01 3.912961699299944973e-01 -8.742499019688086959e-01
1.255184174603858338e-01 7.261398897123834129e-01 -3.166605989935207810e-01
