2.069701836488859747e-01 2.726162924812389199e-02 4.220900531854726578e-01
-1.885230639307352851e-01 -3.486796639015354859e-02 -7.879058451071142555e-01
1.725846838168433595e-01 -2.262573800434818649e-01 6.534718640335600570e-01
5.537311583117299207e-02 2.423509241311534723e-01 -3.339932461480972781e-01
-1.162269170476684793e-01 -8.518521561034468614e-02 -8.433965121132391829e-01
-1.404348370974955323e-02 -8.555426756776549069e-02 -9.878574025964814709e-01
6.769665251471748170e-03 1.187165244806959175e-01 7.445758180143586813e-01
-1.703929915376246884e-01 -1.759055383799957573e-01 9.208998631866014417e-01
-2.059997791666818290e-01 -2.785872594272390326e-02 -5.141005504019773298e-01
-1.717738598994247856e-01 -1.415500325552149774e-01 2.860713239301519994e-01
1.591062248496821208e-01 1.678827991703147060e-01 -3.925677420724992261e-01
-4.601068837054140409e-02 2.835986808071447873e-01 -5.827139761667444740e-01
-1.951085802984822981e-01 -2.011660769731512047e-02 -8.664595460303158303e-01
1.992294635448324802e-01 -1.594848196330602708e-01 4.792094989903428748e-01
-2.123133860738790901e-01 2.170343070695243855e-03 -4.873942455599042378e-02
-1.635619315125300399e-01 -1.959364707200606792e-01 9.485664189810525393e-01
-3.139181674644537373e-02 2.456335988166604978e-01 -2.748832000301347778e-01
1.639351491109886094e-01 7.119480595817014035e-02 6.731285936168287520e-01
1.783428158326086366e-01 -1.121846074829632722e-01 2.199121868829127108e-02
1.924823994031902019e-01 8.414341575430045461e-02 -8.576400725584099050e-02
-1.887533794014961408e-01 -1.879897380250415695e-02 -9.716242173679880967e-01
-6.543864897896521649e-02 1.351682671379919043e-01 4.903413444111247022e-01
-7.304439001000605225e-02 -2.581979714250787206e-01 5.563385881912743525e-01
-1.937330348933422874e-01 1.533428134090427386e-01 -3.552483683868952191e-01
2.295213558086005023e-01 -7.833887897804567291e-02 6.345949531015029343e-01
-1.182771595078183913e-01 1.858205465129706691e-01 -6.142299250954191131e-02
-1.949046948538036839e-01 6.795015726535333367e-02 6.983214796936500213e-02
1.735220113741233472e-01 1.580119400943073016e-01 -8.467935784076831007e-01
-2.292389003560601490e-01 8.165860641223181282e-02 -5.587482881682221958e-01
-8.024601716552715036e-02 -1.148146791498555058e-01 -6.981474041769489824e-01
1.751882830031356308e-01 2.425558400881681204e-02 -6.993403545898283502e-01
2.245491316784193059e-01 -4.457230458844704812e-02 5.109655130153561986e-01
-1.781709946040449244e-01 -6.982279325572396389e-02 8.753847524753404219e-01
1.439978306688950160e-01 2.016205063317074997e-01 -5.571386687387885894e-01
-1.713979588237405094e-01 2.266973302508825186e-02 5.639987007407363251e-01
1.600204970301734864e-01 8.895208769698784157e-02 5.222988636608527635e-01
2.271585441895158930e-01 -4.211045046854233059e-02 8.067888962099711847e-01
2.027987099619607825e-01 3.389821425426572249e-02 4.776318992286315290e-01
-1.978955846014655573e-01 -6.190147662135089129e-02 3.586057830725672413e-01
1.825118831712268241e-01 -2.579335401841822417e-01 9.167440110115381291e-01
1.520451812612063358e-01 2.102856446435683591e-01 -8.293652511870970301e-01
-1.219617289393956777e-01 -2.241660058829879898e-01 5.451101304867915776e-01
2.180765462614659214e-02 -1.749422744079918435e-01 -2.605991610724449070e-01
-2.117176331312047022e-01 1.285165794106785976e-03 -8.138264488963782295e-01
7.111852549697619992e-03 3.002290246163746290e-01 -7.261679529698585878e-01
5.119426394578184547e-02 2.903803787010299509e-01 -7.478772741965555859e-01
-8.634793152092412605e-02 1.200584500501884616e-01 5.252909057328898346e-01
-2.786317864137627387e-02 -3.048554121049588672e-01 8.206370569807057702e-01
1.951020820666524158e-01 1.216559121759541034e-02 -3.319425156108718467e-01
-1.206226366067538192e-01 2.227312903814155087e-01 -3.244542196930035316e-01
-2.021831611056094380e-01 -4.160106356546437734e-02 2.442654477598285856e-01
-1.446297112729390266e-01 2.414611315648845791e-01 -5.610068100191102358e-01
-1.966773079014383085e-01 -2.975858666214572026e-02 3.986174842345248104e-01
-2.341507898632454870e-02 1.223816423504527212e-01 6.822172322441083514e-01
-1.829006100096005893e-01 -7.412322761858644582e-02 -3.965144289959244284e-01
1.948693748183525642e-01 6.701055940255740140e-02 -3.725294263120517702e-01
-2.011692914637575325e-01 1.706582977630022591e-01 -5.205664470823934131e-01
1.523782655807234265e-01 9.766335508158290046e-02 5.038572573915800490e-01
7.592762975351006853e-03 9.272683239892402784e-02 9.483434049009604738e-01
1.018284501675755516e-01 -7.340472072134049397e-02 -7.446856520247429057e-01
9.253024621468451671e-02 2.010989318428201833e-01 -1.071925484915011856e-01
-7.410217799396290328e-02 2.913943208352983150e-01 -6.809761537236325157e-01
1.638012914102562056e-01 -1.120899682323204041e-02 -6.645430614741493214e-01
8.075626534580768179e-02 -8.882787595829509664e-02 -7.370374844081452048e-01
1.585460709522637235e-01 -1.822525465200675043e-01 2.863180800496314959e-01
-1.532376210233416525e-01 2.666638748615914392e-02 7.189137868651686025e-01
-1.813542621847099301e-01 1.177671100265507420e-01 -4.396603940782046333e-02
2.271090708930967594e-01 -4.268369762365905457e-02 7.106619422967322963e-01
1.429416591421523164e-01 -2.524070826249892874e-01 6.549872733662073232e-01
2.079457489035364537e-01 -2.672417093286975649e-03 9.056782120566274630e-01
-2.055853118935867807e-01 1.021596291249375760e-01 -2.232046593805836476e-01
-9.180419432198760887e-02 -2.069793879130510106e-01 1.696289031399841329e-01
-1.312499733417213377e-01 2.405510907871628579e-01 -4.922943033561617554e-01
-2.219717636552595852e-01 9.461243585562413572e-02 -4.369323703200656550e-01
-1.695418932830126124e-01 -8.028463841225766395e-02 -5.124663403302358589e-01
-8.359542908135868255e-02 -8.759723285907669577e-02 -9.253730421297544639e-01
9.580957143602340798e-02 2.512721139873602128e-01 -6.060767262036341751e-01
2.255651948092763093e-01 -1.741208489509509239e-01 8.520744257255135068e-01
-2.181042904003052951e-01 4.077444959209492598e-03 -3.247740791914834890e-01
1.867233908871943071e-01 -3.794216303627831466e-02 -2.691157679424944216e-01
-1.076549488789026454e-01 3.167220940094839232e-01 -9.453764657401536597e-01
2.169515183087381560e-01 -1.745981100014302664e-02 2.793309487089018495e-01
5.630964981088184412e-02 2.069629285635686267e-01 -2.636484263867723901e-02
-9.069082525376254145e-02 -1.954776957954983130e-01 5.770838000402934986e-02
1.545452109485880576e-01 -6.378734409662101257e-02 -4.597117246290529091e-01
1.472762594877997377e-01 2.101201211704622207e-01 -7.208851837161629472e-01
7.603340080432101356e-02 1.089973050165961299e-01 7.740576920308751552e-01
1.864361816052348964e-01 1.073405923684281338e-01 -5.474131449670346372e-01
-1.070909897145364970e-01 6.650688285616465634e-02 7.921800247424849450e-01
-1.165245391964927768e-01 -1.239567340284844638e-01 -4.830488560803841702e-01
-1.998280733085718575e-01 -1.153488562506284169e-02 -8.952198372683797256e-01
-1.493777673033702159e-02 3.214284471946396993e-01 -8.795366958359654985e-01
2.811291510572724167e-02 1.652892134607160113e-01 3.703504392907229215e-01
1.977545297507724564e-01 -2.351197762700299801e-02 -1.699689597764733606e-01
1.831928521051985059e-01 -7.099240569333578610e-02 -1.498122956548994522e-01
2.358178271054785780e-01 -1.036998951412112513e-01 8.228859014451264109e-01
1.867798230972617934e-01 -1.514310181917537593e-02 -3.694146973781105570e-01
2.210106105526125075e-01 -1.315139471349750788e-01 6.064583624115567062e-01
2.053522949375274631e-01 1.871398660697468769e-02 -8.333365537423177705e-02
-4.916380747884272623e-02 -8.748954357038687957e-02 -9.745577483793335105e-01
1.818896705604631236e-01 1.022856189272997457e-01 1.160963198391223340e-02
2.320536718812120369e-01 -1.181845019307928013e-01 7.528764963606361382e-01
-1.929702510618540590e-01 -8.244511185508211770e-02 4.956205734744980607e-01
1.887025765191776006e-01 -7.813952385361619402e-02 -5.270549363315751856e-02
-1.988682500215113169e-01 2.309904739525302231e-01 -8.407894833406045487e-01
-1.980128663901990493e-01 -4.283777266922610127e-02 -5.100256041027526610e-01
1.469208059114742448e-01 -1.044911525686559317e-02 -8.301765606371787065e-01
-2.233770835404857297e-02 -9.760831574308291569e-02 -8.973022153117906630e-01
-7.488652463871189879e-03 -2.112174894688549631e-01 1.257206731694291563e-02
-1.857774386687117973e-01 -6.096895268958370251e-02 7.036627158445171171e-01
2.204190027058244156e-02 2.860705808066011935e-01 -6.308728088684676383e-01
2.196326774542539939e-01 -1.212224097331531247e-01 5.446522839557165208e-01
-1.831423412026694508e-01 -1.289049954320996838e-01 5.889129277067245427e-01
-1.350582286995233028e-01 -1.600681156568931895e-01 -5.267324887163364784e-03
1.190932656286640551e-01 -2.365242871847172135e-01 4.409640581058418829e-01
-2.146145504578704788e-01 -9.187490147966994106e-03 -2.249524554633441920e-01
-1.665378209895160833e-01 -3.737807672294971018e-02 9.152344766085019900e-01
1.544518242347512060e-01 -1.073814980346295828e-01 -2.026659598351585878e-01
-2.386156574713081402e-01 1.531440796793812342e-01 -9.230220062658458513e-01
4.599583926084283708e-02 -2.344167987119621654e-01 2.265493576518841090e-01
-1.180501149241358211e-01 -2.340909575786851438e-01 6.129393679784066462e-01
2.057195322230139511e-01 3.796043884890513281e-02 1.506917935574555722e-01
1.489442341772001521e-01 -1.862184365915324769e-01 2.520638162451049324e-01
1.998403710733736571e-01 5.990358668237625445e-02 -2.775792025526990434e-02
-1.939324319758885806e-01 -8.123508492396422365e-02 9.008056523480481581e-03
1.542855930194999559e-01 2.043855908047728653e-01 -7.996285014788464540e-01
1.388660401462030458e-01 1.210457978663936895e-01 3.778320658802549747e-01
-2.212141377814272336e-01 2.096346092506589515e-02 -8.153421282295139072e-01
-6.818623628138292814e-02 -9.358749425828430391e-02 -9.033567234470276652e-01
-1.061366023137162891e-02 1.974118490107512891e-01 1.162101482542692993e-01
1.820504743563823302e-01 4.680985285284177538e-02 -6.795392168450828940e-01
3.227388251773963962e-02 -2.130042913308692887e-01 4.459265675923396871e-02
-1.915348066657598103e-01 -4.541390163317120948e-02 5.451541311356566943e-01
7.307865509104989263e-03 -1.875608520186021755e-01 -1.744931501895951031e-01
1.664018926703558221e-01 -2.318223520668467041e-01 6.490282239651071761e-01
1.541246472011229274e-01 -1.055567013222617617e-01 -2.160804629571627666e-01
-5.844347961757577481e-02 -1.727107982429559041e-01 -2.486714871770965007e-01
1.528708578202045421e-01 -1.426013990453149916e-01 1.438383759495129657e-03
1.123966322712930399e-01 -2.807444922434992884e-01 7.267241627340008669e-01
-4.888301877010655522e-02 -9.835989623691912542e-02 -8.856604090726418743e-01
-1.713337424524363495e-01 -7.516917511708186284e-02 -5.484666155984366798e-01
-1.504705086759910437e-01 -1.966501588811874202e-01 5.920628609465419245e-01
-2.025026699078933956e-01 -3.167659416125340882e-02 -5.604616015961461084e-01
1.620913606818676911e-01 1.518232582076816384e-01 -2.385144507560571503e-01
1.160497155673995695e-01 7.864368443609613679e-02 9.163737868604783232e-01
-3.080595065665387919e-02 2.645940016287430252e-01 -4.230487924619147355e-01
-7.646397123821857544e-02 -8.545702765066785778e-02 -9.581714891922187283e-01
-1.143096025296743284e-01 -2.294002539041659627e-01 5.317486232491909215e-01
-1.371661057489199920e-01 1.376731059958706260e-01 1.602543749676615115e-01
-8.727101716418220190e-02 -2.165624414078879401e-01 2.369412236074320555e-01
-9.904641642753006514e-02 1.524416538992732773e-01 2.498587227738545136e-01
-1.801360455613722766e-01 -1.140946674938062289e-01 9.217024015776043022e-02
2.157292079696128406e-01 -1.853194423232581046e-04 3.719966997373015394e-01
-6.221274740414381443e-02 -2.237210305796817622e-01 2.049446466878283024e-01
-1.374004144557309792e-01 1.093264810612470245e-01 3.396457899024324378e-01
-1.661244164806633117e-01 -1.599213000235543691e-01 4.155590220765756904e-01
-2.011207324249700279e-01 7.742433911093768092e-03 2.142300571315609581e-01
1.782457691504532871e-01 1.190325167053402494e-01 -8.944488387870570545e-01
1.921276555765631944e-01 -8.907968246335690177e-02 4.053077447212078549e-02
2.012406231433030157e-01 5.377223537507183626e-02 -6.466301452390790794e-02
-4.268182757433228169e-02 2.510283680842841925e-01 -3.272971593740133245e-01
-2.170392698087662831e-01 9.325954965657856643e-02 -3.488335848571701980e-01
-1.439207746314283554e-01 -1.810046633038395469e-01 3.107735258574076398e-01
-3.523210361198596957e-02 -2.406916019405503648e-01 2.859773246401912661e-01
1.759926195244131408e-01 1.482959238974102534e-01 -8.065684151494709742e-01
-2.403665926260158681e-01 1.050942581438869816e-01 -8.891301645106188811e-01
-1.734683380420460885e-01 -1.544657571253345019e-01 5.552597371570899831e-01
-2.140014328828535317e-01 2.106005832141069067e-01 -8.612890937317295714e-01
1.291545297489591626e-01 9.825639608556278881e-02 6.676753097111916002e-01
-1.052525083996112415e-01 2.525987699186743041e-01 -4.765289957000360399e-01
-2.184579467364629046e-01 1.089130183730339235e-01 -4.307847057615877828e-01
-2.204331614675937925e-02 2.289942858018597649e-01 -1.383287239712049643e-01
9.169362237141306937e-02 -1.278407187737671535e-01 -4.225648169979152047e-01
-2.181188635166361467e-01 2.737350990351676908e-02 -2.200275386718492932e-01
7.536645805849284674e-02 -1.126244670886702021e-01 -5.918966287938192128e-01
-7.659282196593533709e-02 -1.848540181502630886e-01 -9.368714070441692965e-02
2.280886167019635369e-01 -5.665763602908133884e-02 6.215218055736519975e-01
1.971035142372426774e-01 3.281654431394977894e-02 -3.290377234292750641e-01
1.093732487150776422e-01 2.157933253980839905e-01 -3.501894545253058100e-01
-8.228073750609955078e-03 2.874991853084302162e-01 -6.063129496826346054e-01
-1.728097915327713174e-01 -1.675012591906441806e-01 9.083170644145385220e-01
1.815539415551701563e-01 9.607044468975196871e-02 -7.979325011476212648e-01
-9.092372191551473248e-02 -1.925483727310809690e-01 3.174756379902921727e-02
-2.305519147436362881e-01 7.428590410599483773e-02 -5.914626542820177191e-01
-1.605649840752747526e-01 -1.799708442611919479e-01 5.717725267911780707e-01
-3.720136914587297144e-02 -1.888839288826218155e-01 -1.477411232773464533e-01
2.158132296584642229e-01 -1.253954510943916783e-03 3.517320428330236171e-01
-1.523722614240964890e-01 8.141528158487310041e-02 4.076178341060408550e-01
7.357392358444785063e-02 1.142672651914075355e-01 7.341489242815166794e-01
2.140462902024551084e-01 -2.739942559058184540e-02 1.745930397930371136e-01
2.367041712798174935e-02 2.556850898595143806e-01 -3.761653121568855895e-01
2.203632400223507204e-01 -8.232476369577301778e-02 4.236920348308280126e-01
-1.724318198223286913e-01 -9.306552631788374275e-02 -3.287677848443044670e-01
1.651350263392082351e-01 -2.661989366510303934e-01 8.623589120621489856e-01
1.494927668542886945e-01 -1.032980087799071148e-02 -8.079675298741822997e-01
-1.348692406332642479e-01 -1.750707886183858475e-01 1.494827253733282402e-01
3.549950630148697439e-02 -2.576909095875604128e-01 3.936922317110373992e-01
-1.290383116722056689e-01 -2.498461526380408859e-01 9.080623009767084808e-01
-1.932080928549291809e-01 1.545154337605794403e-01 -3.567974906230961807e-01
1.079724388778280225e-01 -2.074846977601432219e-01 1.950777238594000040e-01
-8.815821027041080560e-02 1.919007051944274511e-01 1.238398481223468815e-02
-1.213245417905856466e-01 2.124478779067327239e-01 -2.567516832094778878e-01
-2.155948507586220309e-01 1.026933809711877699e-01 -3.629529091054926604e-01
-4.636906664085262142e-02 2.119675963600989310e-01 -3.366451542744226116e-02
1.049410945952849172e-01 -1.485300046609566993e-01 -2.240304667049336784e-01
1.025897557800277693e-01 -2.576154565477720149e-01 5.296184858494124015e-01
1.451827786071480664e-01 -1.036496235647845349e-01 -2.917797704203155540e-01
-1.232898216175237760e-01 -7.665401890926443196e-02 -8.906518942297905195e-01
-1.373374660139968506e-01 2.807027127728121130e-01 -7.937582475046647268e-01
1.554602819599516239e-01 -8.201769114465641553e-02 -3.458506886845754136e-01
2.047150930836488525e-01 -5.137129678531134058e-02 4.488325067047537614e-02
7.624802534746609461e-02 2.597503286367411346e-01 -5.742148862106833951e-01
-8.838494225129689755e-03 -1.000384561447225790e-01 -8.708367524207412114e-01
-1.152798047263205589e-01 3.131992344588092891e-02 9.720861719738886908e-01
-2.090955960266739910e-01 5.525067702194346592e-02 -8.131742611811346166e-02
6.222352651397898560e-02 2.705647630495645606e-01 -6.110903586413471977e-01
5.932954619439111815e-02 1.502412997529403160e-01 4.554524065181743131e-01
2.150757946588485181e-01 -2.824348642039214291e-02 2.035692332787073511e-01
-3.499464667562589282e-02 2.616037972333724593e-01 -4.023024484197252337e-01
1.861245350440053070e-01 5.497286049505319128e-02 5.716994192267025321e-01
-1.315953120582429026e-01 -8.747808997640540984e-02 -7.468772352243721047e-01
1.086874735243152645e-01 -2.788590505002371267e-01 7.010859699709366399e-01
1.859773152416788200e-01 -1.841075813231465019e-01 4.973712811422174029e-01
-1.475704664075093153e-01 1.554967261668450673e-01 -1.644995508034944806e-02
2.253009061812375757e-01 -3.612518332652080860e-02 8.160040777736760065e-01
-1.693040631803036100e-01 3.629640567886218555e-02 5.147541347256427979e-01
1.341031256510649139e-01 -5.057371744432168775e-02 -6.948956411897667662e-01
-6.366358435437477481e-02 2.865131703039256461e-01 -6.265967835070553882e-01
-8.230432745190331689e-02 -2.338865039065779194e-01 3.741854529341983593e-01
-2.046527823115538713e-01 -2.760776046297769293e-02 -5.624352590612291536e-01
1.093684237481365173e-01 1.729715855996358242e-01 6.779295566364849923e-02
-9.322001186894997293e-02 -7.716944281438825604e-02 -9.924265023248478590e-01
5.132123496868780388e-02 1.679265249000016780e-01 3.198643743366474390e-01
-9.578406857636102140e-03 -1.321302925608359713e-01 -6.194674658222765196e-01
1.804023297881698074e-01 -2.536017261749381468e-01 8.757368424668497964e-01
-1.618862132474147286e-01 2.820030373792137834e-01 -9.182910843071065976e-01
-1.418283572988163210e-01 2.273271643541534270e-01 -4.526986730240817880e-01
-2.050485408036150370e-01 8.494885834549164780e-03 1.335124492590685774e-01
1.887195564002308312e-01 9.845577590376178301e-02 -4.853424237465881474e-01
-1.702033285316921496e-01 -1.473087157859596652e-01 3.315233583033380116e-01
9.316940114773362980e-02 8.115933744150827245e-02 9.729561579635366275e-01
1.961106705258492955e-01 -1.336741707562071058e-01 3.110806404112417822e-01
2.282312470625207923e-01 -1.051236057690787956e-01 6.415855922302731162e-01
-7.282391275201878511e-02 -1.700352967294012363e-01 -2.363010669351229276e-01
4.267190107896497164e-02 2.222679347686254414e-01 -1.268038585380512617e-01
1.646797532008348330e-01 -5.198089326168874383e-03 -6.863284997264282872e-01
-2.083321145768018134e-01 -1.312389170902361797e-02 -6.845411979587913143e-01
-1.307771693191417950e-01 -1.388185592252915712e-01 -2.537622027040878359e-01
2.250777914493894971e-01 -3.438071334772348220e-02 6.902868232727432662e-01
1.438677505562769299e-01 1.899284886495963276e-01 -4.159599622181843759e-01
1.734108067245015705e-01 -1.574284146080695557e-01 2.403997235963699630e-01
-8.221387423365185410e-02 2.142334794226755101e-01 -1.301062133220445838e-01
2.036430943616188427e-01 3.265820226866460174e-02 4.681254865276480714e-01
-1.918878760700248598e-01 6.756806785784794100e-02 1.084407708153808381e-01
1.796385312084884667e-01 -8.184718590990178178e-02 -1.304814221166674393e-01
-2.133807954116723749e-01 4.579148992841607438e-03 -8.171679765963389963e-01
2.323320450089715883e-01 -8.332665555887157349e-02 7.214218761456548945e-01
2.121328328577816447e-01 -6.446590017916549453e-02 2.163958214063294028e-01
-3.398932150016813550e-03 -3.009827217029324431e-01 7.456420616274282986e-01
1.800973359597597689e-01 7.238820625701716804e-02 -7.917128940044386720e-01
-1.638494421957246427e-01 -1.125796113507619989e-01 -2.174850717746431294e-01
9.919517710606902405e-02 8.908768042803712206e-02 8.849892208539987815e-01
-4.487845470855902213e-02 8.971732988619467164e-02 8.782627455445100040e-01
1.213417978447042522e-01 -1.359053485412163031e-01 -2.297097372713664543e-01
1.788284547138632996e-01 1.312584940369311559e-01 -8.261555715346292628e-01
2.046116394058544452e-01 -6.732641199188957315e-02 1.042637679978261345e-01
1.604836411838439503e-01 -2.364428502204840021e-01 6.430913451022475247e-01
5.243130413524692973e-02 -2.137666369317081927e-01 8.097099015132651345e-02
-2.554751662648142504e-02 -2.866840619453516759e-01 6.594649478383208807e-01
-1.951124285279614845e-01 3.341058717593381466e-02 2.200313719842181270e-01
-2.087082138235900886e-01 1.394657217810112704e-01 -4.386404193368223514e-01
1.941933166081595830e-01 -2.434277927367297645e-01 9.117782364108572013e-01
2.015879650123265365e-01 2.026108233282297721e-02 -1.985690500877496378e-01
-1.754338572789868878e-01 3.546311260207771210e-02 4.549599481912397492e-01
2.042221567357240530e-01 3.685314623433182807e-02 3.554849710265513552e-01
1.509272129210744162e-01 -1.988909776324948864e-01 3.452587334477135173e-01
-1.627283218066640225e-01 1.521198320198214049e-01 -9.561380848362589779e-02
-2.642324517330633601e-02 2.597762056917366502e-01 -3.829291791978948756e-01
-3.223220148061751306e-02 -2.497229686574291563e-01 3.572528351977280470e-01
-4.074496393762086499e-02 -2.038870536459854443e-01 -1.645225060027953254e-02
6.693001782651546508e-04 -2.278266244377876171e-01 1.447989404344347808e-01
1.440229707214063792e-01 -2.309190832442749308e-01 5.169205890100679879e-01
-4.456687287036405209e-02 -3.054906566886951280e-01 8.736596486728055444e-01
1.340860674243354866e-01 -2.788826332825220522e-01 7.952293617998902331e-01
-2.030711343449778383e-01 2.413428488132345062e-02 1.278108775876040659e-01
-2.289732432543287455e-01 1.051486064948161103e-01 -5.999631676222509924e-01
3.339966127523302016e-03 -9.418069380142844726e-02 -9.036579816066542259e-01
-2.192546374329176762e-01 1.112059104918648317e-01 -4.519294744077357873e-01
2.469491700066932249e-02 -1.090821656737306217e-01 -7.569709475224860595e-01
8.558783726702472172e-02 8.375170492565538194e-02 9.698609205770712949e-01
1.698249382140537556e-01 -5.227033999336230807e-02 -3.862375935357582613e-01
-2.234791394983438872e-01 6.486910584234562016e-02 -3.930453220808173831e-01
1.262047445795150824e-01 2.558277025106476255e-01 -9.438135172132242623e-01
1.049508187419311983e-01 2.719052447941996964e-01 -8.852745224763870491e-01
2.288327716676638035e-01 -5.468008065943390228e-02 6.734229515735031812e-01
1.427842484914401411e-01 -1.381635405178837095e-01 -9.195917389623178839e-02
-4.616654642129732616e-02 -1.507203098429094612e-01 -4.550387710937779939e-01
-1.716262650049212857e-01 -1.703527961465869656e-01 8.392162663363611497e-01
1.421414434446188479e-01 2.159515202162174130e-01 -7.036340079057712416e-01
1.159398419649035061e-01 -4.943815708105056550e-02 -8.216077744900929236e-01
1.252865419526915935e-01 2.512914176048373638e-01 -8.789905896160583598e-01
-1.934282503945127241e-01 1.205945223493496976e-01 -1.760749588645541264e-01
-1.872700843728448139e-01 -4.714295583510791365e-02 -6.592517922900339444e-01
-1.475856120894504242e-01 2.538773673905811174e-03 9.049852458235649877e-01
1.431473781925640398e-01 1.252392115595372113e-01 2.994132601498676882e-01
-7.364662791426959676e-02 8.133777530782025644e-02 8.444396676569623228e-01
-5.382276252200925148e-02 1.595350153987972752e-01 3.436967050026836779e-01
2.128836009223362136e-01 -2.002533968865451430e-01 8.333364459973555682e-01
1.038362132879943334e-01 2.173190828277481168e-01 -3.269648869360065047e-01
-2.233961574551605600e-01 3.278114669008299481e-02 -9.557256474740343233e-01
1.699985391812237623e-01 9.268410075371751045e-02 3.620531546808416490e-01
-1.628402791089780116e-02 3.241720469217558853e-01 -9.011210854472996301e-01
-1.447431916751743541e-01 -1.728317666912498329e-01 2.289192492024456627e-01
-1.045176002942272558e-02 2.902665428173183959e-01 -6.276998363122078262e-01
1.956049659322060819e-01 -6.979538243560773347e-02 -9.567653011226829110e-03
2.350596321629336849e-01 -1.615336906995685218e-01 9.407889150946493473e-01
2.209337673915268974e-01 -1.915471775844944033e-02 6.466654819681847410e-01
-1.533884566497846214e-01 6.964881370872340327e-02 4.694758840801962485e-01
8.095993924403570297e-02 1.454977948133351073e-01 4.429586126802342871e-01
1.826254542425568839e-01 -1.178250476510801781e-01 9.287759984919850831e-02
6.334082693148070098e-02 -2.194126869835177907e-01 1.452594558938987424e-01
-1.990848425713359626e-01 1.788951262063769310e-01 -5.459849022440612654e-01
-1.631172199715066606e-01 2.464072294299013699e-01 -6.921821839679260790e-01
-1.821822959589559920e-01 -1.325062300305526464e-01 6.530573892281315018e-01
-8.779222641766308566e-02 -9.968626639001061662e-02 -8.104742018578403595e-01
9.032255865798323458e-02 -8.438722259625289213e-02 -7.263390849355965129e-01
1.213616528926046156e-01 -2.384389263157101757e-01 4.634534445276521364e-01
-1.747192888146726908e-01 -1.167093431511237872e-01 4.500652001659345355e-03
-2.054493042725268614e-01 -1.697929893473649338e-02 -7.044899503336402580e-01
2.171928432838757250e-01 -3.885754876484899534e-02 2.684228086158962356e-01
-2.083161997939365628e-01 -2.769140906700895063e-02 2.119200274889832675e-02
-1.976829097802508262e-01 -5.864541711300793464e-02 -2.698108444975957365e-01
1.713923136912925693e-01 1.200877911230853745e-01 5.664825343072083831e-04
3.354853982923124839e-02 -1.813593012319283937e-01 -1.958289911793243132e-01
8.438661773451341941e-02 1.778409353144937144e-01 1.422472434578335998e-01
1.780457862437185299e-03 -1.389981147608055634e-01 -5.586239455794874686e-01
-4.821080228711574489e-02 -1.735969620370390043e-01 -2.601453138315847347e-01
-1.884912591002815274e-01 -9.587148663552762240e-02 6.439764673197884148e-01
4.996914784418628880e-02 9.856309125878491562e-02 9.017077461203302224e-01
1.737293754361955156e-01 8.565162333083677082e-02 -9.526573538410064712e-01
-2.000693877855608815e-01 -6.381768335080315047e-02 2.025115871841806081e-01
4.014895091861465232e-02 2.131434782604669786e-01 -4.403716586181131987e-02
-1.469839221647987748e-01 -9.252700391140496194e-02 -5.965468276811579651e-01
-2.279859884837038414e-02 1.561572088176874373e-01 4.259389447110412119e-01
-1.609259896017323499e-01 -6.785379245740867649e-02 -7.338170111399455742e-01
-2.213254326188036358e-01 7.338661364117610164e-02 -3.630244849743846647e-01
2.045403314267481842e-01 1.908848566203994596e-02 6.680709305231981032e-01
1.107121907460345001e-01 1.518937205981500393e-01 2.609615019426440030e-01
-1.986194187434792147e-01 -6.545268500242104603e-02 2.978303855486625351e-01
1.541038022765704174e-01 1.908992607574982181e-01 -6.008637771215876722e-01
-2.116808400463746909e-01 2.209881615233623975e-01 -8.953903176196836844e-01
-1.067647285781858774e-01 -8.355887185862202748e-02 -8.947201018030420672e-01
-1.850920672603696415e-01 7.956811315256525144e-03 4.687575017245324549e-01
-5.158695207076437195e-02 -2.014756657243720050e-01 -1.644272738717088983e-02
-1.697402314314995220e-01 2.681411400145779500e-01 -8.708646430542221761e-01
-1.641922706746870020e-01 -7.600397959249015345e-02 -6.171775837621984451e-01
1.010185938269354960e-01 1.479405156391983278e-01 3.458684626949379837e-01
-1.753237707127613398e-01 -1.124851360076953299e-01 -3.974419490605113348e-02
-1.951833060398391884e-01 5.782755009325487097e-03 3.258843259565904482e-01
-1.948714621781873213e-01 2.464341849800477935e-01 -9.011322706408388949e-01
4.682969751232928662e-02 1.950636945709765535e-01 9.735443333357093887e-02
1.528562209544751249e-01 -1.489924923415767710e-01 4.105651715546853459e-02
1.999150503210901375e-01 -2.782946211950803467e-02 -1.186512807393194369e-01
1.457769790629309392e-01 2.189837720447041503e-01 -8.092619651724854979e-01
1.737495428831018485e-01 -1.180099318869058111e-01 1.400928983212979158e-02
-1.940907371374292756e-01 -8.791283572414680322e-03 3.943194166942268208e-01
-5.064086446860099899e-02 2.234290701893745235e-01 -1.274277692922110572e-01
-1.350887018316987431e-01 2.007435051885564092e-01 -2.416858653460090267e-01
-2.041900619297600528e-01 -4.098828025598027364e-02 -3.397287072666256291e-01
1.863929688033767740e-01 1.016177867454251121e-01 -6.100188874465989342e-01
-1.293707034803335543e-01 -1.779511874623227741e-01 1.303039186914669578e-01
-3.228168719124908242e-02 2.835265324148088517e-01 -5.729568290224362759e-01
-7.303443754649370512e-02 -9.208718606648119698e-02 -9.080338454213485733e-01
3.841732725105636431e-02 -2.640912772759320126e-01 4.460139877981605383e-01
-2.011055802244536284e-01 1.007430432539606763e-01 -1.612069904285670929e-01
-3.928608245235774149e-02 -2.150383689541639776e-01 7.544585852977081508e-02
-4.446902898166178730e-02 -2.817624606932406794e-01 6.632703086726512431e-01
2.392991066057126304e-01 -1.147303709961568219e-01 9.268274434767468373e-01
-9.699154077446441036e-02 -2.252333045690634583e-01 3.698515017897202606e-01
4.893681244786268932e-03 -8.790370276584441589e-02 -9.496446851349772400e-01
-7.904823130924916452e-02 1.878843642765908595e-01 6.962606019058859008e-02
-6.742786642296837163e-02 2.158717144148328271e-01 -1.040888271436285623e-01
2.350051435117389287e-01 -1.239101720406245860e-01 8.289696153629926290e-01
1.623292952593371474e-01 5.033154935915409162e-02 9.072049856336263929e-01
-1.134302850448015848e-01 -2.637556469824009486e-01 8.823549484881537674e-01
-1.980047933935966675e-01 1.125941686403506697e-01 -1.837004028625155716e-01
9.600071019710861020e-02 -7.445710590599347034e-02 -7.667760845909307177e-01
1.558167796028513304e-02 -2.576497886925570580e-01 3.835968217673378367e-01
1.729869857664122768e-01 -1.885616443560446942e-01 4.240177227317319941e-01
1.870408487854187743e-02 -3.120026067953315385e-01 8.201335030830864126e-01
-1.370811620367340944e-01 -1.437024277144147155e-01 -1.563354354970911686e-01
2.019724909464087059e-01 4.919358003858217282e-02 1.836928183519054014e-01
1.248054285140899333e-01 -2.330993465176394164e-01 4.411796066085686974e-01
-1.537351236549597544e-01 1.137213613425200331e-01 2.027286766656622996e-01
-1.102128694515190632e-01 2.152655239864737224e-01 -2.309225538904004782e-01
1.842600677282510702e-01 1.150971296209315070e-01 -6.185805851508120456e-01
1.293938911002122105e-01 -2.438890855897376808e-01 5.349615667113588602e-01
-6.424582578761141305e-02 2.706926033646912533e-01 -5.075797185430311886e-01
-1.679843754429881098e-01 1.493938727277148992e-01 -1.172486960786360555e-01
1.162594616131664982e-01 1.917190682890588527e-01 -1.605091600367604399e-01
-2.006231573567618942e-01 -4.629546463338696238e-02 -3.814749742810005784e-01
-2.188495424181694793e-01 1.078316581513663955e-02 -3.001118178725585839e-01
-4.997415607957680569e-03 1.232474668341550089e-01 6.998582029375766123e-01
1.803141219875207257e-01 1.061078321483411163e-01 -8.359364461468331564e-01
-2.201422660328805347e-01 1.695820333977218763e-01 -7.196940574257338907e-01
-3.564012233952649350e-02 -2.145769942784978013e-01 6.560878033761866068e-02
1.416089379346065769e-01 2.355981866314303119e-01 -9.481669861694166368e-01
4.828039122889738605e-02 2.285458444026230995e-01 -1.935929178649048732e-01
7.216465008902842038e-02 9.263123718873282619e-02 9.218043123357282376e-01
-2.131351642890191023e-01 3.180998581812974346e-02 -9.356794946940454050e-02
7.035694239728808308e-02 -1.073260311179806414e-01 -6.471726756187918816e-01
1.900278782878415118e-01 9.530340116211825918e-02 -4.094890622317434725e-01
1.826693021498958514e-01 -1.523103777647265011e-01 2.864095244061209411e-01
1.112509972880627515e-02 2.117675907047041617e-01 8.188562968584036034e-04
-2.036545326485909579e-01 6.730347863220878524e-02 -4.369244027221863558e-02
-2.178294694019173583e-01 1.129202794620509480e-02 -2.423769430410638581e-01
1.972443395620840090e-01 -2.268970181917245033e-01 8.384761179987149093e-01
5.926095143577331248e-02 3.026796907017770266e-01 -8.923448828438050873e-01
-1.513129143298530821e-01 2.414527890079288530e-01 -5.950208746976318741e-01
-1.718409468672481418e-03 3.280450576280700137e-01 -9.471446295515184577e-01
1.875370783586249035e-01 7.816975065660218547e-02 -6.201881973799966419e-01
-1.979227711405350254e-01 -4.697672711404080048e-02 3.838163510256373812e-01
-1.938371792972728713e-01 -8.900682874390708488e-02 3.072988840576610925e-01
1.430564735886914463e-01 7.005595694475864887e-02 8.542764237805222649e-01
1.957524152752443403e-01 7.154215861835898360e-02 -2.851810956950744380e-01
-2.280978095492603441e-01 9.012085002701160363e-02 -5.457332884254736394e-01
-2.062027471081823993e-01 -4.290374973734133179e-02 -6.964203916481534473e-02
1.775605800867174205e-02 2.191222480204977896e-01 -6.408035432894217120e-02
-1.086249034004448805e-01 2.206501156629911697e-01 -2.625577799401950796e-01
1.651516160504359551e-02 -1.973736057791222742e-01 -9.172615313870680076e-02
-1.760437280635992752e-01 2.337821294676117878e-01 -6.912713582767762155e-01
2.265490208799609551e-01 -4.252982546746748860e-02 9.190337827523302749e-01
-1.277912264252382135e-01 -1.119442559288809369e-01 -5.350524020718968599e-01
8.209044786136061173e-03 1.886848899998472273e-01 1.887673675189132094e-01
-1.259525580886225737e-01 -8.642293703830020157e-02 -7.869131000816060872e-01
8.244195684121236045e-02 -6.363379553158719781e-02 -9.029404998887198275e-01
6.977672759732639340e-02 -1.228846763606520204e-01 -5.388006425261483434e-01
-1.653335959357745966e-01 -1.606717859296114825e-01 4.078260058162224144e-01
-1.330615307317323248e-01 2.682799721303814056e-01 -6.902731609983546734e-01
-1.477891319353849819e-01 8.976602297683614062e-02 3.912139956471680780e-01
5.057707985878411722e-02 -3.216426980911870070e-01 9.042719643140856300e-01
1.954645803427730588e-01 6.164213577268757432e-02 2.516472645462045632e-01
2.266785495208660239e-01 -9.421568379859258935e-02 5.831195385137907250e-01
-1.899551918739593726e-01 -7.605413694033091865e-02 6.220211669561676038e-01
-6.361243466667487745e-02 2.184293953720040649e-01 -1.145568242922151148e-01
-1.258782291863447256e-01 -8.163619905219748896e-02 -8.320355653924098593e-01
-2.134183382825083908e-01 -1.057375769570600976e-02 -1.477030411650589736e-01
-1.537438625082180876e-01 4.018406841898500975e-02 6.376503379888419643e-01
2.137265325089164614e-01 -3.841434153226698511e-02 1.809967772310151213e-01
-1.789679786412464446e-01 -2.504231030158666355e-02 6.951046313084163764e-01
2.181202973432277703e-01 -5.935288014974484522e-02 3.210529859479989701e-01
-5.868930653220463811e-02 2.474868777897775984e-01 -3.228207660374887711e-01
1.354140148456190185e-01 -6.907107385106019126e-02 -5.722156782084425464e-01
1.387984130651779835e-01 1.747754453145219378e-01 -1.838428856541391432e-01
1.721491025959507037e-01 1.402673966623774748e-01 -3.050999248483916015e-01
-1.413701783573667325e-01 2.389003215768668309e-01 -5.278936694734377433e-01
-6.343930721578290577e-02 2.400937777342524448e-01 -2.758712670215832108e-01
-1.433166785964333778e-01 -2.098699308597961888e-01 6.390136701037952838e-01
1.844045974491052287e-01 1.171324256067129838e-01 -4.445795734138565103e-01
-2.220631774182349194e-01 3.440741924232474519e-02 -3.459280044902313112e-01
2.008558389056612770e-01 -2.350609848936091595e-01 9.155797731096058101e-01
-2.528659870564941257e-03 2.047288161882989954e-01 6.044572996466297116e-02
-7.452520886653149490e-02 3.045680880993025808e-01 -7.809732393015345053e-01
1.781153060320644632e-01 1.296768175650668542e-01 -3.284637185680837068e-01
2.212272658328042207e-01 -5.120518175810856443e-02 3.874211216024713855e-01
-8.244391038696283203e-02 1.463560093650385641e-01 3.552373303767748514e-01
1.165028237043559817e-01 1.101423470931072179e-01 6.233975594556737665e-01
-5.174083074659418385e-02 8.680924131641529207e-02 8.799033874353343609e-01
-1.348837672334327331e-01 2.098571234064378066e-01 -3.015713989399635975e-01
-1.880602406618537559e-01 -1.095682354657525198e-01 5.370147164566584363e-01
-1.595201499564657122e-01 9.169243022218054318e-02 2.911307796233784662e-01
-4.546715181582031834e-02 1.028123559211530230e-01 7.811017292641193599e-01
9.811665703106313419e-02 1.325555487166503454e-01 4.987735463864851893e-01
-1.367176707758505361e-01 2.747502973158318790e-02 8.487735592627810854e-01
2.150963496708797884e-01 -1.023974266632261543e-01 4.016034218705913927e-01
7.686061547080484668e-02 -2.477393645178967985e-01 3.857673309931303751e-01
5.667358476382258065e-02 -1.180185888677496159e-01 -6.146206364001418621e-01
-2.884247456081703506e-02 -1.849895617225124356e-01 -1.891515430573789125e-01
-1.544140521398729982e-01 -1.260642433852361965e-01 -1.781452567935082054e-01
-1.770038704594834034e-01 -1.105239248042330091e-01 -3.231195851138928682e-02
-5.951610937871883861e-02 -1.670865395260635322e-01 -2.946344821794275592e-01
2.009332307248393179e-01 -1.396353063814083084e-01 3.929257502939134672e-01
2.038834347878514808e-01 -2.714745108082461736e-02 -5.057377006392637514e-02
1.754198134957517807e-01 -8.011173550442275693e-02 -1.815002030165301650e-01
-1.973905950171148116e-01 5.090961741157559728e-02 1.138901722148044360e-01
1.859932652144049015e-01 1.058520794466876330e-01 -2.126481533946200098e-01
7.367802669253600834e-02 1.868853296052373769e-01 9.933989522955508078e-02
2.333069058426039816e-02 -1.899305744945273822e-01 -1.433164851060948486e-01
1.818963897620762271e-01 -2.087911200686532742e-01 6.116131612629562841e-01
1.876797298115604751e-01 1.047399094923926466e-01 -4.549773414136119576e-01
-4.055327576814776736e-02 2.786619136872142688e-01 -5.396823308901960159e-01
1.467770251486090471e-01 -4.432512785420301971e-02 -6.364138646885654227e-01
1.381829351548174156e-01 1.103695213924966723e-01 4.902352199046932646e-01
2.324963701731766474e-02 3.162539084530310296e-01 -8.924698827857948658e-01
-1.937311560290898294e-01 -8.841306817937440166e-02 2.016710085008729392e-01
5.893849137816814521e-02 1.974983963280768917e-01 4.920965303773754823e-02
7.070156192427309860e-02 1.389004348142987288e-01 5.283594417477319727e-01
-1.422257917907015223e-01 1.812037707627546512e-01 -1.505880085948679004e-01
2.082706150984678928e-01 -8.484770402569644099e-02 2.292268507260314392e-01
-2.971523101111835444e-02 -2.977127690861229858e-01 7.632760932803344112e-01
2.338546397845537445e-02 -3.055511776788650269e-01 7.671791204222744298e-01
-1.621234546764854789e-02 -3.199660565681694546e-01 9.252391314100940622e-01
1.335285779603006262e-01 -1.356675977091800489e-01 -1.638200323348970588e-01
1.842748636567002329e-01 3.879673922159186661e-02 -6.139914983482064326e-01
-3.619516717095477322e-03 1.132916276996459581e-01 7.783016249869635361e-01
-2.357598422640921620e-01 1.305184828673020547e-01 -8.029218227569314692e-01
-4.936922475876023841e-02 -1.896895643765449946e-01 -1.216848718740248247e-01
-1.582007821409778803e-01 3.590973410814250755e-02 6.227372057502756908e-01
-1.233682076640634367e-01 9.206725672654555992e-02 5.347777949380397855e-01
-1.221784733053374455e-01 -2.142780548357888226e-01 4.435004807190188192e-01
-1.394426397177526283e-02 -2.744505923224410671e-01 5.372472170310280681e-01
-1.543107114553250725e-01 5.906575263654697400e-02 5.239864491241705835e-01
1.297447727337839585e-01 1.414347791177619773e-01 2.422173580218808520e-01
1.421609327448323523e-01 -1.398492416098076063e-01 -8.515743170942573215e-02
2.170407324900942014e-01 -6.832658458647783081e-03 3.675286926261495668e-01
-6.456249511091370630e-02 7.122258618034432720e-02 9.490756635768646809e-01
-1.779494010158138295e-01 -1.448401643364318203e-01 8.896109147356127123e-01
-5.808241597201635464e-02 1.621395492175457254e-01 3.142195483211086549e-01
1.680678883527102208e-02 1.848223182137776199e-01 2.174053460901356760e-01
-5.129964882124291720e-02 -1.731761369707914278e-01 -2.584986823725880511e-01
-3.599633801946112294e-02 1.856785788099723222e-01 1.820719474687472195e-01
1.931874517398680241e-02 2.141795417548916225e-01 -2.469813252786439567e-02
-2.139029230963871431e-01 -6.981560152376381848e-03 -1.467852114660708751e-01
6.413826738959360618e-02 -2.379658929299625636e-01 2.850249809680679425e-01
-1.873127432409937287e-01 -9.478766621599524211e-02 6.934995512497518222e-01
2.048751507739314803e-01 2.969396461902286052e-02 -7.341898894041032353e-02
-1.282757046992540340e-01 1.126012093632438177e-01 3.737516208547366214e-01
-4.810083932856464711e-02 -1.266955898912774103e-01 -6.526074159240244921e-01
-1.236266042801880544e-01 -1.064357904452842563e-01 -6.108286574894663534e-01
-1.718158491699251778e-01 2.337494044971070994e-01 -6.637518684877692365e-01
-1.030412264477103268e-01 -2.560443150194672834e-01 7.123629296547362433e-01
-1.360417302849041034e-02 -1.682231171191674035e-01 -3.328303887397758287e-01
-1.242769984693421065e-01 -1.850725220534049920e-01 1.611308623130050521e-01
-1.330778482148001485e-01 -2.143617587674184477e-01 5.553408462351071551e-01
-2.066305888525462042e-01 -3.531078368624211705e-02 -3.370025121709662175e-01
-2.049280124956897320e-01 -4.663188710269871445e-02 3.292668429985089878e-02
2.608650760054544854e-02 -8.950223000899690251e-02 -9.005845330322299613e-01
-1.110441742815717892e-01 2.884074557443023767e-01 -7.510842898132586987e-01
1.307159123482476704e-01 -1.428331720347644218e-01 -1.334514767952436620e-01
4.429041241521643191e-02 -3.066293864942937208e-01 7.823395879027382760e-01
-2.830603643379349041e-02 -1.082803290317825712e-01 -8.130577618001987306e-01
1.298883375711996357e-01 1.660660267764031695e-01 -7.797215937632992651e-03
1.676222931881964084e-01 -2.630770488130056428e-01 8.564375334206535406e-01
1.380241300688211936e-01 6.796441856434524975e-02 9.059009201918548637e-01
2.026427229026341037e-01 -1.775856872965252964e-01 6.099908057706842079e-01
-1.467986346528189767e-01 -1.168005415822347959e-01 -3.506004374975826843e-01
6.915412377407574585e-02 1.142105517649873725e-01 7.437395791260580369e-01
-3.604978595401762964e-02 -1.081455385396445090e-01 -8.127618554398928774e-01
1.752673476759437354e-01 1.497407158895067425e-01 -6.455454150223586263e-01
-1.828386683606423313e-01 -4.525609008608331291e-02 7.121885474491322920e-01
-1.800573070752500004e-01 -1.150827816297081974e-01 1.051380842397752480e-01
-2.418676009357433321e-01 1.086244525321535814e-01 -9.372154627144761996e-01
-1.652330430297258013e-01 -1.307401478240766413e-01 1.610048129199222189e-02
5.512270417288966246e-02 -1.623102646207960909e-01 -2.957334049866691128e-01
-2.340988463898102390e-01 7.298354013810935681e-02 -7.241951426742425646e-01
1.904311939236914553e-01 7.828984078420837822e-02 1.387288747960746249e-01
2.056635839123983345e-01 -1.821672846791239919e-01 6.644400369137550832e-01
2.175994765794147801e-01 -7.272305560552569381e-03 4.239678528002014390e-01
-2.401257733013008877e-01 1.555543166772841990e-01 -9.582719740602776426e-01
-9.383141740561613819e-02 7.709242558344694962e-02 7.880497391153622466e-01
-2.075594705485722946e-01 1.824617472197540002e-02 5.757806324100946810e-02
-2.159203255690783640e-01 2.483340693247450878e-03 -6.842054233687525633e-01
-2.209941208884178832e-01 1.178020538015534663e-01 -5.043320236812856017e-01
2.107518204852975030e-01 -5.790688908464178969e-02 1.706106101002576314e-01
1.321750780295402883e-01 -6.397066350686107794e-02 -6.258486131849751999e-01
1.308962872559719381e-01 1.815720624826088203e-01 -1.775462638717329733e-01
-1.667235831309456795e-01 2.118863481987121600e-01 -4.935106674185217313e-01
-2.275418139486910241e-01 3.767723454071327666e-02 -8.059282588554068649e-01
-1.918323572260365040e-01 2.385827437643380233e-01 -8.312494745211624902e-01
1.670257553879681556e-01 6.376920059180718470e-02 -9.817342962773448756e-01
-6.351966847834325525e-02 1.390101339191416041e-01 4.682448286125519554e-01
1.567970068854742105e-01 -1.264482400141371810e-01 -7.021406577444393171e-02
-1.969078524219638471e-01 8.252551526856095887e-02 -2.354558738200257517e-02
4.148568958298169684e-02 1.234870678312461195e-01 7.035660927893018224e-01
-2.002631674957092711e-01 1.837667724484988441e-01 -5.838309206056064848e-01
1.509036746456050015e-01 1.029826328509511890e-01 4.616945292187665806e-01
3.482257155719891556e-02 -1.361550377595224237e-01 -5.345799580334265055e-01
3.799361182546188986e-02 -1.470835571161223099e-01 -4.465611456076305497e-01
-1.681702358140942377e-01 -1.115161155530198650e-01 -1.711954924629073560e-01
1.969215222578216684e-01 6.468439437107435797e-02 -2.776996678307485644e-01
3.139864865814833567e-02 -2.862527036458888396e-01 6.149394292971964715e-01
-2.314198903882371539e-01 8.616832926458377340e-02 -6.202745467804735569e-01
1.762991766127744997e-01 1.397365611513394779e-01 -4.499820697219663046e-01
4.892247757997349178e-02 1.297617332191964290e-01 6.442627866664886183e-01
-1.153411487225174531e-01 -2.326136625696557658e-01 5.734736284601764655e-01
1.388516059078250264e-01 -4.338369391552557297e-02 -7.037004338157842875e-01
2.946912870051513270e-02 -1.369878485982209404e-01 -5.383900445404288249e-01
-2.048611132641154076e-01 -4.792721741222922410e-02 -3.888845631429198313e-02
-2.093683311316990037e-01 2.914881843303631856e-02 -6.614518740183276437e-03
-1.786274395883662713e-01 -1.342249474328712500e-01 3.816837559156777693e-01
1.742297876501963383e-01 1.468163997672494725e-01 -9.746921485899853188e-01
-2.084653497154097257e-01 7.070637459008961845e-02 -1.285190173218225540e-01
1.556415748973691109e-02 -2.463731260241139309e-01 2.937993189862466714e-01
-2.217787160779847999e-01 4.466997381583590054e-02 -3.292084844904384910e-01
5.615725796051179025e-02 2.938529583666860678e-01 -7.983429932843894017e-01
-2.231737709506649570e-01 2.217573470298224089e-02 -4.926696627591967137e-01
-4.589511301728993464e-02 -1.168369650303600210e-01 -7.361057604456194836e-01
1.794004432321437692e-01 1.232271470057807461e-01 -8.408876493331841617e-01
1.126105289192520093e-02 2.424531318429196669e-01 -2.507543348266931260e-01
-5.065170111332043673e-02 1.843591849504587765e-01 1.663216379320189564e-01
8.058458708609007870e-02 1.219349133193870088e-01 6.508278912356372237e-01
-1.903938706737367832e-03 -1.942530666095637903e-01 -1.242773531417543098e-01
1.411190150795400000e-01 1.404905894299853519e-01 1.588004574477442643e-01
2.077362474248970747e-01 -1.091859554408114025e-01 3.263436916989300718e-01
-1.964790392380720008e-01 2.019689422340264218e-01 -6.529461655206555415e-01
1.592541550443412890e-01 1.407044043972809078e-01 -5.302244717486785663e-02
-1.162126240636138647e-01 -1.945800941526971140e-01 1.956135772132271966e-01
1.019176806025724608e-01 -2.610077003465367529e-01 5.517511841219403523e-01
-1.903813705280550383e-01 2.082259961479382415e-01 -6.393809871947010448e-01
1.558299013386856835e-01 1.563333133166717459e-01 -1.896995779786618819e-01
-8.842789070088340198e-02 -2.193365973797247181e-01 2.682977445595899901e-01
1.817198366147622646e-01 1.022318579005330325e-01 1.713148674673007146e-02
8.992153501689029160e-02 -1.795842651086902719e-01 -6.767468793392472648e-02
-1.887829392016760754e-01 -9.988835853596869652e-02 6.098144690303705096e-01
-1.271239588658456751e-02 1.426484712620785522e-01 5.418546193567873592e-01
-8.847244598550949024e-02 -2.055141052465385421e-01 1.402531682942278479e-01
-2.229098505350081694e-01 1.811605855487469496e-01 -8.083858440534626988e-01
4.287531064940389158e-02 -1.832252874507346030e-01 -1.661946202599587641e-01
-2.054069137773656961e-01 -9.809396066307892945e-03 1.562124628026301809e-01
1.786417460268967528e-01 1.211071031011466126e-01 -1.936328773734388720e-01
-4.551351400134028696e-02 2.023843216650448584e-01 4.029360038712093139e-02
1.799217319002869020e-01 1.099591094341521580e-01 -8.467412104565414932e-01
-2.126050076489308382e-01 -1.785761863833754820e-02 -3.686350774571237610e-01
2.207636384669869056e-01 -1.537242490521223415e-01 6.975093505282166095e-01
-1.853513401999386523e-01 8.052767918177819451e-02 1.171287992431568475e-01
-9.408512722581544030e-02 1.863116775824318061e-01 3.190313686410110872e-02
