-9.378896051531699918e-01 1.160816546476932248e-01 5.677384135719866221e-01
-9.638175277998975998e-01 -5.059687356670363595e-02 5.420535384881957075e-01
4.343620669065642592e-01 -1.885300819140399431e-01 -3.309420563766069523e-01
-4.076389718288491726e-01 -5.321704221053102229e-02 5.673328097441613371e-01
-7.111117148998733484e-01 1.848813300392815051e-01 6.219785014131646861e-01
-3.850363665817558290e-01 2.013884807654788348e-02 6.624224573561351970e-02
-2.196300194485491797e-01 -1.578415915195675312e-01 3.187500847752881006e-01
-7.914581252712978854e-01 1.837676498841783468e-01 6.919352276195303020e-01
6.982267955179978225e-01 -1.401777370157529512e-01 -7.306791894914632657e-01
-4.145634317408045666e-01 3.244837947810411127e-02 5.777605221612757136e-01
-7.072225688434082003e-03 -1.410628049901155867e-01 -1.615208009823184410e-01
-3.624309584356759650e-01 1.748206045076204362e-01 1.962592300642932164e-01
-1.133413556898891228e-01 7.492145282595613111e-03 3.370996983233373601e-01
-5.671385673853864828e-01 -1.587916244151413858e-01 6.020111594311312597e-01
-7.337689489106664631e-01 1.023927809467134603e-01 7.996706480997856081e-01
-5.642187256111044213e-01 1.796577347702947858e-01 5.322286897650984061e-01
5.556273874769731558e-01 1.024007469906323964e-02 -6.986897681445248809e-01
-2.526388469301307782e-01 7.870973000709099998e-02 4.277231963487966859e-01
-1.547960229856968628e-01 -5.851654864660022631e-02 -1.103830024777904539e-01
3.009543868693060897e-01 5.138408226363831016e-03 9.766464528192751997e-04
-9.184927898726932272e-01 3.784528002278605280e-02 5.035794101269241985e-01
3.648336780713166694e-01 -1.833148880714741968e-01 -3.594955689605068838e-01
-3.865459953772467094e-01 9.785712159647695640e-02 1.014812435472046553e-01
-8.607990171034052285e-01 1.544326220273739281e-01 5.580894774966707050e-01
-2.912403435951378960e-01 7.259436460832718527e-03 -1.120345506964163032e-02
-9.141641277979559721e-01 9.733329032556839455e-02 5.312668284483832437e-01
2.755299379274219196e-01 -1.893771846258499036e-01 -2.446010507479991214e-01
-5.365143717583320537e-01 1.890424773762070243e-01 4.255831776063380145e-01
-2.582128393728360116e-01 1.490231830378849209e-01 3.609320964634717410e-01
-6.614592444969500384e-01 9.668912122335644732e-02 3.247114316397995970e-01
5.483073770907340716e-01 -1.887534038844801421e-01 -4.501106892879281340e-01
3.474629842172232697e-01 -8.062423488963935125e-02 -5.055831205716201371e-01
-4.215757637897878107e-02 -1.023809725138768306e-01 2.417463173967605572e-01
1.620920686335509397e-01 1.891758131849280433e-01 -1.781708178693099387e-01
1.538034801860411749e-01 1.298331953249067250e-01 -3.087979236201264244e-01
6.259712069954260771e-01 1.356330730048784794e-01 -6.877063057077454911e-01
6.339855077379691339e-01 -1.126288750408020456e-01 -3.189799290338933280e-01
6.423746501701071976e-01 -1.615372839999726917e-01 -6.479393177702741369e-01
8.418564224261163575e-01 1.846917751912504069e-01 -6.037902109265375072e-01
4.987721367170273035e-01 1.921078954808007333e-01 -3.733422822407313491e-01
-1.185265558390770878e-02 -1.132458799930718407e-01 2.075166950382091591e-01
-2.404425583950570849e-02 -3.408771157404731633e-02 2.610271690463405458e-01
3.326822001194018608e-01 1.656024643944042918e-01 -1.445395399840334882e-01
2.659788225717826804e-01 1.559624490905704985e-01 -7.227936784731373021e-02
5.265843106926607620e-01 -1.603457032925353631e-01 -5.576161842337642449e-01
-3.507318240053666335e-03 -2.615277368166424657e-02 -2.425445809369747574e-01
3.730922802553366391e-01 1.832098890043937778e-01 -2.257587896855940968e-01
-2.282339367414648046e-01 1.476694948652917949e-01 3.389951594832976145e-01
-2.910229159599010407e-01 1.854346889589950642e-01 2.893439462285161135e-01
-4.370536615190491192e-01 1.431571006921576183e-01 5.139889966516008046e-01
-5.682125869414436092e-01 -1.739658231287186663e-01 5.701800709499963427e-01
-1.358219190224665696e-01 -2.037824374648998516e-02 3.543224026537545313e-01
5.263126211895657186e-02 -1.800802230584722385e-01 -1.255819679277169476e-01
4.398541702846410217e-01 -2.828169900056865665e-02 -1.147425636484323552e-01
8.499710054558546890e-01 -4.560302818706488820e-02 -4.528785527052099358e-01
-5.904038543970109298e-01 1.842559908323683771e-01 5.312753712040234610e-01
-1.842951470721738705e-01 -3.661284281774045829e-03 -9.818350276761859952e-02
-1.544042354764957152e-02 -1.893093439667604405e-01 4.803330637492213284e-02
5.093013207921842644e-01 1.389542560731102105e-01 -5.881082294408735978e-01
3.316824757549724501e-01 1.628436616565479347e-02 -5.164017378728039676e-01
3.641879955835300442e-01 4.926868519534344931e-02 -5.816566800493424422e-02
5.331754751191478681e-01 -5.237186562617728719e-02 -1.976471475915254905e-01
-2.877817780097549627e-01 -1.922041547647707072e-01 2.491584918957089334e-01
3.542967652937223932e-01 -5.979248593002575718e-02 -5.220973464622231663e-01
-1.255118674108212651e-01 1.345327491264502739e-01 -7.475779717751832032e-02
4.806890921832100982e-01 1.776135231243711754e-01 -2.928689285479975646e-01
5.700512825067832745e-01 -1.048596232249415089e-01 -6.675135122728212966e-01
4.843769088963981173e-01 1.870750988136783421e-01 -4.599769008424040018e-01
-2.018682740150109511e-01 -1.881390760138174911e-01 1.126817475339719488e-01
7.459522043468252983e-01 -2.060375816431224416e-03 -3.602768993725784519e-01
7.462397335994283010e-01 1.008590881735065836e-01 -3.950004823368097329e-01
2.713419579335873411e-01 1.918776433301434547e-01 -2.469120628798628092e-01
3.198957338542477991e-01 1.093756762273290564e-02 -5.072412675935257242e-01
-5.107222717373366416e-01 -1.740250152829263611e-02 1.675883253563566211e-01
6.505413005127709536e-02 -4.499316451302918379e-02 -2.934165480403695958e-01
3.047010964643932507e-01 1.874327464835263690e-01 -1.902812783423943888e-01
7.692133922442883076e-01 -1.100213796740883571e-01 -8.236177265645965306e-01
2.104274184721971128e-02 -1.179557386000156527e-01 1.760777828463668260e-01
8.602366317713040778e-02 -2.221250160204287297e-02 -3.158214367747226303e-01
4.972693135500479977e-01 -1.250350726797375966e-01 -5.884114630505659083e-01
6.596773593850205897e-01 1.378308426696238931e-01 -7.125088413423042999e-01
-2.664781446035208723e-01 1.869600377957204573e-01 2.607573108802829775e-01
-5.677488622656787776e-01 1.723302858084882205e-01 3.583391529021316968e-01
-8.159648089483113598e-01 1.101767451846600437e-02 4.151949846103387132e-01
-7.503948390343946340e-01 3.341599006870503083e-03 3.614279756598156035e-01
-5.707017883505302036e-01 -1.902078284087268534e-01 4.144770076640997836e-01
-1.615885206904274229e-01 -8.930017078438809430e-02 3.487603888172146060e-01
2.679876465375476968e-01 -1.431660226978617723e-01 -5.656266384836127620e-02
-6.327714693581428795e-01 1.885274022926210769e-01 5.011645423912396424e-01
4.803616465142737102e-01 -4.112067525680756369e-02 -6.311542971381957079e-01
-9.398475919885639351e-01 -9.860760602362701049e-03 5.152233609353720212e-01
4.689392774069365277e-01 1.797429015828508891e-01 -4.751310188472243068e-01
9.151504263274635731e-01 1.643690705964201970e-01 -6.093645009362412823e-01
2.561177107926417285e-01 -1.505696085327671019e-01 -5.849172323766595183e-02
5.923309466422541636e-01 -6.225433767941590535e-02 -2.499496023629806107e-01
3.184505898183620509e-01 1.927758994328894748e-01 -2.737907797732105908e-01
2.887807678965660929e-01 -1.596899797371088003e-01 -1.019711155006830378e-01
-5.559456618100463293e-02 1.875345111644457496e-01 -5.759130376925008891e-03
3.326695530637329146e-01 -1.682479253923387652e-01 -1.570662681300286356e-01
-6.244212579648648065e-01 -5.512015010945299498e-02 2.686621294222417133e-01
-3.076251348414810183e-01 -1.641401101321713352e-01 1.194997985162920412e-01
3.671542778726635120e-02 -1.830481164965142293e-01 -1.012426618397669897e-01
5.751005388213125125e-01 -1.687000451792596556e-01 -3.578153859746461829e-01
4.866367064493855032e-01 -9.819279776508138546e-02 -6.057120093665672167e-01
-4.623740982620751505e-01 8.888417885573414098e-03 6.202258028202085605e-01
-6.646175525701151221e-01 -1.639710080087607436e-01 4.055932912207300123e-01
6.259592576488388627e-01 1.318823027276706458e-02 -7.556344552394004266e-01
-5.243744958651914700e-01 -1.570245358984475315e-01 2.798618939216969692e-01
6.959112386473527145e-01 2.014647217989309208e-02 -3.205854926797684357e-01
-3.970507016151331725e-01 7.120832157214962432e-02 9.277105430621410131e-02
-1.180017489464895014e-01 1.899183142106642130e-01 1.207020063343422628e-01
7.356603499854269534e-01 1.949094384661524126e-01 -6.051025500680661251e-01
4.955440135466250839e-01 7.947601791833933116e-02 -6.295122311934366888e-01
8.650996524376217689e-01 1.395681143630423948e-01 -5.297407300011721665e-01
-4.903226494001922120e-01 3.937507868810804254e-04 6.433197560955837835e-01
-1.353444364070490458e-01 1.015931002008883671e-01 -1.003781525182623618e-01
5.825783708960835527e-01 1.942648643012718779e-01 -4.751230736199624216e-01
1.677861321313580678e-01 1.919956959234023208e-01 -1.534923886669678772e-01
7.444788926524574801e-01 -2.435909301145599420e-02 -8.494130337128704689e-01
4.671224527107019076e-01 2.962320493024240067e-02 -1.364800022185451156e-01
3.266063390956975843e-01 1.820876157221527347e-01 -1.846390090747391244e-01
-2.155681691787518783e-01 2.100254215751466789e-03 4.202790701220338043e-01
3.005147246872397759e-01 1.882668503876051558e-01 -1.915398931200709975e-01
4.803327085713822719e-01 1.816602291847764783e-01 -3.054227750594361579e-01
-1.272279369751245226e-01 1.361489327967170815e-01 2.743127172582764395e-01
2.749432070285001695e-01 -3.969594979529422751e-02 -4.651053974557931570e-01
7.977689081826520034e-01 -1.496965042761524423e-01 -5.009045299356158498e-01
-3.338064904930662102e-01 9.025443441231247033e-02 5.287802344231747748e-02
-4.028963242757329644e-01 9.735874678770612897e-03 7.962168091330786013e-02
3.979336988409620246e-01 -1.779852217201859654e-01 -4.077301368272131521e-01
-4.974718246675839395e-01 1.843659280896257635e-01 4.576200532175893620e-01
-6.131034142927415109e-01 1.649580558846224509e-01 6.149637277035492344e-01
-2.165822393971157667e-01 -1.489160661171384792e-01 3.314060843332485295e-01
-4.318172389345065199e-01 1.896180338481183170e-01 3.470198079625456677e-01
-7.091231004423450557e-01 1.845581187184163752e-01 5.248353291139810084e-01
2.866891003356866752e-01 -1.046740124427480850e-01 -2.835546563997901059e-02
2.555369099790877896e-01 -1.370890080738278727e-01 -3.785189418973851638e-01
6.375135826364024538e-01 8.044259532380734767e-03 -7.652593205202623539e-01
1.783654841207472086e-01 -1.068877961253944103e-01 5.809085165163470343e-02
5.494211404164213164e-01 8.952069249305004417e-02 -2.278162702702699050e-01
7.987249067898531951e-01 1.552233976158025330e-01 -8.010623917835754115e-01
2.563450615033663893e-01 1.044547940498870703e-01 -4.174606859353463539e-01
5.327046387373618637e-03 1.770197389076121341e-01 8.822718519136156512e-02
-6.984393413856259114e-01 -1.835384030598135041e-01 6.485885603259505805e-01
-2.698599936991875059e-01 -1.802329195873284273e-01 1.315287363915027541e-01
9.546682522758954959e-02 -1.474530289554588647e-01 7.815592570851957743e-02
4.674068420387124667e-01 -1.246389722108261489e-01 -5.647827322281072648e-01
-5.538919257620562586e-01 -5.335668925624720976e-02 6.862406199702255627e-01
2.213173780671238641e-02 1.262064395919574311e-01 1.660193141109232162e-01
-6.108992182856192166e-01 2.468465161945404204e-02 7.386004895902040790e-01
1.606372634520558326e-02 1.764518585440787712e-01 -1.112896066172603948e-01
3.996450913597165977e-01 -7.231705155699960641e-02 -5.526330260483685031e-01
-9.394917187383455826e-02 4.731813441362699851e-02 -1.639970604541313437e-01
2.561867477118446312e-01 -1.492042455965374714e-01 -3.610025915921760697e-01
4.247480687646733588e-01 7.374491380804515384e-02 -1.176408087930752300e-01
-1.706446073826874132e-01 1.562770710352757650e-02 -1.084747375151364351e-01
-8.244982822958770718e-01 1.428063972348828925e-01 5.086456856753289735e-01
-1.908227558218366926e-01 6.164903367845644966e-02 3.865477167816548931e-01
2.912451782344843698e-01 1.522643422805129154e-01 -3.901685429380026826e-01
9.035931516860012946e-01 -1.012718338169238674e-01 -5.286326234262759272e-01
-6.141654448303776048e-01 -1.784067766588893766e-01 5.957432867210590288e-01
-7.057239513033838341e-01 4.060338230671277360e-02 8.115343280507401058e-01
-1.004950951235138445e-01 -5.270907501889258301e-02 -1.566375865607119167e-01
-4.845824380758066430e-01 1.211501885566937387e-01 2.029333010910116530e-01
-5.213498819809019302e-01 1.882786512132177681e-01 4.455679898307027820e-01
5.099179398592674772e-01 -1.763860501027441907e-01 -5.023968963625712325e-01
2.845032489342119719e-01 -6.742103196486516625e-02 -1.865869804603070619e-03
2.350724711969277847e-01 -1.248257803457731019e-01 -3.771833631823166000e-01
-7.218037107383337148e-01 4.268231383860339283e-03 8.310407411829979774e-01
-2.668752485168545685e-01 -2.695016368289677305e-02 -2.883054436070251261e-02
4.238579702589301834e-01 -9.837179551291336255e-02 -1.350379512709615482e-01
-3.217918979257697321e-01 1.792872063385879400e-01 1.775077321629814353e-01
-6.935026991793027396e-01 1.603931382110924952e-01 6.895509957777536947e-01
-8.178302071792200589e-01 4.223559393757973270e-03 4.162218112811308379e-01
9.137741674888814059e-01 -1.440221766658741354e-01 -5.865962850732739930e-01
1.067905762331135128e-01 1.457726490600404767e-01 7.233639174402811678e-02
-5.152181498740292520e-01 1.815535003573361117e-01 3.471285191991690944e-01
-8.297022600828902750e-01 9.152151408468162108e-02 4.579524134190815499e-01
3.461301243213710799e-01 -4.440698035568663160e-02 -4.273518923091267768e-02
2.839354564640881873e-01 -3.544250065063647009e-02 1.036401944623641276e-02
7.712923943679935723e-01 1.851739836748192702e-01 -7.064911119191935596e-01
5.862673147606123347e-01 6.403598500432025609e-02 -2.437338073002247585e-01
-4.458639626198833139e-01 6.506974706212111104e-02 1.294277829308972949e-01
8.551678860445610653e-01 1.938017514955646947e-01 -6.632382935239119481e-01
4.045486413059933284e-01 1.769836771113399987e-01 -2.302409177221408920e-01
-2.394817314867079064e-03 -1.148387360214412345e-01 -1.960302798473731734e-01
-7.208239398833309330e-01 -1.176092170919395240e-02 8.302405966725632247e-01
-2.348609487095198317e-02 -9.367216641879483330e-02 -1.968484578283947461e-01
4.553179647223091209e-01 -3.383270854291662655e-04 -6.173956834525857751e-01
-3.045182033349759232e-01 -1.324070316722711915e-01 4.260466005961609515e-01
-8.972644600339485521e-01 1.709825765793429042e-01 6.262854108870636871e-01
7.449510291032809262e-01 1.606214913059454963e-01 -7.475374370911236355e-01
-5.675307974830459123e-01 1.156845409218651560e-01 6.530458615755617702e-01
-2.369896481115298381e-01 1.615833810285861871e-01 3.208606804949472591e-01
-2.646169266616031912e-01 5.160359119483774737e-02 -2.370633473623676851e-02
2.571091856004559251e-01 1.918090227349563970e-01 -1.859197349382895881e-01
-8.721182732565692097e-01 -5.196587661992837191e-03 4.601246535755779687e-01
-3.427229451863605392e-01 1.665621368536274183e-01 3.946228632466161068e-01
1.041783432550079797e-01 1.916536095374569704e-01 -1.028776105153425546e-01
-6.441257899173525869e-01 -1.732769100769819826e-01 6.344500887774345843e-01
5.080564906528879376e-01 1.923602174604633064e-01 -3.829141402291396656e-01
-5.031060361312661433e-01 -1.846725563090638178e-01 4.822365089392039450e-01
-4.017682815251638617e-01 -4.248303677392667455e-02 8.412370289979906324e-02
-6.604227919692282622e-01 7.077141779454763915e-02 7.621816838256767479e-01
8.454882150505408367e-01 8.112380931250995353e-02 -4.621567165203449568e-01
8.862625675056351460e-01 -1.803344775377744291e-01 -6.543604043443733698e-01
-3.873075125965400045e-01 -1.461284535245115090e-01 1.519464905624177686e-01
-4.986435044662170246e-01 -1.906683588118472106e-01 3.614047974815911002e-01
3.808976658480530677e-04 -1.182689625538836942e-01 1.926293935416545089e-01
-6.746123816779922011e-01 9.463228733102538315e-02 7.581586243775179090e-01
-4.461320758082618076e-02 1.312133842059069744e-01 -1.450112459027773359e-01
-6.140829480526747153e-01 7.588522737196609635e-02 2.720699632242664090e-01
-2.135277492036395386e-01 -1.511665201620686905e-01 1.997835031273801493e-02
1.052905801943122416e-01 -4.094862644525473078e-02 1.541311031054069525e-01
2.367284115636055508e-01 -1.678890105065632965e-01 -3.083320175898048299e-01
-9.233720142246344686e-02 -1.882779546569855467e-01 1.209373227759261565e-01
-6.568894827011303450e-01 1.336719214830081603e-01 7.043324713681733407e-01
-8.861505314979238879e-01 -2.950631704556472192e-03 4.715035698076402437e-01
6.816103703755178600e-01 -1.076304516000299860e-01 -7.551212528379483979e-01
-3.724520308981753014e-01 1.860935201529096694e-01 2.515080984696429489e-01
-7.255142275734657309e-01 1.402359854938421413e-01 7.505128178336043510e-01
-7.073218582937723653e-01 -1.376831561740292087e-01 3.980682666271104231e-01
-7.300136570605531006e-01 4.164407939554701926e-02 8.308945964337274281e-01
-5.250433048271310188e-01 -1.829078461740621941e-01 3.440142432800974426e-01
8.317150078368786836e-01 -1.805161946828893749e-01 -7.416387110496862611e-01
4.113037744565016252e-01 1.150265995336130637e-01 -1.364883162367311886e-01
2.679362730981684759e-01 1.020246864558028016e-01 -4.288711494126428159e-01
-4.310229989891141700e-01 1.512559312966381964e-01 4.961509086824689163e-01
-9.256156555188636004e-01 5.381160854266300864e-02 5.148704435092880116e-01
8.905531848710254161e-01 -1.604142767225472943e-01 -5.977060164193291891e-01
6.611187142756218549e-01 -1.880479934104233863e-01 -5.490347346605719547e-01
-8.878431248516240049e-02 -1.837457828408387284e-01 1.418487548021445110e-01
2.863365802869999865e-01 -1.809421469827327267e-01 -3.078856466234619060e-01
5.203488286875887492e-02 1.886493000993387792e-01 -8.899113185360806033e-02
2.385704737534205810e-01 1.469207351566936270e-01 -3.554355641502509600e-01
-4.260247203948938632e-01 -1.782723083633085681e-01 4.408278587225865630e-01
9.627138601870836865e-02 4.881613069333737981e-02 -3.182013163819349955e-01
1.894109677145610487e-02 1.043217137642650644e-01 1.899452865719742367e-01
3.759483369805967645e-01 1.297038730250540430e-02 -5.526261593795440685e-01
1.635949704514541858e-01 -5.291121640423823019e-02 -3.704816826204244129e-01
8.546969301418864129e-01 1.143225661544938765e-01 -4.938738172872695897e-01
6.279171205157322300e-01 -1.872077838495676827e-01 -5.379614808841690632e-01
-2.673433985869215213e-01 -1.875045379189940464e-01 1.603979676350790751e-01
1.526508436224242315e-01 -5.988458606944777746e-02 -3.587758983378125932e-01
4.246593165000054904e-01 -3.285478762554065735e-02 -5.882668686159279181e-01
-1.911912932056008818e-01 5.856872870195251740e-02 3.881871537377155068e-01
-4.655982422773843887e-01 -1.016545266109207812e-01 1.665486888586325265e-01
6.389482714819064713e-01 3.335415163042168563e-02 -2.765470523701102357e-01
-7.129747499833091195e-01 1.867385827341128401e-01 5.450268877206578821e-01
6.284498476177239334e-01 5.255056012340084820e-02 -7.497582614846498572e-01
-2.985127796147902801e-01 -4.733755506305557109e-02 1.925721701398198015e-03
-2.014443295040262705e-01 1.079732174154967028e-01 3.648109009349701504e-01
2.856142501744527440e-01 -8.014103220699790586e-02 -9.730479363608011967e-03
-6.043777770789918735e-01 1.861478483019677332e-01 4.475083561461968285e-01
-4.515054550144585732e-02 -1.883465065255505722e-01 8.068535221685751990e-02
-3.194955276562979618e-01 1.619767664603839474e-01 3.862230466213276148e-01
-4.681420182099047533e-01 1.880005228503736914e-01 4.084028247803636602e-01
1.372382712906474941e-02 -3.035187876728558456e-02 -2.556886162784808292e-01
2.773187276770107124e-01 7.962739140724192644e-02 -4.517158146902299221e-01
-3.323687781203167879e-01 -1.072949552893250336e-01 6.354883369713529295e-02
-5.284001921669464474e-01 -1.918577030004897654e-01 3.941349395903541164e-01
-6.372088304895037192e-01 -1.708369559015911476e-01 6.347001323261453054e-01
1.314994623399568519e-01 7.412935815531919437e-02 -3.360121805488041069e-01
-7.237493497805617126e-01 1.128294158280100240e-01 3.896529789810304067e-01
-1.516267846527270813e-01 -1.918714555398667865e-01 1.311834983236716823e-01
-6.432911121167375068e-01 1.872725412734639328e-01 4.906695725796229590e-01
-5.626859628606478703e-01 -1.047039319043719108e-01 6.643314613465315377e-01
5.167628251125753192e-01 1.645001917096799646e-02 -6.667030525333308422e-01
-5.719467336584596051e-01 1.366408185938494391e-01 6.319241712078685902e-01
6.799102822566943649e-01 9.924845844919154281e-02 -7.668661392481795902e-01
-1.115800625854888040e-01 9.534368725152030100e-02 -1.245860070653079660e-01
4.003792981667060324e-01 1.046142472863498124e-01 -5.347882487151054409e-01
-1.802466924554597949e-01 -1.615425438862315433e-01 1.198354184689198396e-02
-4.536489846406072113e-01 1.413269932760182757e-01 5.300509905691886958e-01
1.761031254556425993e-02 9.951240074136676050e-02 1.949219222811664209e-01
-7.979732409974006346e-01 -1.937094143233615839e-01 6.752085423047725632e-01
6.318460939309890056e-01 -1.000627394621526334e-01 -3.059985956051823330e-01
4.972741234534669430e-01 -1.567147316394817136e-01 -5.413830319687875647e-01
-4.410699312039154663e-01 4.800900808302656884e-03 1.103365227455461728e-01
6.455786010722236457e-01 -6.217523287118816716e-02 -7.568497936676038540e-01
-3.624170745537620419e-01 -1.816736091933319197e-01 2.102242460841688421e-01
4.664044811501628085e-01 -1.348087867405626805e-01 -5.514496586309768356e-01
6.207784838051128018e-02 1.912582226358362780e-01 -3.245007296063629615e-02
-3.977033578035665817e-02 -1.250161051302782142e-02 2.771383806858026544e-01
1.790273484331689202e-01 1.786656214899717265e-01 -2.389989919253980577e-01
-4.377842346298706500e-01 -1.538414877614145138e-01 2.047560055946303359e-01
-8.442077164248421584e-01 -1.907076104879039669e-01 6.318669040895097400e-01
3.456890622738772456e-01 -1.368132936143270917e-01 -4.515143208494214466e-01
-9.723538367674886551e-01 -2.385629582317605121e-02 5.428418887841542917e-01
3.765170737147570668e-01 -6.649880845664694895e-02 -7.631178829420595666e-02
-7.220170489440035366e-01 -3.149204990982081009e-02 8.288156582961708763e-01
-3.922006486021877292e-01 6.885529354064977292e-02 8.760744147414518956e-02
7.004969743869753351e-01 -1.756695363011855637e-01 -6.565702070561457715e-01
-6.328854122533142945e-01 -1.697890159948278466e-01 3.926500253517917760e-01
-6.663429357514496533e-03 -9.821566331768480373e-02 -2.070361666934660283e-01
-2.232679629793627718e-01 6.801005548647484633e-02 4.098008990632543425e-01
3.057591728567584100e-01 9.157047305550766736e-02 -4.673993499429964227e-01
-5.170120851698337683e-01 2.725585833633794360e-03 6.649143605557208403e-01
9.154497844279173568e-01 1.674985576142550836e-01 -6.159632838579625069e-01
-6.610961110968385235e-01 -1.181331648183455846e-01 3.389396484915062069e-01
4.933869890180230811e-01 1.870252782822006132e-01 -4.677191674121379816e-01
4.588851670080808243e-02 1.662978065700325969e-01 8.386741987237666951e-02
8.020407345160112111e-01 -1.112492742803906504e-01 -4.548066373194512568e-01
4.208641548429654100e-01 -1.326357379382527291e-01 -5.175831152808401114e-01
-1.856149548290580709e-01 -1.901319462896249035e-01 1.857892294659171106e-01
-6.251210258297875688e-01 8.608848307774852326e-02 7.243136335598540088e-01
-5.791765277896885472e-02 1.041096699722119240e-01 -1.614561345515894697e-01
-3.878370495869658541e-01 1.646108345608065793e-01 1.906512023202551476e-01
-6.597624709066717275e-01 1.097212038400113138e-01 3.344645410439186506e-01
-7.489539206501459878e-01 1.545024278088158454e-01 4.664690569258149178e-01
2.790781470796669383e-01 1.793483440048168343e-01 -1.374055235360805149e-01
-1.384939543725869360e-01 -1.760926530610340823e-01 2.100253610571017060e-01
-3.410164534371333822e-01 1.528932764230852559e-01 4.209589949356485894e-01
3.975614014771234328e-01 1.504736178794291723e-01 -4.801379632901343619e-01
2.530255996508692928e-01 6.690047267444249046e-02 -4.385381788829388894e-01
-7.699274267225084678e-01 4.211058474453599487e-02 3.840512021437023638e-01
-1.954880865650955035e-01 -1.358785251435054575e-01 3.326055737521270705e-01
-1.427697603560108310e-02 1.450431187506412700e-01 -1.512666023904567503e-01
3.846067141409679757e-01 -1.014790872913701320e-01 -1.055367866874873523e-01
-5.837549244890143374e-01 -1.770904509056505927e-01 3.720354079327998775e-01
-4.321461777353565736e-01 -1.694474436609683388e-01 2.310405036935713752e-01
-7.099780366644770080e-01 1.351791539852037483e-01 7.450968880381503290e-01
9.682772110992978742e-01 -1.043605005260490742e-01 -5.840756690543558172e-01
2.360032135152290711e-01 -1.860076813362088466e-01 -2.435333901872310247e-01
-3.371464899066197590e-02 -4.087221154955084090e-02 -2.146212945911674386e-01
-8.895242841949273227e-02 -4.179680266164410678e-03 -1.755518743380563018e-01
-2.853477591462482144e-01 1.341016854171497019e-01 5.537279535140997994e-02
8.933189018925824509e-01 -7.039711429436586176e-02 -4.990492774702910972e-01
-6.230459993439488864e-01 -5.762428219508135968e-02 2.684994066016152536e-01
7.407822034057499616e-01 8.994013577615557475e-02 -8.229357262451144628e-01
4.258424800456340198e-01 -1.807003588218592527e-01 -2.729810957152892237e-01
5.940665459415196414e-01 -1.745605347660755535e-01 -5.754261084547592775e-01
4.005904932998518020e-01 1.082069849192961453e-01 -5.319621126054858706e-01
6.711781041881689780e-02 1.519066072282102831e-01 -2.071301902497290626e-01
7.412128834782639730e-01 -9.272623814614359972e-02 -3.894303581596085251e-01
-3.654913741633828983e-01 -1.924493617626813202e-01 3.142841851258783570e-01
4.430254584602353329e-01 -1.810850032887238448e-01 -2.888735347753026983e-01
-1.332096308090887915e-01 -9.653014662617746822e-02 3.205263960296155235e-01
1.472003593748253403e-01 -3.741220050379070322e-02 1.210168133390209927e-01
-3.315812985245040201e-01 1.896738318895495878e-01 2.511380045230295344e-01
-5.105583472894124064e-01 -7.256702545333989195e-03 6.597083468473281531e-01
3.021036157242695253e-01 1.349587813531521463e-01 -4.238055113117076833e-01
-4.406430790529969332e-01 -1.890464124214874808e-01 4.088994342600113518e-01
-7.237065792849523005e-01 -1.944978828541591154e-01 5.785879500208375159e-01
7.616380322913984813e-01 1.507068905720214680e-01 -7.779120265155028413e-01
7.078115662505028993e-01 1.921841347281738055e-01 -6.174268193942653582e-01
-3.272633319800123397e-01 1.899250996669339386e-01 2.531486135617780353e-01
7.192713917745960917e-01 7.986441160784774063e-02 -8.114778659987592624e-01
-8.111006941918812441e-01 1.878116073431606026e-01 6.633110226769360906e-01
-4.768744915319378941e-01 -1.040246466062674652e-01 5.949060422185883379e-01
6.155985214554200446e-01 -1.414222522367243259e-02 -7.464841171068172798e-01
-1.278837695455364576e-01 1.105576560674990522e-01 -9.876044418205665032e-02
-4.459697095977658288e-01 3.232992351789817920e-02 1.180328199835808944e-01
3.128028598136621263e-01 1.614158222984425906e-01 -3.914866158087141890e-01
-5.631734888799322380e-01 1.890192461406509095e-01 4.561082003047759459e-01
-1.187792153060972800e-01 8.883247002800821746e-02 3.130027860577029308e-01
2.525501538217064246e-01 -1.132314605968981341e-01 -4.034071760780090776e-01
4.208106971053062750e-01 8.644555129840432407e-04 -9.625944031325670003e-02
3.675544258544441445e-01 1.064282788362269361e-01 -9.346976898188150140e-02
-6.453467719652126178e-01 -1.371047239585395094e-01 6.988359398257935062e-01
-5.665149904337500875e-01 1.879660740259229690e-01 4.835693016670810085e-01
-2.015263725664202255e-01 1.435554402809510188e-01 -2.019703921160074622e-04
6.160725315703434735e-01 -1.304230010252801220e-01 -3.239759984544396954e-01
6.604544428802867628e-01 -5.461440307695513731e-03 -7.836631355836322088e-01
-3.514076724023695864e-01 -1.910263685022589308e-01 3.191556676085166577e-01
6.318706534055613944e-02 -3.547849500375657716e-02 1.897951107814986049e-01
7.249042259414910649e-01 -1.667869819834566225e-01 -4.762936744697287561e-01
-2.652784562764352039e-01 1.438664862734469752e-01 3.746662479177841343e-01
4.948186014781339459e-01 1.672192893533634983e-01 -5.290084994029840004e-01
9.401507867710965360e-01 -1.031561742047286956e-01 -5.600716034585916381e-01
2.300154603257414665e-01 -1.898606046852023277e-01 -1.716929338928812609e-01
7.482046628450074177e-01 7.284562732416342834e-02 -8.387283148910202879e-01
1.887251698106015563e-01 -1.767329781668707522e-01 -2.453764586236782952e-01
-2.893987069427270686e-01 -6.772175676369206372e-03 4.801659182489859123e-01
-1.081172167442441684e-01 -1.869425778477636357e-01 1.423454202146497982e-01
-6.797545956836327230e-01 -9.735670503961908751e-02 7.654130311487451488e-01
4.486898897893565885e-01 -1.845889004140405798e-01 -4.188028611625187470e-01
-6.246512027267063782e-01 1.769958394650426592e-01 5.901751800792497393e-01
-7.097857662595657979e-01 1.867685520435862778e-01 6.058369415326824159e-01
-3.635355003183534661e-01 -1.412349023699365214e-01 1.258018294131618975e-01
5.509633575963718971e-02 1.836650668250262020e-01 2.467918855930712266e-02
2.723913990461932499e-01 -2.362615078654991749e-02 -4.667290582084657191e-01
-1.363881598281229957e-01 1.908217915343380089e-01 1.185882117031641092e-01
2.768009819035532892e-01 6.905097696104960103e-02 4.490015949598249838e-03
-5.691849012643842576e-01 -1.052657601279632787e-01 2.531641633436517158e-01
-5.369629422742621117e-01 -1.026659611914005343e-01 6.449864617803352518e-01
5.850774438705653724e-01 -3.595263269285359220e-02 -2.345701734883895162e-01
4.248078612563376821e-01 -6.580799061859970989e-02 -5.763772257026973378e-01
6.214350264563284210e-01 -1.665552077359854499e-01 -3.905559929531771113e-01
-6.644461694555056086e-01 -8.537467928680793350e-02 7.609398726381878530e-01
-4.424130782429777087e-01 1.780283655024670897e-01 2.728798568819474912e-01
4.644270917207963811e-01 1.858840743650497507e-01 -4.487670030081710171e-01
-6.713940334059558257e-01 7.178267506975077872e-02 7.705090367146800734e-01
3.123197541022871837e-01 1.912661912970701483e-01 -2.888499350029771207e-01
-3.652031343996739454e-01 -1.705915587156158486e-01 4.115125146215561358e-01
-2.100573649420805211e-01 5.662383137206057626e-02 4.042747406917649444e-01
-1.477760896081244946e-01 -1.673496911895319683e-01 -1.638343054990490247e-03
1.674210837351849113e-01 -1.379797676595225231e-01 -3.063300737716460609e-01
-4.730743716925036035e-01 1.270651375753137913e-01 5.643942387763432045e-01
-6.507709078816000803e-01 -1.234963351927681197e-01 3.360313991295962310e-01
1.074850100182581369e-01 -1.132304698638427892e-01 -2.862902300922892107e-01
-7.433054054081794648e-01 -5.130170631324885294e-02 8.409930021430148672e-01
7.934379213963500543e-01 -1.772582654533782776e-01 -7.248266125677018668e-01
-4.273620882737607096e-01 -7.194968361441636540e-02 1.164923486254700880e-01
6.505106911985392149e-01 1.906531202043594830e-01 -5.796526658222109774e-01
4.073207693566502363e-01 -1.555464950798174095e-01 -4.713649109961088324e-01
4.086469239901828199e-01 -1.218379271084722715e-02 -5.788099405284596877e-01
8.474129069446610929e-01 1.543631333848337062e-01 -5.370110908856731147e-01
-7.988834725969330419e-01 -1.912263839487478023e-01 5.995355865614480084e-01
2.428428174012892682e-01 4.760923171176286578e-02 4.069916815961992229e-02
5.262419415953114576e-01 -9.045457026950243229e-02 -2.125558029976003793e-01
5.492336996231834689e-01 -7.491808883555511889e-02 -6.722199547234185557e-01
4.723645823645026276e-01 -1.844273830282399940e-01 -4.383248391050729720e-01
1.477868669019654357e-01 -1.337094920502134715e-02 1.247406141410444674e-01
6.359585827612952713e-02 -1.129281595124539128e-01 1.462456282525663731e-01
6.791863310489835159e-01 1.937636243368671962e-01 -5.288301056938259359e-01
-4.714056687428903047e-01 -1.896318858472328672e-01 3.330958064991930145e-01
1.381864478107480143e-01 -1.886574593609069428e-01 -1.483068911645903099e-01
1.597897925410744213e-01 1.853987645172189003e-01 -1.973878603497603301e-01
-7.785401560690107248e-01 1.459176228254877583e-01 4.758735271709300108e-01
5.457884011586169315e-01 -1.148771312379354426e-01 -2.492039369544598593e-01
-2.430144901770719124e-01 1.517380718691925812e-01 4.672079857884547244e-02
-5.828163845607395865e-01 -1.672669779010347579e-01 5.980599191157625061e-01
2.164480022453186547e-01 1.885395612646580954e-01 -1.271958104837037917e-01
-3.230536495593529928e-02 -1.765312861532191135e-01 -6.977388663001088398e-02
2.874925122495297636e-01 -1.845936682357472713e-01 -1.758527482303368084e-01
-5.947385995586206286e-01 9.058788502650715058e-02 6.966011073652375041e-01
4.827585709481150844e-01 1.255121028736225219e-01 -2.047895145803926009e-01
5.386922755448158018e-01 -1.589475414181427126e-01 -5.702103879656541530e-01
-5.493075797451474340e-01 1.686178154523911565e-01 5.549434779943209772e-01
3.430151549622120766e-01 4.399300212775678759e-02 -3.935155914081633899e-02
5.996013728426016209e-01 -1.009371951094415257e-02 -2.419115966827782849e-01
-4.726684784513557336e-01 1.893617083083617147e-01 3.749153160345353730e-01
5.365398818917649360e-01 1.851354087174133523e-01 -3.630740203751428030e-01
3.179276406004021283e-01 5.224414430883516508e-02 -2.171380499533609454e-02
-6.217710649128604938e-01 -1.754352111152127636e-01 3.978097467466966686e-01
8.113647687982674661e-01 9.902362034590998785e-02 -4.462598346822119200e-01
2.041429245005614568e-01 -6.780301733363609806e-02 6.335931890913890085e-02
-8.956710575588561207e-02 -8.186487357041644097e-02 -1.512922900814910043e-01
-1.638954838682222248e-01 -1.641480105311983184e-01 2.605765514569101660e-01
4.951474337165998052e-01 1.854411636193432078e-01 -3.315224585217203535e-01
8.932694064701092174e-01 -1.330507614922645798e-01 -5.539924353641181298e-01
7.460954621741797688e-01 -1.760392963232910724e-01 -5.208478557587243873e-01
-8.037434877122157095e-01 -1.842219198780377654e-01 7.333318682597959048e-01
3.797368002496313011e-01 -1.017696930842480474e-01 -1.018048153395655908e-01
2.997335149323727133e-01 1.524100752207882270e-01 -3.968832076471939252e-01
3.049745258633584366e-01 8.307657190216026499e-02 -2.600901888950569660e-02
-8.397393008619566945e-01 -1.475444087278278693e-01 5.182380776644271991e-01
-4.339365422264035432e-01 -1.833891136264137744e-01 4.299102396191507025e-01
6.705811150395082354e-01 1.736463135677587810e-01 -6.585564647865855825e-01
4.798470370038845911e-01 1.705617698306623742e-01 -2.736499657412381215e-01
-5.089507270736536027e-02 -1.649949918691443196e-01 -8.456015804560759741e-02
5.530993734024983732e-01 1.464234365345645945e-02 -2.041697709148056483e-01
-3.597614470835084344e-01 1.314245451763104144e-01 1.128332305802119545e-01
-6.487638208874815238e-01 -1.932482383927120462e-01 5.514650526781667006e-01
-7.020522945203565568e-01 1.438599830361054210e-01 7.261857828794672232e-01
3.697662953129163821e-01 8.917704847625958220e-02 -5.211552866750318591e-01
2.743038428616328961e-01 1.817931067819839042e-01 -1.419825547941044319e-01
-2.318712410076217978e-01 4.724671909735291692e-02 -5.185520706502942667e-02
3.879843847244460742e-01 -1.862168727982800864e-01 -2.698923953222142069e-01
3.063195253089737169e-01 1.913657515075694038e-01 -2.184510020381283391e-01
1.295911739850839350e-01 3.106221647544623113e-02 1.369131914821525020e-01
6.248614858847105769e-01 1.929434556959245539e-01 -5.401407307045429373e-01
-7.702515367062546803e-01 -1.923163154926381957e-01 5.849523222228862895e-01
6.596869022544127326e-01 -1.645294666667405925e-02 -2.913917263571056404e-01
7.382532938363521868e-01 -1.177384729129775376e-01 -4.092686906033839445e-01
-4.397845297135139497e-01 1.787209518655215879e-01 2.731920629988954796e-01
3.181322320629169642e-01 1.048413853007334195e-01 -4.675310352418734494e-01
8.584286724655822154e-02 -1.894803880554959130e-01 -4.022964199888707376e-02
5.816626623082640224e-01 1.686879209477639419e-01 -3.509055600316505763e-01
1.798311348094396023e-01 -1.295259388320633975e-01 3.367620289685943624e-02
9.644067671079766813e-01 5.432435853687465899e-02 -5.461797655169935428e-01
1.717511700399463603e-01 1.864188407071825093e-01 -8.027841681833813858e-02
-9.187023650832145671e-01 -1.117096009725956490e-01 5.410074649734712970e-01
-4.469837828165865168e-01 -4.488198621416731107e-03 6.081566443519247356e-01
-6.594587686375584790e-01 -1.938262367702994760e-01 5.171964923326823893e-01
9.747071924815291222e-02 -1.486051297303751795e-01 -2.343183482142874863e-01
6.708800726318813190e-01 6.544527470259305091e-02 -3.128698970528963064e-01
-6.346305286967144355e-01 -1.348276720272945095e-01 6.929081353812457378e-01
2.185935578837049920e-01 1.813112965518920427e-01 -9.594199100621592091e-02
5.599963696412952885e-01 -1.368568355545967397e-01 -2.865259515452802108e-01
-5.039527888940108502e-01 8.030248563234791692e-02 1.849937117537062692e-01
3.989684279417349960e-02 5.414655004702514235e-02 -2.704699455420949139e-01
1.575860837773809253e-01 -7.602116354218002060e-03 -3.754716716453488368e-01
2.480475615031275394e-01 1.927315452645510518e-01 -2.021304402387580912e-01
-5.993157760534388867e-01 -1.321147831882747981e-01 6.673067101291134673e-01
2.225214203722667983e-01 -1.130736223002250240e-01 -3.793159719785655914e-01
-7.275467395855762520e-01 1.871164638539995762e-01 6.156359903023355118e-01
5.774530044830957776e-01 -1.862953857897789722e-01 -5.078567438338781326e-01
-4.943435258325142301e-01 -1.461907790135552609e-01 2.381993461100046505e-01
5.930435606856582220e-01 -3.266516101974056147e-02 -2.402202534368688691e-01
2.668706543983910273e-01 8.983037741138394372e-02 -4.368859794893249493e-01
8.430238473106678176e-01 6.574835515087254501e-02 -4.523914156959817912e-01
-5.873467768899410801e-01 -5.266673723786142319e-02 7.136916032279497779e-01
-6.662139717267092642e-01 1.597810251486655453e-01 4.089466152271977184e-01
3.398018615191351621e-01 1.387140106912168602e-01 -4.498157452693148373e-01
7.528964894498288429e-02 -8.270599101124123664e-02 -2.841280746294563286e-01
-7.727408666426589523e-01 1.876089631719710660e-01 6.422537578426134042e-01
6.736363961711325787e-01 -1.814639319779133286e-01 -4.824945443325605599e-01
-4.769996635718055100e-01 -3.702523173769400877e-02 6.285107862845948912e-01
-1.709426214571289071e-01 8.578689996695915143e-02 3.572229983829151578e-01
-2.438888994719240755e-01 5.335192118364850272e-02 4.329740339372105673e-01
-4.413842142806096991e-01 -1.868178219947436436e-01 2.940384682184410958e-01
1.054037779817604444e-03 1.456713302613088235e-01 1.575914788660771337e-01
8.028694689539654927e-01 1.916803863678619713e-01 -6.061233377551891177e-01
5.918537533266698958e-01 -1.806924253674702385e-01 -5.510729220500031333e-01
-8.543063697117013466e-02 1.175304602102619361e-01 2.620678232325705515e-01
4.462101210761787451e-02 -1.046893148332146140e-01 -2.432227626010123323e-01
-8.025743291283365943e-01 -1.829682941804684493e-01 5.649805141950380305e-01
-8.195525482323909872e-01 -1.056213857645893900e-01 4.557515686849443748e-01
9.082564724640446174e-01 1.808661284844356176e-01 -6.438358867899852678e-01
5.711132976142401230e-01 1.775663538551234058e-02 -7.107225415785340950e-01
-6.805255625970958455e-01 -1.778420086201778494e-01 4.514772750555832159e-01
-7.716125329545693301e-01 -9.188305667775892305e-02 4.067867636824609168e-01
-2.520659459007097425e-01 1.904444620069693783e-01 2.029282010629252231e-01
-6.468623281187621532e-02 1.899403777735333698e-01 2.119702875502638487e-02
-4.239628615021527325e-01 -1.687742706459059439e-01 4.641250410409614724e-01
-8.368638213201653464e-01 -1.859847171023636114e-01 6.034700046956740227e-01
7.810445892494792819e-01 -1.009616787836934010e-01 -4.284204228721565921e-01
-5.137421499147424298e-01 -1.824057906352626601e-01 3.332037071362219383e-01
5.240045114378916180e-01 -9.455915894563836355e-02 -2.137413420017150734e-01
4.393023880639426726e-01 -7.064234637409089190e-02 -1.295249833131514872e-01
6.923917304359733516e-01 -1.857023353075912819e-01 -6.016986250140059500e-01
7.222650185728706207e-01 1.748848832751324356e-01 -4.784018077714185524e-01
-3.912707588833178596e-01 -1.733970434213369383e-01 4.259206144311247222e-01
-2.389297578006011613e-01 1.667869561961319302e-01 3.109577651444147550e-01
-3.676661676626511999e-01 -1.872933359668936815e-01 2.382546116796955826e-01
2.047491691203057740e-01 -9.436185075568594149e-02 4.664971082356546284e-02
2.691700633701343826e-01 2.398511780970794330e-02 -4.646823880978956378e-01
4.488657703819536743e-02 -1.847163554107542072e-01 -1.000874947019955441e-01
6.186847663681412923e-01 -4.921049232963401604e-02 -7.405052811131966894e-01
2.334426986010839089e-01 -3.284873020598281373e-02 -4.332588503853880280e-01
6.134430459977352479e-01 -1.845657160644887107e-01 -5.481601456847075005e-01
6.521257586820099483e-01 -1.807027179952933049e-01 -4.611057351952059236e-01
3.526161405029659135e-01 -1.626012386692328171e-01 -1.604431479259531557e-01
1.863819923935529366e-01 1.818230825338848777e-01 -2.342283930522329194e-01
-3.307323034095117631e-01 -1.464579747819661215e-01 1.069003444351176585e-01
-3.703668352467873737e-01 7.160368662888308422e-02 5.269966303878440561e-01
6.243980752804829670e-01 9.687965811600579569e-02 -2.935437245252677796e-01
4.365062479725215216e-01 1.899485607641887841e-01 -4.041815551344237756e-01
8.396829692039667892e-01 -1.777583413120529809e-01 -7.596460351279126222e-01
8.470925935404729490e-01 1.065231527063717487e-01 -4.809857930931831782e-01
-3.926685352289834285e-01 -9.446407129664639857e-02 5.335058669005978693e-01
-1.777867746117558767e-01 -1.917402647365431534e-01 1.284916748617796756e-01
-1.103146173478268127e-01 -1.429427216510638365e-01 2.533697512431941079e-01
7.198668832727223021e-01 1.524635388197622121e-01 -7.409517989327683019e-01
-4.163881206919533562e-01 1.796707553980456396e-01 4.148141087847935782e-01
-2.486529183497012685e-01 7.950131236734402085e-02 -2.343070074984836965e-02
1.857512339535345447e-01 -1.320968117907227735e-01 -3.287730769233137007e-01
8.153845536680879302e-01 -6.937887130613933084e-03 -4.169067677248033954e-01
6.559580774924127500e-01 5.500516617037733147e-02 -2.965474404404537245e-01
6.403483114325956294e-01 -7.270139415887695578e-02 -2.943279369930145717e-01
-2.777316717909632526e-01 1.897471801174050732e-01 2.426699798756884185e-01
-3.370940381639301320e-01 1.519911834453951116e-01 4.193783150774243462e-01
3.067597533444438862e-01 1.894943907102916714e-01 -2.979431692522421238e-01
-5.497490735490578873e-01 -1.630635904530684244e-01 3.115856816976555477e-01
-4.901449128023676050e-01 1.581130072901822392e-01 2.610320506041098887e-01
6.134501868338810837e-01 1.144893623025011048e-01 -2.992107894768458176e-01
-7.040668231170562619e-01 1.471750547776866924e-01 7.225378325317676209e-01
-4.735619072805357099e-01 -1.838811174194342479e-01 3.068116796892236819e-01
6.777525159206214678e-01 -1.618172066176310972e-02 -7.966417111333892187e-01
-7.600264743803487599e-01 -1.842020022565288018e-01 6.971794291010631195e-01
-6.216017246943873475e-01 1.278084505289596162e-01 6.832649304817409730e-01
-4.421538218273085574e-01 -1.907464448141859559e-01 3.180869704893098393e-01
7.988396235281355340e-01 2.388240366799605080e-02 -4.045562881052752746e-01
1.363901624914190258e-01 -1.849184984052753833e-01 -5.128137964649635838e-02
4.207229984962789215e-01 2.254674449069452719e-02 -5.880078188789424898e-01
3.157990202908670524e-02 -1.768484410240021565e-01 6.729112365793524231e-02
-3.700790760496951437e-01 1.687414076644007735e-02 5.445306069464823651e-01
-8.056181426365242870e-02 1.868874421720580492e-01 1.156725266955948572e-01
-4.703207191293738432e-01 1.562131814090575166e-01 2.411075443211220248e-01
-4.449134594732555986e-02 -1.887548787518098792e-01 7.716631396326424641e-02
3.075371147330971389e-01 -1.587616423869760152e-01 -3.850630339644633415e-01
1.424466430467152267e-01 1.205402986828373324e-01 -3.097221013492006958e-01
-6.668014608149394062e-01 -1.504217413974239187e-03 7.865940021399902005e-01
9.470431136148361739e-01 9.185669809469432234e-02 -5.509257918570761303e-01
-5.593762897720852001e-01 -1.178626130952200451e-01 6.499487419805122235e-01
3.409659101479052268e-01 3.451227348756753799e-02 -5.210787616029737279e-01
-3.573506339288694544e-01 -1.836858412939849916e-01 3.652069686700817885e-01
-3.929946262826823355e-01 1.626272077700746449e-03 7.121063815495888571e-02
6.864638700795707704e-01 1.311259235351227848e-01 -7.425125986151448476e-01
-8.371109861344695480e-01 -1.340264247717931900e-01 4.981595773662011450e-01
-1.456416253786902704e-01 -1.860650454890773464e-01 1.783928658561043656e-01
3.288601401375997046e-02 1.045504125468871975e-01 -2.351447421204322097e-01
-2.473507648799855019e-01 1.890843932730681409e-01 2.284053626772860612e-01
-8.602118874844303376e-01 1.816151236996622897e-01 6.348605859338305457e-01
5.557804678340768634e-01 -1.564631815001194248e-01 -5.888439567181369405e-01
-5.362282119445249684e-01 -1.621281283576677668e-01 2.988851008479662674e-01
-9.163567287141334561e-02 1.953992630430117020e-02 -1.721904324410586384e-01
2.022999438499425984e-01 -1.432638501480268112e-01 -2.941361061241311910e-03
-1.687424950909235388e-01 5.787362913066588371e-02 3.702996262895425494e-01
-3.160071719213700114e-01 -1.254676820630403755e-01 6.805501240802498686e-02
-4.180472736446302351e-01 1.892114960194600792e-01 3.200636047893418712e-01
-3.802906639325014382e-01 1.038048938998137743e-01 1.012110196718241512e-01
-2.004816752518960576e-01 -1.141315128926342626e-01 3.606145828590149871e-01
-7.533651505095552148e-01 -1.825102714322612563e-01 6.976891345269172762e-01
-1.769958191936489567e-01 -8.362985626703516029e-02 -7.948050143005117030e-02
-3.965078600216781490e-01 -1.006226652641044744e-01 5.320670992979447123e-01
7.103260093621862614e-01 1.463351672875479181e-01 -4.143365949561143569e-01
6.420085642475599208e-01 1.942290360129312055e-01 -5.091239011938936132e-01
2.794339961439489817e-01 5.390836799679076669e-02 8.863555103351149211e-03
-8.930439488542631921e-01 -7.079277248146968737e-02 4.928724816188834179e-01
6.536848224247805428e-01 1.463687995377958295e-01 -3.687837564984430272e-01
-8.174044798414623614e-01 -1.889191894356402612e-01 6.011333486275414195e-01
-8.282882106821093382e-02 1.898999297193141034e-01 9.418121417135631723e-02
-4.620073570812769370e-01 -1.937027451116518292e-02 6.194082520337653719e-01
7.927407401095882822e-01 -1.876579479151299912e-01 -6.417360808528855820e-01
1.115676734133116549e-01 -1.787291904023676492e-01 -1.772604514079670901e-01
-9.178745265121075469e-01 -1.680361039852652782e-01 6.171996196172385707e-01
-2.381535602680489860e-01 -1.318630575037622044e-01 3.724649660718317712e-01
2.705310158769392848e-01 1.922447768746948504e-01 -2.021837115120722617e-01
-3.145350219732373498e-02 6.327179037545775653e-02 -2.086756879212333660e-01
7.656063023193675487e-01 -9.832851601676195763e-02 -4.136654530032239374e-01
-5.792417772844822288e-01 1.830412223569378716e-01 5.290343696693010633e-01
-6.733681973161232959e-01 -1.918457514508224437e-01 5.860245060970241671e-01
-4.042403565959581391e-01 -7.374383498880131282e-02 5.556144302387913125e-01
-5.801715711539664477e-01 -1.543087439077747980e-01 6.205113029491430288e-01
-7.130238091813537737e-01 -1.675191659376311648e-01 4.518182615303212857e-01
-6.656222793247631442e-01 -1.872197551340327171e-01 6.063842029229913333e-01
2.412702910075088247e-01 6.365013776378647403e-02 3.578751586794889916e-02
3.898782641068824772e-01 1.657733553511613889e-01 -1.907739783946180712e-01
-3.778911343120998634e-01 -1.900583066345273298e-01 2.629676535874236887e-01
-5.466930684688667830e-01 -4.742999988536258926e-02 2.030515502472962641e-01
1.075832298563376005e-01 -1.794044939169474329e-01 -4.097193487360631728e-03
6.829378479332007812e-01 4.977097059318306982e-02 -3.165941463537177980e-01
5.476875661856989153e-02 1.177757841587648846e-01 -2.409417929639115497e-01
1.623952362861495469e-01 -1.501467351100684803e-03 1.134982868560680813e-01
