-3.284231615308038643e-01 5.757825242692536927e-01 -3.802984697379693801e-01
-1.320304640450198075e-01 -2.619497259343896434e-01 -5.273409139331300954e-01
-4.208678365640463048e-01 7.914223286460275730e-01 -1.599113555879215498e-01
-4.934546931339725551e-01 7.917564383263632488e-02 7.589335442162615797e-01
-2.754150168791356101e-01 -4.828565204832687141e-01 2.843264128266880242e-01
-1.747665712417758033e-01 -8.188386859591002820e-02 -4.934578106349306603e-01
-1.835434152095598292e-01 3.210375564970463502e-01 -7.960826323108414204e-01
-1.965353677459476256e-01 9.939245807933383414e-02 -5.519613893025897555e-01
-4.116922729362702538e-01 -1.148760188415337280e-01 5.668296933179126640e-01
-3.661278894961804697e-01 -4.866599085770400568e-01 6.828149115547301751e-01
-1.852307246968768750e-01 3.582424394551731589e-02 -5.474417690427142436e-01
-4.970783853402637731e-01 2.796903709912912928e-01 6.050892092505401054e-01
-2.298312293666270600e-01 -5.326067186895823147e-01 1.277886717396450045e-01
-2.864578719752415292e-01 5.094007989092852462e-01 -5.069988604413883104e-01
-2.023290337992599830e-01 4.251294096531176292e-01 -8.022875013820910395e-01
-9.296748426029428913e-02 -7.410697806201957949e-01 -2.922208833850026277e-01
-2.241571845657874817e-01 -6.139380215754947079e-01 1.718704305803433752e-01
-2.066818369418547130e-01 -3.097715908225650572e-01 -1.615991986809664493e-01
-2.645956053597202651e-01 -3.655477427387031630e-01 1.379396148004724820e-01
-6.637747716697242617e-02 -3.112618804573029641e-01 -7.716984536106187287e-01
-3.642689869831635674e-01 4.569708935691945140e-01 -1.235905619186636883e-01
-2.668866913062620250e-01 2.432548499337942871e-01 -3.671202763692902327e-01
-4.081912374866794035e-01 6.196377097795684463e-01 -6.981950064486752705e-02
-1.523469646885732554e-01 -5.834772218592614301e-01 -1.668039405830217259e-01
-2.391425745193518637e-01 3.315446044028770856e-01 -5.627046163787663424e-01
-5.210193637909815711e-01 4.591168284045554771e-01 5.576156397004389254e-01
-4.213148230011989209e-02 -7.201417265595263517e-01 -5.314378835180225691e-01
-2.199947637022865166e-01 -6.358331331072635262e-01 1.722562847282186060e-01
-2.875319390886934001e-01 3.020506138759232462e-01 -3.269018293430547839e-01
-3.879167897140933796e-01 5.203016318857995870e-01 -7.412538758507859760e-02
-6.867899013479489279e-02 -1.515561733081725038e-01 -8.967798663002047865e-01
-4.103096429803443912e-01 6.749632821171456243e-01 -1.073938678925296375e-01
-4.640300179822469673e-01 3.903844947471146742e-01 3.674382597990873967e-01
-2.137208543520799642e-01 -2.796677304562060762e-01 -1.563951639946705163e-01
-4.470887592960130497e-01 -1.468438938923200821e-01 7.481104055870858582e-01
-9.690074408119368765e-02 -4.634087377020581489e-01 -5.099815945759432756e-01
-1.245428172076406548e-01 -5.695132131910344286e-01 -2.997707599174261883e-01
-2.427829177024870277e-01 -4.981732537382380643e-01 1.550936692362279157e-01
-1.641192591720113669e-01 7.457758516503298907e-02 -6.722176144377425278e-01
-9.168782908354347616e-02 -7.053083244237906557e-01 -3.280507922321888037e-01
-4.473945706142372081e-01 2.651149210205042822e-02 6.027854141209968430e-01
-3.226702276874475195e-01 6.002226071195162493e-01 -4.260423651096864051e-01
-2.990875510115553748e-01 -1.848605074322180186e-01 1.353740553709015804e-01
-1.737614556204813976e-01 -8.807302628122221089e-01 1.779813675247686189e-01
-2.512131450127505494e-01 -2.377229670695965580e-02 -2.095127135315745515e-01
-3.762770965396565193e-01 -1.122041058718622683e-02 3.248201853859395416e-01
-2.262179267361478785e-01 -3.368354603009537929e-01 -5.357708799513105635e-02
-1.082186157352094530e-01 -5.511381709066632828e-01 -3.864467472069287868e-01
-2.564013345938617738e-01 -1.764537796014615523e-01 -5.773823573155976302e-02
-5.143079345757002319e-01 5.961272752280185605e-01 4.124614158439121603e-01
4.170997966715040417e-01 2.411837593827483028e-01 -7.276233650680774545e-01
3.897252702474662822e-02 8.034127967747329846e-01 4.443803970351903887e-01
1.186094853490587825e-01 2.694921603942180832e-01 5.490649416039680153e-01
1.604833157114931019e-01 -4.283542446822719875e-03 5.982170296893277728e-01
3.497448276974881032e-01 1.550351106097709319e-01 -3.612506766706694572e-01
1.733451553931864009e-02 3.300995927358483240e-01 9.390854228818221738e-01
3.274806797155618843e-01 4.651043670055460960e-02 -1.724260570866262832e-01
1.837613038232481510e-01 3.693406321217446164e-02 4.619160608585442529e-01
2.907711182058521637e-01 -4.034679219043109666e-01 3.682103784531975954e-01
4.892933666873869325e-01 -3.681274624568121046e-01 -5.267251713992343598e-01
4.639386089927191592e-01 -1.290399810805910041e-01 -6.185111995085622594e-01
1.012322099673199499e-01 9.683600730438599591e-01 3.354670226241025788e-02
2.746837293562027216e-01 -1.619501191453925626e-01 2.339868257137512342e-01
2.250898439793321548e-01 -2.741649785955362351e-01 5.450194899802585091e-01
4.979036311941253401e-01 -4.406063369996642276e-01 -5.029267473326225479e-01
3.430386392585170752e-01 1.294298480140265370e-02 -2.118202215243980835e-01
1.301923651799662129e-01 2.815680812725086524e-01 4.883777310651869485e-01
4.660988540519056533e-02 6.715010632418103587e-01 5.226979592075676750e-01
4.267975712351119721e-01 -2.303721150241551108e-01 -3.709470943378954666e-01
3.191654264606266778e-01 1.582060596523481855e-01 -2.306870726465304333e-01
2.004550881008257401e-01 -1.275837754382793399e-01 5.283558468337379299e-01
4.192099692425860780e-01 -6.247062856721421475e-01 -4.280852321363697727e-03
4.209468575831452619e-01 -9.395779293750851358e-02 -4.608589150292770054e-01
1.609540157191448051e-01 4.635817110153923001e-06 5.925382378948559348e-01
2.446415897960789732e-01 -5.875913606423988772e-02 2.775930758797857667e-01
4.456091858662771243e-01 2.176301427977923031e-01 -8.319235267276758883e-01
3.797757293168630421e-01 -3.401149453851396998e-01 -7.321313267562971905e-02
3.563496217129487054e-01 3.312876283438895841e-01 -5.391387867046456561e-01
4.246444895519188023e-01 -6.386511317564403933e-01 -1.616389732466889592e-02
3.229814469868710347e-01 -7.070055899965890234e-01 4.846484867098113658e-01
4.654417408956688096e-01 -3.686102950904132647e-01 -4.223859956979866825e-01
6.466404865390648626e-02 5.764927675261980605e-02 9.633436481760233594e-01
2.887217381301159791e-01 -3.969413485091047300e-01 3.716188766108283192e-01
2.265226841377254718e-01 -4.408040065187467937e-01 6.797515883052087649e-01
2.408433270701271223e-01 -5.350004400769420299e-01 6.970406120933796412e-01
8.248733911305602962e-02 5.122143423477696494e-02 8.911186331119697046e-01
3.994551115530852181e-01 -1.408940959107380098e-01 -3.275033088721565067e-01
1.566040658943946284e-01 -9.258421091595535335e-02 6.898222035349558245e-01
4.091562675406050786e-01 3.561051219010730740e-01 -7.902330802227667261e-01
1.234096392841268069e-01 7.238936640362687580e-01 1.437281093064876336e-01
4.533962775249746335e-01 1.004216521783267840e-01 -7.666972578734848609e-01
9.370424679129546464e-02 5.423250747330083943e-01 4.267717690299285271e-01
3.305966238427769377e-01 -7.603065365908303619e-01 4.965584878960264681e-01
4.022594632603118670e-01 -3.051075704763571150e-01 -2.007994159546173940e-01
2.525235435357658376e-01 -4.794187434489984856e-01 5.991236651247787703e-01
5.006428734793514357e-01 -6.590938989558154937e-01 -3.300236227354529372e-01
3.779415090173235403e-01 -5.138352381685346026e-01 8.174550797355227549e-02
2.786127122596313010e-01 6.688710412333563615e-02 2.327193447190272976e-02
2.068941502719772452e-01 7.942232233541308695e-01 -2.795443472586553457e-01
4.135342962270266431e-01 -8.864117303888610633e-02 -4.330573615721367564e-01
1.528032544471562837e-01 -7.475032759778878211e-02 6.912964508051903101e-01
2.465493764779350394e-01 -7.898953144406747895e-02 2.863948988301296961e-01
2.414403698625207095e-01 -1.200128923748234461e-01 3.433623011240082290e-01
3.943732386871325324e-01 4.148896987092056676e-01 -7.755491103367261330e-01
4.992052464401637857e-01 -2.988016671274544844e-01 -6.285642136404492319e-01
2.440857778566594971e-01 -3.110723257702662989e-02 2.566216316762413019e-01
2.744054890305484551e-01 -4.297826713184631497e-01 4.617838227563115239e-01
2.179011976622134694e-01 -2.084252073811096728e-01 5.207277665543164069e-01
3.000623718257269812e-01 4.321552117857405118e-01 -3.792069209171140542e-01
1.863782331039655904e-01 2.680387774978126858e-01 2.550000089693573169e-01
4.465406520020729353e-01 -2.311972318394894810e-01 -4.562772432647943521e-01
2.835623202061091641e-01 3.429739302922897304e-01 -2.318630691354127416e-01
2.208208917454700937e-01 -4.923671431465239112e-01 7.482185677852095651e-01
4.225042868305084465e-01 -2.917697480788531972e-01 -3.002976056006120276e-01
3.264479750929919488e-01 2.210547897761697411e-01 -3.155895534158551508e-01
4.350481269228891890e-01 -6.763294555163370525e-01 -2.962092781958221635e-02
3.601052765514934917e-01 1.302018727682412169e-01 -3.853863773292743877e-01
1.395487563840466516e-01 4.580046869072970095e-01 2.983441171659304558e-01
2.906801507594698464e-01 -6.364925866647092034e-01 5.657441092323434173e-01
3.256243398281626761e-02 4.877354388419475884e-01 7.393726279820209690e-01
4.966218530544131426e-01 -7.822918082958909558e-01 -2.082778610701902511e-01
4.511193449698917002e-01 -1.623689590982113906e-01 -5.344566396678079867e-01
2.656479704104668105e-02 4.630623725058852780e-01 7.863798913339289376e-01
1.767429274952079729e-02 4.566839075645147683e-01 8.305153760024880372e-01
3.543134867596630100e-01 -3.073663652871446716e-01 1.003056040116128388e-02
2.257737481204456775e-01 1.257544154174273232e-01 2.037102507320825151e-01
2.879351194654647950e-01 -3.267433672499286956e-01 3.156594409858187733e-01
4.820764026452446088e-02 8.664812850849906711e-01 3.507839276851558163e-01
3.845244342605881327e-01 2.635148504121825330e-01 -6.045719464275681743e-01
1.923366426142091856e-01 6.157853808814397478e-01 -6.515443624977441950e-02
4.159265449348267807e-02 3.794115923789911915e-01 7.916657553890948940e-01
4.723040659025730670e-01 -4.218563492521305164e-02 -7.284409229410719888e-01
1.612688969863144417e-01 5.162896115678252684e-01 1.543924479312274445e-01
3.882373743920986553e-01 3.424806876174083525e-01 -6.875552385120249355e-01
4.019892009445064640e-01 3.848128024502627809e-01 -7.832899269662515485e-01
1.519103046538040624e-01 2.719014528940918995e-01 4.019222248638996686e-01
4.455517600173056203e-01 -6.355615137716676966e-01 -1.098787084734575703e-01
2.101004149496729645e-01 2.921706119243993038e-01 1.312179686120551192e-01
2.269843252441529902e-01 -2.155478688457034275e-01 4.871748132821626109e-01
2.982654697055935888e-01 -4.840342098525156067e-01 4.037131635972617816e-01
1.418556479095702261e-01 6.592455982987925900e-01 1.180436019536859893e-01
2.338448663411885065e-01 3.896659725382997652e-01 -5.472617466832215005e-02
2.972884194535750368e-01 5.875681249929147754e-01 -4.985980577586732743e-01
3.372102950737465021e-01 2.194115289274578273e-01 -3.610949307514499385e-01
1.171487040216642184e-01 -2.966480551512382102e-02 8.085149746413869964e-01
5.070515574124151437e-01 -3.811096341688362532e-01 -5.931216020318402782e-01
3.809380349408189592e-01 1.122515520846016635e-01 -4.609768594630063165e-01
2.899013557760694582e-01 -2.227974554415558528e-01 2.191542282756329951e-01
1.343558781810022529e-01 1.572506629822976176e-01 5.754074316476224249e-01
4.493294596397855445e-01 -1.325054000907843199e-01 -5.519217978991693974e-01
3.276800618471961690e-01 -7.096828897751170651e-01 4.664397937555964102e-01
3.236180687031385839e-01 -5.581208658071836748e-01 3.559189729437594041e-01
6.502054608957318071e-02 7.226166637850004459e-01 3.992321677494312104e-01
7.185116243242652134e-02 8.974294548918209102e-01 2.215780623879088362e-01
8.368357621871611030e-02 2.007446571129372151e-02 9.122563009654174326e-01
2.162870619143875128e-01 3.655465064192409737e-03 3.483423071205368204e-01
1.850879530166761877e-01 4.809586443697024261e-01 8.049343290226926295e-02
3.536177710271913854e-01 -7.231733160246736070e-01 3.648320369395857132e-01
4.070537755419381121e-01 -7.766888232994449970e-01 1.772645948645986125e-01
2.926423326611358178e-01 5.940306582018666237e-01 -4.838205326492410197e-01
4.207738708411322137e-01 -6.055750774016600141e-02 -4.883615693162806082e-01
3.796517012617839359e-01 -8.203406182523609314e-01 3.335951007898595999e-01
1.012449638391973716e-01 5.001023675260660717e-01 4.296341017611661206e-01
4.518890487190138638e-02 6.470983936749125087e-01 5.495342173566332145e-01
3.823119430541135344e-01 2.999404027350888735e-01 -6.257470520621832843e-01
8.386505253410617144e-02 2.031485148354174319e-02 9.112621740978278373e-01
3.464029460437615393e-01 -3.519786656793588153e-01 8.224154315479191568e-02
2.630809910360695225e-01 -4.791065994833831887e-01 5.528567361882977815e-01
1.039135662835337648e-01 1.344594702760374683e-01 7.273374877663794091e-01
4.106078573738680126e-01 -7.932201035097447006e-01 1.757634496178783756e-01
6.681577566947467794e-02 2.150972856460076910e-01 8.207677550372365349e-01
3.544553097740821279e-01 -5.248517402740271454e-01 1.934037955841266254e-01
2.784963840512532651e-01 -1.289162830783819602e-01 1.894272131363401168e-01
3.715389216225103985e-01 1.244635697654970924e-01 -4.303525971232479153e-01
3.934291689311839035e-01 -1.880502091073493198e-01 -2.613521953909144213e-01
4.988967788834577921e-01 -7.148814089220735246e-01 -2.752193468069226712e-01
4.053392210459486611e-01 -8.394727694064491041e-01 2.378503779192307488e-01
3.513057071219571337e-01 4.405662565824998156e-01 -6.096095205606351097e-01
3.220924634889943405e-02 6.259878504043792091e-01 6.239509613727304282e-01
1.221469898558761313e-01 3.251529129193354573e-01 4.865620400241555954e-01
3.456909718850819657e-01 5.933202057076583102e-01 -7.143728081108107197e-01
4.561756312723151408e-01 -7.006214205615582946e-01 -1.011307415256588738e-01
4.237920655877557841e-01 2.639685977811681572e-01 -7.760599784049024841e-01
1.061258121878521088e-01 8.539969074821263453e-03 8.242249609021117251e-01
3.211962182780102593e-01 6.442075148285365122e-03 -1.111446695356281683e-01
4.195963082756008489e-01 2.716940227890741744e-01 -7.643131102005407129e-01
3.673274456913691588e-01 5.790148740993988907e-02 -3.556904888373718654e-01
2.245833496902051030e-01 -2.327187525428011383e-01 5.121632426527171766e-01
3.944245572584152426e-01 -8.378066596728725446e-02 -3.539008402330988678e-01
2.686229979071559915e-01 1.883444178334057750e-01 -3.595113728774436412e-02
4.883215668296250200e-01 -5.564543131242896123e-01 -3.631673751803751182e-01
1.643662898111195036e-01 6.234590407513656007e-01 5.023127672656583359e-02
2.677619144934413886e-01 -5.091701168387486875e-01 5.578936934101220713e-01
4.496632498484929852e-01 -8.570750687731645279e-01 5.960497649043808993e-02
1.257451010658284241e-01 5.655856810024231240e-01 2.674791284538174385e-01
4.302871242297775511e-01 1.877814234502055979e-01 -7.399075917748836329e-01
3.387604974935129465e-01 -3.972211588613337729e-02 -1.486243806695254910e-01
1.491611552666014251e-01 -1.231847703325516102e-01 7.481417005078487836e-01
4.526219766119299881e-01 -3.393588800448140569e-02 -6.496577260970027856e-01
3.306469847116217387e-01 -3.199759533012548895e-01 1.238222369591154698e-01
1.189529465932473440e-01 3.751002422304548500e-01 4.582245986411640493e-01
4.291436472078937747e-01 -2.077382975244612962e-01 -4.003179115918229503e-01
3.413304857975307804e-01 1.866849659447052390e-01 -3.513617261781789569e-01
2.348313131760975947e-01 -2.660303613400242240e-01 4.956903306635286333e-01
1.270594585626478035e-01 5.342275509649425658e-01 2.882807416233602593e-01
1.442289645945432353e-01 3.319575118250170376e-01 3.845857410913788854e-01
2.185615990856845936e-01 -8.465211637153408422e-03 3.486852879537585825e-01
3.374883922394136815e-01 -5.538464423300166750e-01 2.918645069145325288e-01
2.685111348750729987e-01 -6.204705899666937974e-01 6.487885284947649822e-01
7.646496936745922346e-02 1.869387182094487398e-01 8.025444737160057906e-01
2.491111005166929959e-01 4.789030049392294930e-01 -1.967409744564550533e-01
2.734492311267856524e-01 6.047080347243429799e-01 -4.092218022844935632e-01
8.391692055415117535e-02 4.632996924833274743e-01 5.362738711659174040e-01
2.980947218924966391e-01 5.196869958347847263e-01 -4.446844337120467450e-01
4.452502442417673456e-01 -1.392170801591166296e-01 -5.284690506284941414e-01
3.063386905090801360e-01 5.014494159626781827e-03 -4.519698539882965188e-02
7.857652592373418066e-02 3.610536397329155434e-01 6.460435190375636294e-01
3.214962407722118942e-01 1.158690028202159911e-01 -2.050264519031353150e-01
1.224366048887201019e-01 -1.759247540236897889e-01 9.092085228995160362e-01
1.502888112695545120e-01 3.053727431733909148e-01 3.806712010034798976e-01
1.670540160860930767e-01 7.251134558857593726e-01 -4.747915382719263694e-02
2.876339307697203806e-01 1.111156343383413320e-01 -5.345403131562455334e-02
4.895087155218265651e-01 -2.571035419084988227e-02 -8.173461753473684199e-01
2.556491739850358380e-01 -8.044694500306673324e-02 2.479765454081765685e-01
3.942507385106103213e-02 8.605163655257904720e-01 3.940992288229911433e-01
5.308549634079307022e-01 -4.384879213378484186e-01 -6.483005345573659151e-01
1.613946436482379954e-01 7.948880017131805531e-02 5.233751665970239886e-01
2.267243161475428481e-01 6.749221355845331782e-01 -2.650240586963104605e-01
1.771346481432638509e-01 4.260551307157646739e-01 1.615970550080482737e-01
1.359436825122124770e-01 3.863464528640848661e-01 3.746752097501037659e-01
2.698095329587640867e-01 -1.509000797074139082e-02 1.309828743367279780e-01
5.079770351461161404e-01 -4.007527439421501581e-01 -5.805363211857307304e-01
1.887065751454959917e-01 1.778176666902279712e-01 3.211810005385568045e-01
7.237454802212435478e-02 5.667870375350286816e-01 4.990188045523872296e-01
3.642970132796110039e-01 -3.010525722451685704e-01 -3.881293028164888720e-02
5.318583281884503577e-01 -3.794708705068637333e-01 -7.026006217303680801e-01
2.424011332750226067e-01 2.440024227923266731e-01 3.122129676280088056e-02
2.616088501523913257e-01 4.622738403144708297e-01 -2.371303088025604744e-01
9.675709958969312685e-02 1.876588848381724461e-02 8.563969818369433495e-01
4.446974629833121417e-01 -4.125561700866570147e-01 -2.948172780825496497e-01
3.271682113583056495e-01 -1.297637509892133056e-01 -2.193769615157210862e-02
3.283879291825941849e-01 -4.989030477249335460e-01 2.850369683344041727e-01
4.625293319870729669e-01 -6.810441274561951364e-01 -1.453785206047731315e-01
1.296680520170785667e-01 7.426878070945289179e-02 6.660362249378142252e-01
4.763790412542595609e-01 -6.741654892384874032e-01 -2.115463110702258120e-01
2.614670133830555576e-01 6.800910783045918118e-01 -4.207842379921576392e-01
3.382764948280198580e-01 -6.860697321949377203e-01 4.002904841407236569e-01
3.066024380509239089e-01 -5.085118468875888809e-01 3.880937093966304596e-01
2.158704290276271809e-01 8.886551632712920146e-01 -3.985462513137208451e-01
1.425425023493490650e-01 4.639933352050445992e-01 2.802328576563005158e-01
2.711055049608950274e-01 -4.945323940143334651e-01 5.309409661296106142e-01
4.292151212137107485e-01 -2.551881103338993206e-01 -3.604871183177200678e-01
4.844014938738521181e-01 -4.401434239768642898e-01 -4.444843660461555990e-01
7.518118941440343761e-02 6.656963328433576077e-01 4.031125686369305683e-01
1.917386795405476296e-01 5.933963721541645198e-01 -4.360792552256263083e-02
1.479363057789869762e-01 7.015450778897468487e-01 5.576275354554553060e-02
3.907660614348680284e-01 -5.784996550886797317e-01 8.056967926989791473e-02
2.199458623388886036e-01 7.138319398774756186e-01 -2.684051710683375003e-01
4.567748763380664601e-01 -4.883937413133859207e-01 -2.832851188141014553e-01
2.284878126807455834e-01 6.272220151303489200e-01 -2.323542993690769776e-01
1.726420543845046396e-01 3.778268651526549005e-01 2.219738119824460620e-01
1.876803437254399853e-01 -1.693063888638139947e-01 6.193173784142242955e-01
6.164548356850219762e-02 1.172657106627793266e-01 9.260615813221227954e-01
3.280786209784865015e-01 -3.856716707108164000e-02 -1.030564176333858828e-01
2.103990390162434609e-01 3.683036054125860548e-01 6.550873148577325555e-02
2.118165152595240519e-01 4.524266770143902661e-01 -1.183532878657722262e-02
1.219566885633417141e-01 4.177613626457679086e-01 4.090451098257566476e-01
3.330575716495997596e-01 -5.580183786624750564e-01 3.147007264868013632e-01
4.964510699615978240e-01 -4.575625281426207169e-01 -4.822525522469741643e-01
3.243045926342356111e-01 6.020510676442878406e-01 -6.285703849340094074e-01
3.096709475251865906e-01 -1.604683056351971226e-01 8.028046204200948999e-02
2.987288716104811170e-01 -3.203576393143842682e-01 2.632246293418070149e-01
2.616900269755065289e-02 3.559147264285719703e-01 8.787507310615477740e-01
1.166136887555410395e-01 -1.813656768328005819e-01 9.391841921978870689e-01
1.353052464676089972e-01 1.521944064847706446e-01 5.755482291817798357e-01
1.351258763149964237e-01 5.759016193145592988e-01 2.178762678967743893e-01
3.469588760956178741e-01 -2.560257199789971461e-01 -1.356425710866153997e-03
2.398606843756136142e-01 4.167400504362106517e-01 -1.038439001935802380e-01
4.548197023586306731e-01 -2.827364201753589379e-01 -4.487504301490704561e-01
5.056534986387175579e-01 -6.771368827501536014e-01 -3.365925957740342755e-01
1.910325376479555803e-01 2.198282200814230449e-03 4.596187447241981694e-01
1.056911906661435335e-01 3.324751380633006459e-01 5.520717280627721602e-01
3.035624704633622661e-01 6.803173889673544972e-01 -6.044017838529709419e-01
4.636182995670385387e-01 -7.159484395055191186e-01 -1.205947500094422392e-01
4.796301610851327335e-01 -6.963411270567403388e-01 -2.069522445941827382e-01
2.966154831292692196e-01 4.709405096631891774e-01 -3.969996115600934461e-01
2.038755629645283007e-01 9.761300645004340401e-04 4.046906791601013742e-01
3.507133147279810625e-01 -2.531235707328785556e-01 -2.017115746941067905e-02
2.914369160356282129e-01 3.361129745005048131e-01 -2.603713862846434024e-01
3.689215544391247215e-01 -6.023582467112845729e-01 1.959388068696949758e-01
3.274306466478739686e-01 1.991772260404649497e-01 -3.013631545167735348e-01
3.022371352256326693e-01 2.199445556024023918e-01 -2.091543662787540281e-01
2.142854525060158555e-01 -1.311635208382806450e-01 4.711200738809920296e-01
1.595867286542723140e-01 5.519518466761758058e-01 1.315522830684637545e-01
4.842672469871779350e-01 -2.637205171120215463e-01 -5.931520323953000107e-01
1.800751934656398268e-01 7.146672617893886637e-01 -9.538001691436330531e-02
5.832407081260503057e-02 1.339235296287028254e-01 9.264418469995345795e-01
1.006741274933219132e-01 4.472210052864262209e-01 4.768587436373092348e-01
6.885160053687025550e-02 8.690638779957937654e-01 2.586454001816988479e-01
1.904310052881208748e-01 2.965794520010029411e-01 2.131952976443934888e-01
1.873839241287642565e-01 5.645646088072000524e-01 -2.410979203377355319e-04
3.031278504597917367e-01 4.968363715360156752e-01 -4.472842301547731436e-01
1.964119393967135585e-01 4.377483177810881920e-01 6.770612639075244965e-02
2.475846389841223349e-01 4.755716785742012398e-01 -1.872713143326477092e-01
4.594230890910808718e-01 -2.162297059726089876e-01 -5.250734033544736112e-01
3.314761709619984398e-01 -2.957291765951933771e-01 9.969653833996748593e-02
3.829703441408775499e-01 -7.215867584728226092e-01 2.355893750229656192e-01
6.779912344120288259e-02 6.277510101711063495e-01 4.673805639995863848e-01
5.955518950524538863e-02 3.038334247802621513e-01 7.773347235025905855e-01
1.344424135514228069e-01 -3.121063626305069748e-03 7.107038013243147656e-01
9.445276164890195614e-02 7.750314619603977384e-01 2.266421121333833666e-01
4.152152456717206896e-01 -1.739489729079171376e-01 -3.682120606875244895e-01
1.411061787732928452e-01 -1.248200496108675950e-01 7.846237651541372315e-01
4.952442954584285739e-01 -3.292390141637233786e-02 -8.362356879275860688e-01
4.360575471847118467e-01 -5.170117566816262444e-01 -1.688010968441872039e-01
1.802510474824806919e-01 -1.198575593280088759e-02 5.185974459120760161e-01
5.214179942744566754e-01 -2.201917458111690429e-01 -7.918571769134142846e-01
3.718290206557533506e-01 1.525688094822535423e-01 -4.553935201147069622e-01
2.912578530295357737e-01 3.716341564994438684e-01 -2.896418288517473849e-01
3.798284389829400531e-01 -3.929229658874022202e-01 -2.876756710510688236e-02
4.467836495587551582e-01 4.691220413822044799e-02 -6.926148508665054271e-01
1.125190573998274268e-01 9.087032270183778015e-01 3.483487288688863481e-02
4.234314283305324333e-01 2.808222634306131171e-01 -7.887466347542064771e-01
1.040449550293188336e-01 5.725378678251421549e-01 3.561535017083096721e-01
2.003626712000926569e-01 -1.977385287802526093e-01 5.881090077924769899e-01
2.891928083754529699e-01 5.576781479317431955e-01 -4.380356420681964513e-01
2.171313320469155442e-02 8.015114655536333954e-01 5.211947244787679123e-01
1.775802521278825041e-01 -2.106025788945714849e-01 6.982636682539196116e-01
7.392910607656330568e-03 7.093600085931399679e-01 6.615529723810972262e-01
4.085170676206643647e-01 5.191563527346185897e-02 -5.301055134107269806e-01
2.330872780227646046e-01 2.596843323766163114e-01 5.853855095464267910e-02
2.130503112787129616e-01 1.219873567490637745e-01 2.623380632277635960e-01
3.026194464581211663e-01 -2.098297910721370618e-01 1.527660584763270435e-01
3.099506913428733412e-01 -2.921622625704083931e-01 1.904737416370675673e-01
3.129737660353389961e-01 -1.037777209601884743e-01 1.792894626573751649e-02
4.495949838277351063e-01 -4.353509827666183774e-01 -2.968733958139165297e-01
2.291533686026527017e-01 8.440231216113268653e-01 -4.186667082389681216e-01
2.143297150867916889e-01 -1.516753037375611346e-01 4.882800397125416914e-01
2.015885257951662013e-01 -9.931740692410935545e-02 4.995038591915587634e-01
4.457904581553433498e-01 -7.707540597442141816e-01 3.453206494828014398e-03
1.556487654998234549e-01 6.314843183175959940e-01 8.142754865532213226e-02
1.016926566658759162e-01 -1.802118718828351132e-02 8.660124890989484570e-01
3.418746994572148812e-01 6.253113346059812998e-03 -2.010889006412689972e-01
1.453571421224406079e-01 3.731060838961419157e-01 3.448584136013497781e-01
1.544994114310488387e-01 -3.398482516417143939e-01 9.081767621778679134e-01
2.226419579485802158e-01 -1.665916856185588601e-01 4.646795642806367255e-01
1.324137597042582271e-01 3.096208084254579718e-01 4.549658364928075294e-01
2.823961055051256719e-01 -4.353934141671539360e-01 4.317122870391192357e-01
4.413226887344404159e-01 1.870213874472017590e-01 -7.873508030141253000e-01
3.143294733216082104e-01 -3.175637727821726264e-01 1.928832177094080003e-01
3.979117124949475004e-01 -3.964516952133229633e-01 -1.045780591738416088e-01
3.663379287862835176e-01 -4.609505664357634314e-01 8.756667930937001021e-02
1.485904833385196522e-01 -2.842535690837458828e-01 8.868914935211442696e-01
1.221568788649192161e-01 7.688291343467424932e-01 1.111717524358420417e-01
4.787754283619196638e-01 -6.454737968580299690e-01 -2.462612760238835630e-01
4.386622245954332477e-01 -2.715597664569286418e-01 -3.878014647466418996e-01
1.020382270951208786e-01 1.520682028651015039e-01 7.206121882819057634e-01
2.223093505094485278e-01 -1.236246647326497139e-01 4.297790425667685210e-01
1.293708330583508148e-01 9.440940343260921797e-01 -6.853518446580617041e-02
2.601397308263135866e-01 6.556009968124355547e-01 -3.942823080253813894e-01
1.548988686887265709e-01 -1.710951223654279263e-01 7.636721236601143881e-01
2.084466811392967078e-01 9.704357916350823954e-02 3.035001230245895631e-01
6.297977136785798402e-02 7.532201177043175433e-02 9.557316728979862175e-01
4.108407734272143674e-01 -1.657935517132131109e-01 -3.560502367997437911e-01
3.682240857482775853e-01 -7.266958840510116813e-02 -2.491352134228608239e-01
4.501297819368125785e-01 -5.498995096997358889e-01 -2.022964080694246713e-01
4.917171530966262250e-01 -1.409541142363134603e-01 -7.294737154318912120e-01
3.167179542926523705e-01 -3.489754046222163231e-01 2.090497241723905941e-01
3.183858541101268202e-01 6.289805249822937316e-01 -6.255623116899097225e-01
2.473947299857375548e-01 1.712044781384411962e-01 7.104886394692698504e-02
1.391993465656234386e-01 6.198138990644154189e-01 1.629770890876462985e-01
2.407972435897431651e-01 -3.161817869664619307e-01 5.121222583370921289e-01
3.846729567644310843e-01 2.763167877308879694e-01 -6.160494717703545176e-01
2.130278043796207388e-01 -5.955482738171729261e-03 3.706749444234066493e-01
2.926134242678902764e-01 3.352594591358591392e-01 -2.647758164702134764e-01
3.974824026670259469e-01 -7.633201442118747737e-01 2.076609302847949590e-01
1.694754873032986719e-01 1.434984718841105511e-01 4.340120585065903591e-01
4.870225843384035636e-01 -6.723859938773463218e-01 -2.594297612977291556e-01
3.919645576820406929e-01 -3.904819638469953502e-01 -8.371437339926322829e-02
3.264384945411279437e-01 2.225443679402519248e-01 -3.168084164445899020e-01
1.972693802222546811e-01 -4.296104840346259279e-01 7.977498315842592724e-01
1.535761173767880294e-01 -5.843728962659881787e-02 6.741280659095123529e-01
2.429809069185341897e-01 4.324218698683586770e-01 -1.307066265001849692e-01
2.750447016744505535e-01 2.878873218079031071e-01 -1.481456184559250266e-01
1.773639384268394792e-01 -1.893843097003199694e-01 6.812557124818402476e-01
1.689896880956995029e-01 -2.700847269500571968e-01 7.860175684060999313e-01
3.330199919746215098e-01 -6.513695445521384686e-01 3.938389547039033989e-01
9.811497903752841587e-02 -4.021805166016963889e-02 9.003802087897498918e-01
2.024173560047933529e-01 -3.178712686388244623e-03 4.145596173779251270e-01
4.411389687886078104e-01 -4.735414401533188378e-01 -2.277184091578299263e-01
1.428290384390019582e-02 6.427781667741295779e-01 6.878584283404552968e-01
3.840125296529690591e-01 -6.618131182285441616e-01 1.804800612770297574e-01
2.850181651804220562e-02 5.719644417750433529e-01 6.858091106252747204e-01
4.141122661855951015e-01 -7.061659069619553586e-01 8.684610926377078766e-02
3.781162362681592670e-01 -6.670845775386143872e-01 2.106320984499874538e-01
4.254663509278115985e-01 -3.354894102714890414e-01 -2.762179076921598697e-01
1.402501696276969023e-01 5.625963717275996867e-01 2.068039050044906957e-01
2.628353038218485607e-02 6.940337544572982020e-01 5.922051915432567926e-01
3.632706310251082593e-01 1.401764164309453886e-01 -4.076174426299973286e-01
1.730834143586485185e-01 8.996183932966947960e-01 -2.213816018340692693e-01
2.168141409337270009e-01 5.638995518418546959e-01 -1.279172320114320416e-01
1.660504662789666352e-01 -1.700997558393949616e-01 7.142382525411548055e-01
1.876663146386998299e-02 6.470875350619372801e-01 6.646754059594016661e-01
2.569052082840264650e-01 -5.670516282977968725e-01 6.541679180125009596e-01
3.545447346376479070e-01 -5.813133388580165040e-01 2.407802822173541468e-01
2.937146449905281842e-01 1.378197940962120303e-02 2.393598272238596936e-03
1.996108622431983226e-01 -1.211699657990097934e-01 5.266084221909475005e-01
2.257837231220397867e-01 3.231970543035911358e-01 3.663159761078529225e-02
1.480054347853027308e-01 -2.806178697098023478e-01 8.863649969459467259e-01
4.933770621436885384e-01 -5.962413491985937286e-01 -3.515365379399472134e-01
4.409650590484205379e-01 -6.586481809144927313e-01 -7.036151893513713229e-02
4.503142967209983194e-01 -3.520601523399052857e-01 -3.704712193669326692e-01
1.575035674182442835e-01 6.218877203447273905e-01 8.146412315066367538e-02
1.158073908642585359e-01 9.647658018810543190e-01 -2.692223376068905716e-02
4.664136788882640716e-01 -2.246044852896186828e-01 -5.484490815425205890e-01
4.126046626430140973e-01 -5.088106854301124304e-01 -7.354591625149439760e-02
4.124049135546006828e-02 7.110827323722300752e-01 5.126086385236779952e-01
2.867759137877587960e-01 -3.773101901770969935e-01 3.634897490140698295e-01
1.319659245433972283e-01 5.704844919332749953e-01 2.362282470182115457e-01
2.491706640009178630e-01 2.694506517502582854e-01 -1.980518706799017092e-02
4.899769661480623539e-01 -6.314038848406312854e-02 -7.877209577839563437e-01
4.289837206568248851e-01 -2.009126706905118021e-01 -4.053954860343664257e-01
1.636197023589568422e-01 6.864548577312806765e-01 1.903938530360297981e-04
3.915548247515987512e-02 8.284422736665881803e-01 4.224084151645790541e-01
4.731600454824623769e-01 -6.754786501639875596e-01 -1.964089834694617565e-01
2.120726025692218630e-01 7.510272954338904627e-01 -2.655653805320742911e-01
2.326108521014655373e-01 6.632545163969898461e-01 -2.808032287656057058e-01
1.988306435501592528e-01 7.092458552111609027e-01 -1.725182480582324318e-01
2.716286807602822373e-01 2.475833947627978926e-01 -9.916384205457909329e-02
1.220313282884823713e-01 -1.085992514784231977e-01 8.540175316147942119e-01
5.081671988360836334e-01 -7.365892706519124866e-01 -2.972494203827034109e-01
1.496793340581768945e-02 6.384487225545533162e-01 6.885361728536566472e-01
1.107927538048820021e-01 5.508387078048209151e-01 3.451080967380578679e-01
4.316621027058069049e-01 -4.990712730636901601e-02 -5.448159336915159301e-01
1.533893879973903529e-01 6.235908887839217707e-01 9.795031500761081089e-02
3.795960685713999916e-01 -8.309691448911851741e-02 -2.898658640726681224e-01
2.326411792253912370e-01 -5.412128733115529888e-01 7.380362013666177390e-01
3.973669566810263953e-01 -3.711478102604900409e-01 -1.236112707592181836e-01
8.386557027474948744e-02 1.912563003169485409e-01 7.666445643019702549e-01
4.767715440523857540e-01 -4.961203239635182949e-01 -3.638816483478901631e-01
3.358480147126657878e-01 -5.819218762696398706e-01 3.227638968723333113e-01
6.604509495482105419e-02 2.642846541388480519e-01 7.825137133712362081e-01
1.689158523739228701e-01 -3.462119142227528812e-01 8.507424042821621901e-01
1.900412418843396289e-01 5.278951609684655599e-01 1.920206146296773303e-02
2.339274796712908222e-01 -5.120601721482237467e-01 7.077683002976511428e-01
5.901525254782824526e-02 9.629154406584199410e-01 2.221083380413748920e-01
3.562233831987756116e-01 -5.300636466406695446e-02 -2.134784985792611833e-01
5.218723390106853044e-01 -6.862973270465211328e-01 -3.995146417077718448e-01
9.867393406250019039e-02 7.807339483767243848e-01 2.034245748409543586e-01
5.865086605385741447e-02 1.318236001358109866e-01 9.267944012009793342e-01
3.938346181174552652e-02 3.964463609718853476e-01 7.868807537197702873e-01
2.406571691704896265e-01 -7.314875954539959424e-02 3.071282560717191745e-01
1.755948217746565176e-01 -3.176049008110048422e-01 7.974382198568116253e-01
3.678271717059048984e-01 1.864385946225249890e-01 -4.666095437980701255e-01
1.523531982791637429e-01 1.853418319611843390e-01 4.732212433546868491e-01
2.320867311133626987e-01 -3.720818989476485372e-01 5.973684407512935834e-01
4.459126919318230908e-01 -7.435535084041576537e-02 -5.862281909686991588e-01
3.731973438132531462e-01 -4.594541508863273505e-01 5.641161337187885344e-02
2.061208413369529924e-01 6.054063829338349745e-01 -1.164369241488462381e-01
2.524752621887385029e-01 -5.614889254184879386e-01 6.687648856231005468e-01
6.980611665072172789e-02 8.797092522125219416e-01 2.454802892028235817e-01
1.246446262395251546e-02 8.551668281701958474e-01 5.161026497372653843e-01
2.653444160724279244e-01 4.020902263384832365e-01 -2.024926595627341841e-01
3.305277196383050731e-01 -7.201066788727441548e-01 4.628499118585512884e-01
1.549279230340805669e-01 8.293359815832014592e-02 5.486388775102907234e-01
2.118590759130015988e-01 -1.716597194645266555e-01 5.159522500505654419e-01
4.263117252620683972e-01 -7.042468725031140186e-01 3.206488577537301016e-02
9.743824242239776390e-02 4.587297757607425863e-01 4.812223938445997495e-01
2.065784354224682318e-01 3.424591381142334523e-01 1.040208212565380957e-01
4.701965341591548553e-01 -4.432254396360455484e-01 -3.799805308071009802e-01
3.379841876972402570e-01 2.067413792128008562e-02 -1.963365383294125577e-01
2.873486300165146168e-01 5.603905022580856626e-02 -5.616434354805522645e-03
9.878090793787394630e-02 5.834555626267488027e-01 3.698546796639027301e-01
2.264396123930322025e-01 -4.840220992184589011e-01 7.166757891365574951e-01
4.684108866544674510e-01 -6.040878122642440173e-01 -2.361112573122539082e-01
3.367897618385266578e-01 -8.812445906553809105e-02 -9.908906035557561720e-02
1.420139750449958826e-01 9.644394919119042564e-01 -1.408383390592176376e-01
1.968011513004545299e-01 -1.136184242132289302e-01 5.324628577945215158e-01
3.143769485015485143e-01 -5.671416676511127353e-01 4.038176257456718710e-01
3.946355563502157437e-02 9.056180459484837186e-01 3.557758206299002079e-01
3.312537277105540023e-01 -7.015720796388632552e-01 4.440062652102904628e-01
3.526909845229238560e-01 -3.834672901656903110e-01 8.148131379481531045e-02
2.163532246109106660e-01 2.667584247640947259e-01 1.254706183013734599e-01
2.373016424708390137e-01 1.745674622626245676e-01 1.121832634626947489e-01
1.856588639976137212e-01 4.057829567889654210e-01 1.416038969957794380e-01
2.387691906547040055e-01 5.064851851604240673e-01 -1.750116426850048812e-01
2.773065627518509491e-01 -2.245874146072245614e-01 2.755488768871696692e-01
2.007560049861709661e-01 -4.213338586103706485e-01 7.755552959138121150e-01
3.575785902763402024e-01 -7.672250074383769602e-01 3.848406692789312911e-01
3.126892493384841321e-01 1.445310081250791023e-01 -1.908988747621214732e-01
5.179781133768420753e-01 -5.313429865007346375e-01 -5.136363678125879240e-01
2.603474250966071324e-01 -4.972410600049195772e-01 5.801095694461452235e-01
1.820546328476093101e-01 4.871646565698142251e-01 8.846052897117442915e-02
5.331946232780936379e-01 -4.426852334424858926e-01 -6.549444332672696989e-01
5.800041985949763029e-02 8.952704012070816786e-01 2.837576175479929463e-01
4.463746239367752944e-01 6.547888175095256669e-02 -7.065398574878996030e-01
3.969385897614731151e-01 -6.908388248449813807e-01 1.487118074430216208e-01
2.175216088920586543e-01 6.536413808278126458e-01 -2.069209454493239897e-01
3.851218625852119160e-01 -4.048784995352832095e-01 -4.171874489788392898e-02
3.150676890220651533e-02 3.735887410720317714e-01 8.405399303793460453e-01
2.942529346880998209e-01 -5.652810120464265564e-01 4.899315873114957753e-01
2.355654249824818414e-01 -8.729253633926695177e-02 3.412804859956489745e-01
3.243766332196834079e-01 -2.232310877795961601e-01 6.929904186898784568e-02
3.969975144240190934e-01 2.294473630134808706e-01 -6.301010787629730547e-01
1.390176281298855232e-01 3.614761317238234795e-01 3.823209769434945948e-01
2.776349283998130191e-01 6.428643028052081869e-03 7.867997944753298001e-02
8.749117128584094072e-02 1.548530096301510561e-01 7.816433741016743930e-01
3.165000935478058941e-01 4.002662119910901234e-02 -1.190941563415050808e-01
4.204196852892180813e-01 -4.704840224105321655e-01 -1.400230817256746807e-01
1.539013348696961769e-01 -2.208429237550787461e-01 8.101050783581567050e-01
3.808390660138038508e-01 -4.150299164841060595e-02 -3.304702699226161333e-01
3.576762136948641313e-01 -7.977131355462289131e-01 4.102080445817869458e-01
3.867642766658273557e-01 -7.483355001896951908e-01 2.416870140788651977e-01
3.600672724497400168e-01 3.114759573679891091e-01 -5.385774752978083058e-01
1.271544025726409066e-01 5.582715535871325407e-01 2.675259642533271975e-01
3.400614586772921499e-01 5.012148945005169276e-01 -6.119223608405576220e-01
4.721891730565486722e-01 -3.956562331562326618e-01 -4.289064637394953139e-01
3.654581521815010725e-01 -3.344537551877128645e-01 -1.561527532651520341e-02
1.247291874060402067e-01 8.728456634761732058e-01 1.196590824137570841e-02
3.660724193345012423e-01 -7.360692276737804685e-01 3.214722039160083922e-01
1.953354607890208094e-01 5.879765910783121274e-01 -5.469538453280957391e-02
4.024643925224897778e-01 2.110518976852401307e-01 -6.383599241615767195e-01
3.453794004037489818e-01 -2.292577669770676507e-01 -1.711955707523469747e-02
5.097432780633275318e-01 -4.639982037051385566e-01 -5.347272729709197092e-01
4.451340318300690546e-01 -3.631761197731617763e-01 -3.384947777361967947e-01
4.473268237599821173e-01 1.046500224128587980e-01 -7.438274883608663179e-01
1.591781647322459969e-01 1.877449530622382623e-01 4.414492160972027235e-01
3.665275627271039061e-01 -3.659922128101979477e-01 6.406221834057816006e-03
5.076395413421856961e-01 -4.885478871920291843e-01 -5.047916108314334238e-01
1.737082546138908334e-01 -1.020781215175716322e-01 6.233244648373662544e-01
1.310455333494434660e-01 5.811854610408275779e-01 2.311857950009423568e-01
1.593386315584729707e-01 6.317116293155620177e-01 6.515708018202535923e-02
1.876667055747656410e-01 7.298770499993595395e-01 -1.413265353362534726e-01
1.813563795480330476e-01 -1.024441696167014693e-01 5.903083187765361117e-01
3.484865214253882737e-01 -3.709507850259044504e-01 8.921289382536266854e-02
1.925677997331002311e-01 -2.227873166788758297e-01 6.432653708479095789e-01
3.358617326431994621e-01 3.733552183801202573e-01 -4.854540857665202158e-01
2.499682973378979933e-01 -2.529090421402730229e-02 2.260686570214003599e-01
1.879167769450054148e-01 -3.104085358606624157e-01 7.376586465297014783e-01
1.292115309465191875e-01 -3.654832093532831439e-03 7.339483323010224103e-01
3.974365783100992922e-02 6.426675182485054316e-01 5.770097437234712467e-01
3.562916289826563165e-01 -3.055338448461595302e-01 -1.392660598992760820e-04
7.491900781860399983e-02 4.804631325195950486e-01 5.609610772346925733e-01
9.493736447367266684e-02 4.947159855641359294e-01 4.616755810191377485e-01
2.921585757744180056e-01 5.774642559025792155e-01 -4.676975493449428978e-01
9.795789017497552598e-02 8.866746483310123939e-01 1.169195102595640134e-01
1.754477813698724631e-01 8.142323829565486504e-01 -1.594480484511432705e-01
5.282012494036991690e-01 -6.077173010525145358e-01 -4.935703280577271035e-01
4.967875687641232219e-01 -3.781950235127520266e-01 -5.508631995438673101e-01
3.551674801146926241e-01 -3.702040046003816920e-02 -2.224015446734340373e-01
3.298031528618241559e-01 -5.842561514458009808e-02 -9.377074808226264213e-02
9.882334167322504026e-02 4.600962123557039707e-01 4.740309874883347763e-01
2.989403098582897322e-01 -6.678348179781460336e-01 5.562667445529763111e-01
5.333892036728756780e-01 -3.773112942767297140e-01 -7.110982221468733488e-01
1.350902487774584548e-01 6.245602767446076786e-01 1.768666030946151602e-01
3.143489875942485912e-02 3.617277997876142126e-01 8.508873753947056029e-01
2.665264134090681858e-01 3.088671189413466633e-01 -1.287769338574142886e-01
4.225538013909180823e-01 2.967940249621166694e-03 -5.498595267382990759e-01
2.120815784564190343e-01 -4.402453044638616197e-01 7.422043787936541959e-01
4.817264098325514943e-01 -6.343590888885898282e-01 -2.685228073301245133e-01
4.115407654390121350e-01 1.282331642273920047e-01 -6.078450602291706195e-01
1.886012889926305114e-01 4.280729534374110301e-01 1.099254280117748922e-01
2.341752909619375655e-01 -2.176483468803563359e-01 4.576180021082624227e-01
1.417532528964410843e-01 6.833300129846909821e-01 9.811451822392130984e-02
1.159296399448725423e-01 4.039914691778175027e-02 7.545532574296432982e-01
3.067912670492289884e-01 2.183381428083829012e-01 -2.276394545240410794e-01
2.560074040274084584e-01 -5.540451082760100565e-01 6.470765649498939620e-01
4.731746356979449897e-01 -3.023741286494950886e-01 -5.121165569384565908e-01
3.741716392397254620e-01 -6.208546665865770642e-01 1.887100200980635634e-01
1.793923365435237116e-01 -2.252324411740605492e-01 7.027444881938471610e-01
1.721978366750135381e-01 2.763811706774668697e-01 3.097318369639772695e-01
4.287974969633798761e-01 -4.348506427337223701e-01 -2.066740351485648608e-01
2.685538736781960534e-01 2.520331492750234048e-01 -8.953018897743611482e-02
3.975245946879872316e-01 -2.462655578499039766e-01 -2.299477333790756195e-01
5.406355401162434016e-02 9.032980159611863069e-01 2.941207455617558808e-01
3.659428546876387633e-01 -6.240971472236314099e-01 2.273091151656414510e-01
1.967166165033666300e-02 4.663269894557016126e-01 8.136540873331854495e-01
2.745622802410266905e-01 1.248275910543490512e-02 8.694694581760958885e-02
2.742767949707631270e-01 -6.002101686739813591e-01 6.065251464400042147e-01
8.209431159465395422e-02 4.759596457573424533e-01 5.335054409144216470e-01
4.746987035216767570e-01 -6.203604000295813714e-01 -2.497431891149139160e-01
3.570769800917707459e-01 2.734523952719438919e-02 -2.851748828629459553e-01
3.871621444028952030e-01 -6.480300307985203956e-01 1.550955767490074799e-01
1.628629689374122835e-01 3.541255275182155215e-01 2.846362239466956323e-01
3.890402004082522680e-01 -8.137723104020450071e-01 2.871290552368385707e-01
2.558182900692805295e-01 3.501468776103464770e-02 1.495598513364856941e-01
2.427938869251981546e-01 1.245442328684589622e-01 1.305707697729666938e-01
2.487306944377674633e-01 -2.265386091054787110e-01 4.017156179018347428e-01
5.667082055657754469e-02 4.795531783875194853e-01 6.412452592405780694e-01
5.283278946584578639e-01 -5.651388298495357843e-01 -5.301432797968957944e-01
2.924363857208556183e-01 -1.134384434803658442e-01 1.155911155309975735e-01
5.098778998774591287e-01 -3.337754660563733711e-01 -6.454814609644897727e-01
4.574850367659189510e-01 -5.757159234611372578e-02 -6.508522964769561936e-01
6.029692206217374117e-02 6.828545760550892574e-01 4.534532810377159273e-01
3.072681616963250373e-01 -1.644592825660827484e-01 9.412666408255941641e-02
4.049713434492463460e-01 3.118573114547338876e-01 -7.345643973986194508e-01
4.294149268421938448e-01 2.315289835231219562e-01 -7.731172437333934111e-01
4.907757976473750006e-01 -3.638625763338770303e-01 -5.367927588751240098e-01
2.403754215578012554e-01 4.053351045095828220e-01 -9.643829789881337711e-02
4.175696259286938716e-02 5.715086911799316383e-01 6.284369057744642051e-01
1.731351494829793669e-01 -6.779885675588790024e-03 5.452000165596254666e-01
3.648682665707320139e-01 2.375734687821497437e-01 -4.969762276096719722e-01
4.838997850804114265e-01 -3.263359042308769942e-01 -5.385786493984897616e-01
1.161029491197031194e-01 6.734406770753379456e-01 2.182490659253081278e-01
5.339898229901223203e-01 -3.762626844213167732e-01 -7.146024685144484190e-01
2.334892425552592687e-01 -2.059317658409042240e-01 4.506952273943748977e-01
2.561045464540831484e-01 -4.901613691291494268e-01 5.926080502764660141e-01
2.854920180670629803e-01 -3.504106694661919263e-01 3.463273566647180890e-01
2.307934348957098591e-01 -5.639665442303128939e-01 7.653369912996491609e-01
4.517736333596833465e-01 -4.790257189289504058e-01 -2.694180666193944362e-01
3.231535577426282169e-01 -3.520164959583241826e-01 1.835800695045941566e-01
3.790976951467618372e-01 -6.797984425009009901e-02 -3.004832025717752986e-01
4.179614370602245388e-01 7.540105880607127220e-02 -5.911267771354890010e-01
1.463654885723686128e-01 -1.449550569069178452e-01 7.787410158174896679e-01
5.108535196216995589e-02 2.664758980424369317e-01 8.458452862108845061e-01
4.545487075398199628e-01 -3.873524824543964074e-01 -3.590650933512884446e-01
3.858835003326158697e-01 1.669641675784722390e-01 -5.288126700950707137e-01
2.569969541537700519e-01 3.024096924910369411e-01 -8.179047586657789415e-02
8.063689294443512900e-02 1.000000000000000000e+00 9.652124322656328859e-02
2.357767373868259742e-01 -2.437026662083794648e-01 4.726816690968476675e-01
2.530867874129718587e-01 4.872953948052624051e-01 -2.211644778038643344e-01
3.139637629553586606e-01 1.944788143164421779e-01 -2.387079396751135563e-01
4.048000413102459394e-01 -8.178072093980647272e-01 2.218708684545605270e-01
3.555932262037780345e-01 -9.020973915726547554e-02 -1.792588494851605485e-01
3.773655942714078115e-01 -1.619968434171768779e-01 -2.133980034680751370e-01
4.095178212785013927e-01 -2.946882410676456288e-01 -2.412415569480874100e-01
6.981343935212828977e-02 9.460622074025779593e-01 1.893142128890129561e-01
4.213672826547615324e-01 -6.462877836225791595e-02 -4.875030242389404855e-01
2.361903266608265661e-01 1.250766290558255889e-01 1.588946166234398993e-01
1.341253611693397629e-01 4.785463971387511894e-01 3.045977816970452112e-01
9.721976604259120747e-02 2.512893846639963069e-01 6.576676009596674755e-01
