-5.517742799404232179e-02 1.589606171242390620e-01 9.814259884110207999e-01
2.491658430916805500e-01 1.770355751413773271e-01 4.350243682453065475e-01
1.275585337974624034e-01 2.264425722133033003e-01 2.140619006821205261e-01
-8.283169754616212521e-02 3.802011801012025044e-02 8.766805891295031961e-01
7.809748157583917827e-02 -1.830015864734276521e-01 -6.430466689344410680e-01
2.384641935881620742e-03 -2.448836379262463170e-01 -5.551851203473523455e-01
2.279388696949471160e-01 2.236257844545045115e-01 5.403296817208353975e-01
9.800914890648683431e-02 -1.809815511829399592e-01 4.371705650204764648e-01
-9.906714816999034889e-02 -2.663816709754912027e-01 -5.901258001926320551e-01
-2.187872117335454836e-01 -1.781161836625357320e-01 -3.551577245890811252e-01
5.061579276360560903e-02 9.076864352196727104e-02 -7.693148227319078769e-01
1.138205004788635788e-01 2.517327239572729192e-01 3.704127192373237731e-01
-2.045392975137491354e-01 -1.499737763871708263e-01 -1.850262659691381817e-01
1.488179337195218443e-01 1.774099158323098335e-01 1.071578767367115971e-02
2.201820483817064078e-01 -4.085019541329333592e-02 -9.779464041406647073e-03
9.939278563281468692e-02 -1.427306890197331812e-01 -6.760388517619617677e-01
-1.129007622726978244e-01 1.618892932252264383e-01 -8.056244617309008538e-01
1.580821874008757622e-01 -1.506978767136223363e-01 -4.303819127845258385e-02
-2.163527049851367290e-01 -1.594474589532219044e-01 -2.725052672110889751e-01
-9.621553304861954481e-02 9.359368858778679967e-02 7.984504504250571344e-01
1.123238551187546730e-01 1.529449550667996149e-01 -2.479324675526270449e-01
2.892297068470043309e-01 1.772090371676504905e-01 6.223505670014861657e-01
-2.519015732808775332e-01 3.773055680116714494e-02 -2.264664335943911422e-01
1.743867883112735495e-01 -1.518097234288443564e-01 7.067684682102368665e-01
3.467740024397459320e-01 1.173821923836915714e-02 8.212173691828453803e-01
-3.068508062140029025e-01 3.020745535847605551e-02 -6.270872935129128134e-01
-2.715704424792865779e-01 2.694008629818296641e-02 -3.507017067943644095e-01
-1.800672503452631357e-01 -4.988976505863077643e-02 2.055008273428357013e-01
-1.345857466627806698e-01 -6.405219131320312453e-02 4.134779479125072488e-01
1.552603262771333203e-01 9.332181121173963034e-02 -2.743155456515839474e-01
1.399414276425290371e-01 -1.553281361817428763e-01 7.666492442177811339e-01
-1.362382399979512604e-01 -2.922344313420332518e-01 -9.091437045727254196e-01
2.711536762200970063e-01 -9.897220216252326785e-02 7.755049655853637480e-01
-7.245081331051644868e-02 2.161906029078065061e-01 1.378530651769473703e-01
6.659006024429867110e-02 -2.094571431882099044e-01 -3.955444649524289535e-02
-3.566483835252587942e-01 -2.252553300698654365e-02 -8.837086116541530423e-01
1.787798323299542302e-01 -1.322029748763461354e-01 9.874509297122576607e-03
-1.001133287152063643e-02 -2.493630514343107285e-01 -9.026098680720958667e-01
1.001711487443085330e-01 -1.749076349761205795e-01 5.280099836577795136e-01
3.024831039731611937e-01 3.720123623305384569e-02 4.834260711547349598e-01
-2.777694602316908568e-01 -2.764269839273205201e-02 -3.480949021540977739e-01
-1.718903262716717784e-01 -4.885889771789060643e-02 2.518092649657664439e-01
2.774463788110585402e-02 1.592897315081463205e-01 -5.211530643128364781e-01
1.010740906398613775e-01 -1.532619979049441583e-01 -6.136263604926945892e-01
-8.725057332792218734e-02 -7.562489534647280631e-02 6.095183082113909689e-01
1.440301550337895475e-01 2.067827987563301551e-01 1.454042845546529572e-01
6.466233707424870469e-02 2.484384646936544649e-01 2.669540320846227610e-01
-2.330814243974212163e-02 -2.065542582154719364e-01 1.058822774202792111e-01
-1.701779896669390058e-01 -2.270974540540760811e-01 -4.170644159337963952e-01
2.749165901386244060e-01 1.465912019907449071e-02 3.110901348589428794e-01
7.759298971302085179e-02 -1.804027076063109691e-01 4.687587609740624939e-01
2.545864334241854654e-01 2.037895439128047381e-01 5.602550107099966148e-01
8.308540625790666878e-02 9.900798547723937536e-04 -8.569298425706241007e-01
2.506361175041710299e-01 -9.494962811698043348e-02 4.672979180494156171e-01
1.328538242274940329e-01 -1.734118294223411794e-01 4.390169172835226008e-01
-1.450875987902339737e-01 -4.560299111811875333e-02 4.018390417365707012e-01
1.825161444258744936e-01 1.257987700619617732e-01 -4.580781684233460604e-02
-2.049769811336431824e-01 1.434192517894116725e-01 -9.139270853527788896e-01
-1.425551539631517428e-01 -2.118341019923468682e-01 -2.350959374331196561e-01
1.640528158282409110e-01 -1.208171904271427566e-01 -2.114549555228917022e-01
-1.410089248011426877e-01 1.589501916784330227e-01 -8.385457172094989975e-01
-6.986252320315954056e-02 -2.753846408000078516e-01 -7.776184739015964409e-01
-1.089071103326339635e-01 1.949917862144188163e-01 1.172931183418474133e-01
-2.483287605741415355e-02 2.407797197077008178e-01 5.286857491939004339e-01
1.595613001529986100e-02 -2.178645238169421572e-01 4.051080846051897141e-04
-1.193647530281363167e-01 -1.381145289616969585e-01 2.305538890538414709e-01
3.261267005866299029e-01 2.950595370703075482e-02 6.460837789480733395e-01
-1.703371449195833776e-01 -2.551335627514921822e-01 -6.056587462755051998e-01
-2.505807068973332496e-01 -1.910423288094342253e-01 -5.436319631922088558e-01
-1.703438299422913305e-01 2.455977414239185821e-02 3.363066355685993547e-01
-4.098838782894664162e-02 1.906985421437460415e-01 9.768397917605023961e-01
1.219277510950837889e-01 -1.529869899519597232e-01 8.066817478194397983e-01
3.165285778590067323e-01 -4.671643847278666994e-02 7.867914855258062445e-01
-5.312508180109959399e-02 -6.879207557857815181e-02 7.900217428914563245e-01
-1.334437685110569649e-01 1.386475948756767107e-01 4.078650825996571472e-01
2.529558574128085678e-03 -8.574630123056639630e-02 9.597197085324772337e-01
1.383180675238297186e-01 -1.749837124686384193e-01 1.709514543077199911e-01
1.064163991844586377e-01 2.876748824141628358e-01 7.477655299995799032e-01
1.878921273466292452e-01 -5.566304620844123724e-02 -2.184771576790096870e-01
-1.712776716387309217e-01 -2.786157376389096219e-01 -7.964286145236568748e-01
2.310661279497281881e-02 2.141544336314926689e-01 -1.246120522018114990e-01
-9.181519209147516458e-02 1.401362547369356115e-01 7.475116895585365295e-01
1.894703065547371779e-01 9.692017948120386361e-02 -9.367102355264318725e-02
8.061927178649903880e-02 -2.011453152395359378e-01 -3.630445533079489362e-01
2.147970480481110056e-01 1.966439195724324907e-01 3.632902536379734593e-01
2.401719277444219758e-01 -3.353370748705739035e-02 1.225801507986743200e-01
2.169989563548676004e-01 -7.714209443880998274e-02 5.570928809106427682e-02
1.456449043367747664e-01 -1.325819141841542426e-01 -3.168746247261216564e-01
-1.440793620141627984e-01 -2.304820354504555913e-01 -3.599998086919038998e-01
-1.285428383553434140e-01 8.339286080829745595e-02 5.861616838067190693e-01
2.330907434287735058e-01 -4.623903907231990268e-02 9.479876473122045288e-02
-2.285327409285325129e-01 -1.960943395835305081e-01 -4.716298024799120969e-01
-2.369230820869313581e-01 1.209870401842966792e-01 -5.361178977571812165e-01
1.896109329439434055e-01 -3.906251189438948723e-02 -2.258830705750565770e-01
3.893877439470268959e-02 -2.197281859590115294e-01 -6.941054364528875809e-01
6.708563293217775780e-02 -1.889830653537602490e-01 -7.108558452095425917e-01
7.693183394415417653e-02 -1.786474094264323687e-01 4.910391428891010546e-01
-2.825851810763393424e-01 -2.387613160905257548e-01 -8.827845527315486551e-01
2.660173437481756498e-01 -9.528434620359055307e-02 6.502889287557724884e-01
-3.212160880430146859e-02 2.352136286442838009e-01 2.696200936314365748e-01
-3.255328732918525425e-01 5.246164534279145614e-02 -8.879629106492350488e-01
-1.664115713024192922e-01 5.830510632852581310e-02 3.501678891711436648e-01
-6.115457955422637371e-02 2.080340001254820936e-01 -2.101561595004798610e-01
2.020430914793553134e-01 1.532799815959022260e-01 1.369296524447464469e-01
-1.172793595925915311e-01 1.552196118740272746e-01 4.692734976885398757e-01
1.749456856991449538e-01 1.950360790427846380e-01 1.969258298983073141e-01
2.599801417778053181e-01 -6.776463339458456414e-02 3.829980281930259745e-01
-8.221376081382703385e-03 -1.298433811452005537e-01 6.944247841366062435e-01
2.238489512358227684e-01 -8.068080286735861140e-02 1.268242036978085019e-01
-1.059723797396767281e-01 1.531480935135838550e-01 -8.919377370300783925e-01
-1.751822907103858240e-01 1.630896985295438861e-01 -4.516852826541248311e-01
1.545338359374825998e-02 -2.271893348807622892e-01 -1.504391242287287100e-01
-7.265780072998277717e-02 -2.416678330738029346e-01 -3.012151611299574983e-01
6.929669254667866762e-02 -1.891888204844189847e-01 -6.850881141257312290e-01
2.323064905917722189e-01 -3.127472767200863146e-02 6.255485537172142396e-02
6.368645437194979386e-02 1.989505620042240630e-01 -1.549937186632663055e-01
-1.275930234499744464e-01 2.886300951725951150e-03 5.784462395982093996e-01
-1.512963159388761580e-01 -6.114888044076935425e-02 3.351787016190328483e-01
-2.115549210712864836e-01 -1.922221071601116493e-01 -3.851261296876422602e-01
-3.386180514788547646e-01 -5.357810183277410265e-02 -7.361876625501289073e-01
-7.107070514654478810e-02 1.813347062346529204e-01 -5.638830133252799026e-01
-4.783369139207450937e-02 2.282044881591322183e-01 4.374113397767289135e-01
1.063073169295875448e-01 -1.253286708977532637e-01 -6.792983864823780582e-01
4.945068439995017190e-02 2.439537120873095932e-01 2.069267943321249359e-01
-9.562740413349883617e-02 1.498661326642670988e-01 -9.072610092903691248e-01
2.041166244090152904e-01 -1.409116483738077630e-01 6.889452579688910561e-01
2.524632704369682012e-01 -9.114447058775382304e-02 4.551104006780537503e-01
1.495913510317948766e-02 -2.390007927298384016e-01 -5.572093825877186823e-01
3.524842298294541404e-02 -2.115000348170763822e-01 -8.569003127207752701e-01
-1.250268355060526193e-01 1.211198355590618475e-01 5.411082184732435296e-01
-4.934274640629513625e-02 -2.646450494829849509e-01 -6.441135357461041933e-01
-1.621235557121245285e-01 1.222864114849964989e-01 2.319363292673458921e-01
1.319924606991253746e-01 2.816026253541621394e-01 6.783079535634863877e-01
-1.664259958269865836e-01 -2.544543399123828098e-01 -5.906677625465545090e-01
1.708510111799195763e-01 -1.475466088544133691e-01 8.319969140512530059e-02
1.828628975705744730e-01 2.750588878781086710e-01 7.101083172737129301e-01
2.454408925016737519e-01 2.587890967209249826e-01 7.890176773471161420e-01
-1.144474914632647305e-01 5.378538617747886247e-02 6.925937451766908115e-01
-1.446648081827344445e-01 -1.410416628008914763e-01 1.120127903562880695e-01
-1.623216016293946018e-01 1.694041400663757468e-01 -3.246539206269629108e-01
1.385086226517697472e-01 2.556248092268922356e-01 4.549116813683262150e-01
1.894839483140668412e-01 -2.550846251281870328e-02 -2.353241401618295925e-01
2.980093971302743561e-01 -6.122648484590541805e-03 4.956506161986050651e-01
1.141489901379801608e-01 -1.277150515398122188e-01 -6.090425165492838744e-01
3.220447564732514256e-01 1.009546742200874425e-01 6.329188350886584269e-01
1.704545361142975057e-01 2.169117262098769483e-01 2.939309186363625592e-01
-1.843252770570319443e-01 -2.486062960453934156e-01 -5.982098324579883108e-01
-1.212810388489389407e-01 -4.101097120684623482e-02 5.369555518906602432e-01
8.272820430580893336e-02 2.040411652599522785e-01 -6.626968032111132945e-02
4.343560759502276131e-02 2.762342350824882331e-01 8.891887460005566401e-01
-6.879566562907918348e-02 -2.481630984157426056e-01 -3.677391393468522063e-01
2.192986094295332200e-01 1.414163766701580227e-01 1.778943101063222010e-01
2.557667703569685771e-02 1.700758107871913061e-01 -4.596822707378985240e-01
-1.009533748888296195e-01 -9.281407230268702568e-02 4.877727972168645065e-01
-7.389363207027138669e-02 -9.949236615292871011e-02 5.828734182434820443e-01
1.119692711386139766e-01 2.736934682252945561e-01 5.767136223574589327e-01
2.959194687463906348e-01 -7.451661840327905573e-02 7.835638950462570085e-01
2.399953163386629729e-01 -4.812879794714327447e-02 1.513140619628175754e-01
-1.524484171498971252e-01 -1.240504919413792581e-02 4.170050582554917784e-01
-1.900310152244133743e-01 -2.666242838266537629e-01 -7.407611723556337679e-01
1.079826928775906303e-01 2.140220138622577761e-01 7.405432836404943209e-02
2.687096721891561457e-01 -1.054164538507521981e-01 8.843558283384792551e-01
-9.299895602286439855e-02 -2.181588673477022067e-01 -1.354443699409116908e-01
-2.965552615520253288e-01 3.134257086862641400e-02 -5.493239983900856105e-01
6.134252728062448631e-03 -2.435764064275280083e-01 -6.231226694841506264e-01
8.572999338796763458e-02 -1.935947784901984603e-01 2.419019864917203999e-01
-6.169278315599657087e-02 -2.747494375623983909e-01 -8.202533151813298229e-01
-1.217402240622390552e-01 1.783130410696721901e-01 2.295713418179143039e-01
-2.241545038837095272e-01 -2.222667977047043386e-01 -5.778195102156628016e-01
8.960610166219791506e-02 -1.983931280274355280e-01 -2.470377768823711073e-01
2.138853161732029162e-01 3.065189377468869811e-02 -7.023658041493203996e-02
1.789218916624542854e-01 -1.515175033131855586e-01 2.996182238408096610e-01
-2.446901599806780847e-01 -7.733326567530388052e-02 -1.960657333180755302e-01
2.822883790351184974e-01 9.283812643212145665e-02 3.953967594399721563e-01
3.062799741882112348e-01 7.746097723364839260e-02 5.178434318832065841e-01
-5.807246410888462773e-02 2.216357814607307075e-01 4.296283040002208398e-01
-1.910123854258001797e-01 1.043670793624549009e-01 6.056708156676330473e-02
1.060567590297506052e-01 -1.819840393582232152e-01 -3.165791360675232480e-01
-2.046092048262369290e-01 -1.924184033985185394e-01 -3.580051696142243500e-01
1.069131343325194911e-01 1.496549570079583058e-01 -2.846668350548999804e-01
-2.559756095076759237e-03 1.183808895507069414e-01 -8.573788171671625769e-01
1.636752636216855239e-01 -1.577401729523338070e-01 1.557373524565866252e-01
-1.247738182965525966e-01 -1.780725114707022994e-01 1.793946215026280544e-02
3.179679601434918790e-01 1.594411471134983826e-01 7.154709292682451816e-01
-6.741732437619196716e-02 -6.968072207661052397e-02 7.214616668124675947e-01
-2.037350329533284266e-01 -1.091797619129775999e-02 1.167189333198587475e-01
-2.852104203953066408e-01 -3.232749693802172870e-03 -4.069427336700152109e-01
-2.228079112751934696e-02 -2.430195866717967390e-01 -3.258266564395399523e-01
3.419988806481913390e-02 1.979412885406433287e-01 -2.387218812237864030e-01
-3.113907726131380782e-01 7.122476916200014274e-02 -8.837823047696726775e-01
1.080930156031652267e-01 3.364820331256799385e-02 -6.607610615122194719e-01
-1.571100668761652580e-02 -2.548505513134076694e-01 -7.423757936076964548e-01
2.487680199609390574e-01 -1.159115308247283954e-01 7.635011581807834569e-01
-3.061302355778735551e-01 -1.529498766737403537e-01 -6.801320671061299450e-01
1.006376355869574857e-01 2.523209153090690826e-01 3.515275463992740823e-01
3.050233901967940864e-01 1.962383296702034929e-01 7.578105579915302981e-01
-1.261270929096213779e-02 2.439861860838945795e-01 3.438764700160054089e-01
9.346713718521985903e-02 2.663070714884789858e-01 4.827037689533908438e-01
-3.143969022955662718e-01 -1.948545267980660578e-01 -8.437079106357036062e-01
3.110920680231657465e-02 -1.078017418705995711e-01 9.546145761558086917e-01
1.122657520230863071e-01 -7.651514926806979311e-02 -7.209592926800190149e-01
-2.323484858358191851e-01 -1.567311443913554647e-01 -3.354667399066361688e-01
-9.823068775559030963e-03 1.893208968409519355e-01 -4.040705622365116101e-01
5.279091049347327258e-02 2.744028244012022277e-01 6.641418847641497036e-01
4.740508671558788661e-02 -2.176135312432804503e-01 -1.048869452316602974e-01
-2.200210275796616807e-02 -2.103154569496683834e-01 7.244641877339910718e-02
3.037634784235703211e-01 -6.328989305141900779e-02 7.719010015787992618e-01
-4.531863952035137394e-02 -1.896535284249071529e-01 1.968120659108301418e-01
-2.086855630807024908e-01 -2.415058343671903918e-01 -6.291401868896063787e-01
-1.412298375864509681e-01 8.998157111940666142e-02 4.876251306031412214e-01
-3.311049711116059169e-01 -1.800897609381187647e-01 -8.777783080527944426e-01
2.001511146367707383e-01 -1.390848438447518098e-01 8.529513963342330030e-01
-3.080067713382111383e-01 -3.624687120332433649e-02 -5.413182744887807818e-01
3.111044975706188098e-01 1.469718208258919412e-01 6.509167413652777734e-01
1.477367124221552475e-01 -1.626704719062001814e-01 6.113156713468443915e-01
-8.197455247632598474e-02 -2.822542795021532047e-01 -8.688649645200219318e-01
3.367078866774040335e-01 -3.887239364164808003e-02 9.310637044118202921e-01
-5.562938526907608427e-02 -2.621085114814726280e-01 -5.695097687460780600e-01
-1.257034679956160056e-02 -2.520490449348716244e-01 -8.652393607173836099e-01
2.386800422910134722e-01 2.600299757700877956e-01 7.730623863247269023e-01
-1.731780934321290877e-01 -1.925189705206873658e-01 -2.359500148512100881e-01
3.416730827826055528e-01 1.695723202403944252e-01 8.614158499774693389e-01
2.170528193728678834e-01 1.471393432280083680e-01 1.854274462082963482e-01
1.159687872160682920e-01 1.084231770011769291e-01 -4.127442558101354075e-01
-1.662945421565460158e-01 -7.156863859114569182e-02 2.333429950758366123e-01
-1.529628517356388384e-01 -1.564056913621174050e-01 1.251330267181500339e-02
-2.014783653795211293e-01 6.331910051306191556e-02 9.583948686670611117e-02
-6.101458576299912534e-02 -1.583026231519303606e-01 3.514884217618010620e-01
1.356823399047650258e-01 -1.747916382612845765e-01 3.565459464676745127e-01
3.118920445174431233e-01 -5.502005251414073678e-02 7.944053453960816524e-01
5.474168524741448300e-02 2.416931492957397065e-01 1.867222921782302758e-01
2.666937820630167488e-01 -9.401976049857097006e-02 6.437374753791080817e-01
-1.507290637592109128e-01 -2.894925278188567597e-01 -8.778170701367743467e-01
-6.942226407311383185e-02 1.917071868385724354e-01 -4.398713441316073336e-01
-3.353810836987722310e-01 1.581456839136601011e-02 -8.100608500599456585e-01
4.305452537716294298e-02 1.469468912729837706e-01 -5.401350526329002921e-01
-1.828601104796776997e-02 -2.346162499566684378e-01 -2.040172292493716011e-01
2.300625030848578167e-01 1.011136257589327486e-01 1.257845863105201689e-01
-1.687320056012053537e-01 -2.678916822097793249e-01 -7.005058919357469716e-01
1.659129364082392311e-01 -8.870379167031967882e-02 -3.152552895265597344e-01
1.594547990206764132e-02 2.617735688604576061e-01 8.016343208529732589e-01
3.076440072594082142e-01 -2.495282747209843707e-02 6.156060621845529379e-01
1.475778622152015829e-01 2.766716034929233570e-01 6.512044812930561921e-01
1.229280692931790549e-02 -2.400765053385413572e-01 -6.475331621776148072e-01
-3.737661412303603520e-02 2.289889152844717113e-01 1.212290878183990839e-01
-4.459394296121355766e-02 1.963310869826607186e-01 9.121437133257740415e-01
-2.296385133885330554e-01 -9.211196571757122170e-03 -4.212560546188004462e-02
-2.946055215024654395e-01 -1.328305285931078439e-01 -5.724672029234835202e-01
-4.784776439459668962e-02 -2.663150378699316034e-01 -6.951956252919407886e-01
-1.889307476071452885e-01 -9.605735092011022380e-02 5.703634867967015409e-02
1.466721670459655291e-01 8.120491559589369801e-02 -3.498882519712273043e-01
7.905535260424412930e-03 -2.406286667837311544e-01 -4.447741519806717170e-01
-3.002890474177375424e-01 -1.478987453122986573e-01 -6.377508808072037683e-01
1.426610615875667509e-01 -9.223540897844820230e-02 -4.832619172956368336e-01
1.149623462987160588e-01 2.805624205975955632e-01 6.551352280845482712e-01
-1.161569658749474071e-01 1.858038113644048805e-01 1.967962261581564232e-01
1.149054645625427473e-01 -9.784497540042523533e-02 -6.766809622929359502e-01
-2.609594726300962786e-01 1.116197232302354736e-01 -7.396303379130634292e-01
3.051099087284990241e-01 1.719383703624574600e-01 6.837088361226593136e-01
1.429646746526483658e-01 -1.457497551573985473e-01 8.958528520134726447e-01
-9.607538881317079227e-02 1.981073531479048411e-01 2.890917079645241583e-01
1.837757146714860679e-01 -5.352969409153594815e-02 -2.506652401733793223e-01
-2.328178599735741816e-01 -1.799728180450668735e-01 -4.230106049110064492e-01
-1.765794358561323385e-01 -1.245444437457687292e-01 3.124567675785342585e-02
-7.830696511860166242e-02 1.961318082898221848e-01 -3.690029847523493833e-01
8.619607031389071514e-03 1.727714863199788509e-01 -4.896764227610484466e-01
-1.835488647262716322e-01 1.417422754454029654e-01 -1.110774823696897007e-01
6.109913429452969169e-02 2.690408529530407544e-01 5.314700136494985294e-01
-2.157797465802413217e-01 1.418940032324588485e-01 -6.812368523921844554e-01
-1.848053316329952289e-01 6.800630708821310544e-02 2.089549299646080438e-01
1.891360103631693212e-01 -1.262685951654504701e-01 7.090166572116968213e-02
1.891934086492057521e-01 1.317873634731342725e-01 4.850399509141242217e-03
-1.234788377572289680e-01 1.898996659645805496e-01 -1.462669356926660225e-01
-1.686246867515769909e-01 1.661986386046563069e-01 -5.022074347775468128e-01
-1.343939377198818674e-01 1.813278280568148271e-01 -4.193731207147671780e-01
4.167739066929850023e-02 -1.928921920952747227e-01 -9.409231355770660832e-01
2.734780308201239518e-01 2.046920048445353690e-01 6.455707582802432398e-01
3.011257492328329177e-01 2.087503674390313660e-02 4.830059982356023074e-01
7.546636506051575266e-02 -1.961495683430416748e-01 -5.353795711610672692e-01
-1.225069342248537585e-01 6.359114924649393596e-02 6.400524447103778103e-01
4.253603831262170454e-02 -1.749066301298613790e-01 5.028827278817494806e-01
-1.056598872615131107e-01 -3.754621058792589373e-03 6.926816827937944954e-01
2.518962492600779202e-01 2.746389648283301677e-01 9.034117077438239551e-01
-2.074862878723921777e-01 -1.360289665054477681e-01 -1.507992042242728148e-01
1.709423013015170523e-01 2.968551004768474888e-01 8.767387798836548951e-01
2.193916876616952907e-02 -2.344870523563840070e-01 -6.294832718384897330e-01
5.399022206904581511e-02 2.648678971610031740e-01 4.783169411290719708e-01
1.759108832712894532e-01 2.395024019772216128e-01 4.448997669202006677e-01
-3.289320658029911693e-01 -8.910489460529710803e-02 -6.915864431455426287e-01
-2.409494826221710018e-01 -2.092723956539895847e-01 -5.807316373481243854e-01
-2.973920384799507155e-01 8.609056794067489193e-02 -8.735185950724360104e-01
7.946899191230405446e-02 3.238260376472022056e-02 -8.132242655266482823e-01
-3.389110534029586841e-01 -6.236096768036900051e-02 -7.380037663416514349e-01
-1.909447789537406515e-01 1.362345542197764547e-01 -1.411456787908793586e-01
1.415139509310160693e-01 -1.231296341401724725e-01 -3.986232673193349507e-01
-1.197671181384401123e-01 1.630976379391820275e-01 -7.928679690422425486e-01
2.875435863165860528e-01 1.834200467258458866e-01 6.340356360084751230e-01
-1.770832985770983414e-01 -1.108517580775251893e-01 7.285485966068137864e-02
-3.603324405336063574e-01 -7.963195859561439383e-02 -8.757873160294312731e-01
9.721746311012154085e-02 9.732292341575983496e-02 -5.371610750194772965e-01
-1.042126374898103003e-01 -2.691161639753431034e-01 -6.237597957532732273e-01
7.227293226650543904e-03 -2.027943883436110761e-01 1.823822779348106549e-01
-6.407464229829239188e-02 -2.280390019016149405e-01 -1.574921861820408886e-01
2.751222377767672048e-02 2.466094873095389661e-01 2.416631974013469519e-01
-2.271707351307024891e-01 -1.930103457794730970e-01 -4.526539962832210051e-01
1.955592911699975331e-02 9.872991434391843735e-02 -8.672329319502914968e-01
7.066923687828502443e-02 2.592037787278753669e-01 3.911742704223931111e-01
-1.069072987277668169e-01 1.969698861145421642e-01 9.415359515995111450e-02
-1.717672474882096234e-01 9.654323828387798012e-02 2.442950382912326968e-01
-8.396105476819552826e-02 -5.073204258809631273e-03 8.090030774466893115e-01
-1.805797679700474334e-02 2.033332569878506801e-01 -2.843489794054827602e-01
-1.619941398717335279e-01 1.599243341360593040e-01 -7.773754326459443309e-01
2.314694867329807337e-01 2.233412993540038194e-01 5.525788665656539145e-01
-3.038302661625426615e-01 -2.031147973163115530e-02 -5.200889980665812651e-01
-4.625244718107558717e-02 -2.087792895960148207e-02 9.698848614647449518e-01
2.245094731083228379e-01 1.105268554073657178e-01 1.185071495809966180e-01
6.090532886828429332e-02 2.695610416666222586e-01 5.402538647542465267e-01
-1.101600765820647254e-01 -2.810574274385984062e-01 -7.741217870331565942e-01
-2.014731289565804551e-01 -1.856984784179314396e-01 -3.150480308339992375e-01
1.452278556571509061e-01 -1.699109914388752807e-01 1.195367936619946420e-01
-1.424920758203554738e-01 -2.481422879867035691e-01 -4.842351561974427843e-01
1.169458428257320048e-01 8.371046824878791703e-02 -4.888851048725653681e-01
-7.458937755127947877e-02 -2.274944972853945313e-01 -1.707259555879401536e-01
1.864620330904878942e-01 2.458757818350070512e-01 5.178442974973141988e-01
-2.061060074432456146e-01 7.052535220500867619e-02 4.649241783828574753e-02
1.741115598706789169e-01 -1.546440111610333790e-01 6.128713911780353518e-01
1.745162236625551755e-01 9.190337192780397794e-04 -3.274931530366047561e-01
2.973028844422341277e-01 -4.388789633464203199e-02 6.001798124585312477e-01
-8.525512041218773207e-02 1.978033318971214038e-01 -3.237653689145120750e-01
1.802983184988725951e-01 -1.578254529163909681e-02 -2.965503178045921229e-01
3.565045679190566585e-01 7.633516262575833211e-02 8.265255250958660760e-01
-2.805486755093443141e-01 4.041788818740917055e-02 -4.495110903040329675e-01
6.183403460743923559e-03 1.068968378838899974e-01 -8.825053270201781430e-01
8.664340853928423347e-02 -1.987729616134136790e-01 -3.040627331333886074e-01
-3.018866170234670299e-01 6.418420349939177316e-02 -7.340000894631893980e-01
1.319650686394484573e-01 2.816626697935133428e-01 6.789088981660497124e-01
-7.387871792266506588e-02 2.128836389874375346e-01 -2.513134349758619490e-02
-6.475277473650618842e-02 -1.346154441715545769e-01 4.639745034620406106e-01
6.572722450239171232e-02 -1.898104801121397456e-01 -7.184600508993356227e-01
2.762954438066123619e-01 -4.743238887139889642e-02 4.371788882022856204e-01
1.227472123037545715e-01 -1.653322815424058678e-01 6.403189499758897840e-01
-4.073737639836957913e-02 -9.319071376073154167e-02 7.497356629991360766e-01
2.630966757375133858e-01 -9.663111484033848342e-02 6.296810369106011773e-01
-1.816248186809873710e-01 -2.199115432901275757e-01 -4.125635320702910613e-01
-3.387556492381754158e-01 2.710166909619712849e-02 -8.777776840815976200e-01
-1.752868220697281487e-01 1.336475316643436495e-01 4.684709407559017880e-02
9.154462618833984766e-02 7.376330183286425313e-02 -6.410606419204942785e-01
1.610745466315922358e-01 2.788901702241016745e-01 6.948134211852704523e-01
-2.448851870170690864e-02 -2.564244198525055807e-01 -6.138721716052378818e-01
-1.944616088666513976e-01 -2.455705293873100825e-01 -6.087350051224338365e-01
-3.032566279332175596e-01 7.828476851768573219e-02 -8.587289962690832779e-01
1.568713117344252561e-01 2.019415552894775479e-01 1.642661866304560014e-01
-1.992019068914657742e-01 8.622371080515280062e-02 5.809060931912083531e-02
-6.711471758143948418e-02 -1.007395348913235622e-01 6.069430286047368117e-01
1.592904681702073805e-02 -1.933032442754060443e-01 2.886274497723285704e-01
1.916019756563459020e-01 1.303349307114447519e-01 1.157240225423565583e-02
-1.462793446940972020e-01 -2.877581752969200490e-01 -8.558337417161523408e-01
2.009292652203924501e-01 1.310824649355425697e-01 5.826253858832786126e-02
1.515712785362762771e-01 -1.544717114066095076e-01 -7.968972934074382286e-02
1.879409240054928099e-01 -1.444309030484550727e-01 2.927920582713405273e-01
-2.225608089234876741e-01 4.076841179627129635e-02 -2.028306564512738844e-02
-3.490775333574798189e-01 -5.709326515193875740e-02 -8.031545456780324610e-01
5.726624314505715518e-02 2.699188704031434960e-01 5.548690992780013209e-01
6.383184008533586418e-02 2.151261488727835569e-01 -3.555074716873588003e-02
-1.004791212954049412e-01 1.687025682606333454e-01 -7.220447195755240744e-01
1.897050455416097320e-02 1.535853872078335181e-01 -5.841413313427717968e-01
1.925412793853430865e-02 2.625924042180208251e-01 8.831098632731556597e-01
1.667241688762012286e-01 1.079749498258800733e-01 -1.761075452134208685e-01
-1.964145732665382171e-01 -2.156844713245473777e-01 -4.414860324881675346e-01
7.164980296517634495e-04 2.532843433773533937e-01 5.337184445926130838e-01
1.619743127759803725e-01 1.856523837215261485e-01 1.013925985436401472e-01
3.512031902103854852e-01 1.650549639638771715e-01 9.005670180086943200e-01
-9.261667203056397901e-02 5.235043738590644535e-02 8.280087432450087270e-01
2.805415959588833941e-01 1.815436503721489236e-01 5.951038009776019599e-01
-9.993245533275964265e-02 8.079710653666084819e-02 7.818300303661213091e-01
8.391322063470818549e-02 -1.999190695560273678e-01 9.069792995434354521e-02
9.762161433413334144e-02 -6.747035960827078849e-02 -8.225882747194073197e-01
2.208073017009967165e-01 2.632298321530971222e-02 -3.162438418230723719e-02
1.338973363718211629e-01 -1.760991341383762177e-01 3.265803819751323389e-01
1.643202567807078296e-01 2.832268700669297035e-01 7.389079085600225305e-01
-1.477942689839612245e-01 1.641970451233650541e-01 -7.448169361594837445e-01
-8.920388885498513332e-02 1.969134219859023094e-01 4.130253566257504616e-01
2.160419200903382006e-02 1.864294695745002395e-01 -3.567029011356439572e-01
1.522632878901104781e-03 9.205203173298912023e-02 -9.702705644509077576e-01
-1.435257885403573852e-01 -1.926873892006789324e-01 -1.279636521967943141e-01
1.287404722407872182e-01 2.771192037559319088e-01 6.288129005904399271e-01
-3.283724902446273353e-01 -1.271899404795299726e-01 -7.406782080310601035e-01
-8.294929960512094358e-02 1.783446912538066143e-01 -6.037389639033010624e-01
1.576938244412822432e-01 -3.659047547468832068e-02 -4.396725879449387975e-01
1.307371013823974137e-01 2.806933794838377128e-01 6.676009139500724832e-01
1.471185599113385926e-03 1.419943882851046058e-01 -7.109001653481190619e-01
-2.802721454177074523e-01 4.245063014687243397e-02 -4.531759858271778851e-01
-1.934502626460900265e-01 1.516988524667562954e-01 -7.592685116808387535e-01
2.918224837354550100e-02 -1.423735426492788170e-01 7.335283690314481353e-01
-7.484870518052905153e-02 -2.092484687955270539e-01 -2.340602049979501401e-02
4.432592573174827522e-02 -1.889107857493279308e-01 3.611721809870396260e-01
2.266255436747602880e-01 -1.284256293229436852e-01 6.683528944902178415e-01
-1.461335631231045484e-01 -5.054728933068372565e-02 3.858607996674133789e-01
1.663179151884460472e-01 1.293157326550196107e-01 -1.098121559598411456e-01
7.750074486793744055e-02 -1.353365896095640730e-01 9.096404701783403768e-01
-2.478123659565042158e-01 1.070677737824902997e-01 -5.062185727313389672e-01
-5.944163946341390198e-02 -1.593070134289433226e-01 3.510701784820978721e-01
3.458361561075065094e-01 5.734654568272574277e-02 7.604460607386365201e-01
1.066812467040217927e-01 -1.779480053870950707e-01 -3.628392697677990664e-01
-2.443872306644017389e-01 -9.725934787404419413e-02 -2.315816747238227391e-01
-3.307742645106630935e-02 -8.084780226469258368e-02 8.330951657816693112e-01
1.309751434133802905e-01 -1.622584851808385187e-01 -2.435741207872036407e-01
-1.384743576372481910e-01 -4.052806430577297198e-02 4.473785139083078510e-01
-1.735676994475119847e-02 1.100764609140992278e-01 -9.550887862352306357e-01
2.611123445882074789e-01 2.626527925348090542e-01 8.652001049825824852e-01
3.200276921960659715e-01 1.210162896829269363e-01 6.489540833757460048e-01
3.603464298384048137e-01 2.275726528830216214e-02 8.993885097371431270e-01
5.300802060718593639e-02 2.800473046527832688e-01 8.493782394366694577e-01
-6.973753392808215712e-02 6.793708883759190693e-03 9.079291366541595298e-01
1.398098000951236708e-01 -1.550366823076813894e-01 -2.140738359067395069e-01
3.367535571693813790e-01 8.541826199623998861e-02 7.068142678120112876e-01
-1.153683806489075453e-01 -9.262504009147728978e-02 4.221692083193767098e-01
-1.007187473706800535e-01 1.834756934522918936e-01 -5.281700479716189278e-01
1.344350295313941901e-01 1.220286115068523886e-01 -2.805780138000100732e-01
2.066013521346179993e-01 2.932767789096654143e-01 9.081329865658646083e-01
2.084034325749544170e-01 -1.054191113851885020e-01 1.141986228215176175e-01
4.954476986980350939e-02 -2.199945374854653524e-01 -4.646075020423395818e-01
1.909586401239943554e-01 -7.386297550837202242e-02 -1.603496077871330583e-01
-7.196273893501724250e-02 1.997617282450563359e-01 5.973024826335148196e-01
-2.946382014138048677e-01 9.196355482113571789e-02 -9.167937751095797116e-01
-2.436223474971863645e-01 -2.298570765892729295e-01 -6.893222143470277841e-01
1.101130604598875851e-01 -5.498114143102563606e-02 -7.438361168879678020e-01
2.082987203449832292e-01 -6.380149405181236022e-02 -5.247397191303519032e-02
-4.485256990373730213e-02 2.177030466916725082e-01 -8.469473427230971019e-02
9.887658827166007081e-02 2.765890996850163264e-01 6.046879220768823782e-01
-7.089362679425917357e-02 -2.084188258843017449e-01 -7.420076757275572386e-03
-2.128807552903245748e-01 5.686537167182747002e-03 6.545950337599150404e-02
5.060438567052946701e-02 2.785973624428773610e-01 8.232435959667389058e-01
2.344696692852321074e-01 -2.970144650495341876e-02 7.569893773885222332e-02
7.805811292640700561e-02 1.183863905825289775e-01 -5.402493758648616584e-01
3.467702915782072681e-01 3.134127236465595462e-02 7.875068555749571431e-01
8.899638694720028720e-02 2.902653878782523456e-01 8.311260468220073028e-01
5.510962624306113555e-02 -1.709653432259767014e-01 5.584990628774395560e-01
1.664277736292432142e-01 4.288846734813018396e-02 -3.277875964861926561e-01
3.079169916894634040e-01 1.758575939560425710e-02 5.325001510023017470e-01
-3.039493061449624056e-01 7.412557135253958207e-02 -8.280002872170927342e-01
4.685296969904489267e-02 2.632825584477893055e-01 4.671411198951015420e-01
-3.377588131122044590e-02 -2.639417815838344672e-01 -9.389772566632826889e-01
-9.602338976980612228e-02 -1.532744662783907807e-01 2.523402634752910934e-01
-1.279772695611948452e-01 1.578741653035375114e-01 -8.570981750131745347e-01
-1.558522636340629597e-01 5.663839652060025272e-03 4.160616368774832652e-01
3.087054252263633503e-01 -4.294308270140372724e-02 6.954524601939312545e-01
-1.431278718059841026e-01 7.041658152796458070e-02 4.985116937506403612e-01
3.961312841524748142e-03 -2.379897990291337528e-01 -9.140458377790308120e-01
2.973390738938538336e-01 -6.493537852793651588e-02 7.184236075301043689e-01
2.732177986740582654e-01 -6.064012807221561691e-02 4.660660945348716888e-01
-1.047977157213209332e-01 -1.497187913770455236e-01 2.361636255555497887e-01
1.510018787982272265e-02 -1.002802930850260621e-01 9.376070089078987202e-01
-6.451401610915837026e-02 2.203285103481285034e-01 2.622657608600114654e-01
-1.677022162369684044e-01 1.610676449342983152e-01 -1.680741518203090756e-01
-1.439409746646987676e-01 1.598115563875815714e-01 -8.230480926216765525e-01
-3.038938943366321643e-01 -1.879806868321970692e-01 -7.719922718671835549e-01
-1.180289082856403743e-01 1.676901023121369905e-01 -7.348336744137498044e-01
-1.789813995876174402e-01 -1.723911583041822515e-01 -1.643283412579374381e-01
3.300187407547854890e-01 1.305034177752856239e-01 7.197415776211830707e-01
1.699299230360173663e-01 -1.558823000347832055e-01 6.222806904958548824e-01
3.089028156138968334e-02 6.914585532122050071e-02 -9.379407868853532060e-01
1.094870892535858148e-01 1.721763469065625551e-01 -1.651473090120404164e-01
2.056780702511583694e-02 2.602215726903161497e-01 5.255610599599950250e-01
2.247185437752067250e-01 -1.304433619489361595e-01 7.683277866003731527e-01
1.792463167006894120e-01 -1.533360153984505425e-01 5.726991579768724305e-01
2.267452473508708988e-01 -9.106621702927214512e-02 2.025375955728439814e-01
-1.603252467109267387e-01 -1.361385201279248502e-01 6.338126064845282792e-02
-1.569705720314490405e-01 -1.902761939561731785e-01 -1.639062343377474806e-01
1.283461953788240795e-01 2.877511868524618155e-01 7.434702887935142890e-01
1.350043696539557081e-01 2.975301488547268391e-01 8.632519319156708448e-01
1.795122314318723933e-01 -1.270374414224836324e-01 -2.426251488086595201e-02
-2.515643857574363929e-01 1.176448087142983323e-01 -7.021928019998087134e-01
-2.415280458549816656e-01 -1.614234927691883884e-02 -1.180757443345744201e-01
-1.734658040292636275e-02 1.890137079936626552e-01 -4.206028658461437586e-01
-1.871565114978444855e-01 -2.159514465594165600e-01 -4.097645253459188397e-01
-3.599354714484524487e-01 -5.758033377138867259e-02 -8.737285169247640537e-01
1.801152953563002757e-01 -1.532312144089176265e-01 5.481349912289422699e-01
1.993197571797576118e-01 1.538959716705391167e-01 1.267842231585188106e-01
-3.567799886761497397e-01 -1.031731679816253328e-01 -8.687512436630753232e-01
5.604496467892343403e-02 1.175381619962837382e-01 -6.350171908742759941e-01
-9.782362262289227839e-02 1.584196361901003824e-01 -8.295787820774904731e-01
2.184691047459854929e-01 5.247968883997678607e-02 -2.110207226195494681e-02
3.919521276769637880e-02 1.728653418160677746e-01 -4.004463846622893231e-01
-2.253410384185761672e-01 7.508341281695937730e-02 -1.159966267462219786e-01
-1.452866362862811379e-02 -2.354208723722943652e-01 -2.200012681406858517e-01
2.938362941342045342e-01 -6.974352750936001211e-02 7.188980928454129504e-01
6.803983020188357489e-02 1.533544149625592490e-01 -4.156499377530437078e-01
6.996942980078386942e-02 -1.848154488387904471e-01 4.141372807705255288e-01
-1.345893394983457836e-01 -2.276799378428497334e-01 -3.140048141793493341e-01
-1.818725694500991363e-01 -2.622838110130116251e-01 -6.878895280298559234e-01
-1.300296322040265518e-01 1.478021612327121426e-01 3.925365866712990370e-01
-1.794749204691162281e-01 -1.059327317966689275e-01 7.610585282994877798e-02
-1.160532124765968343e-01 3.838133600718066085e-02 6.777444793687824598e-01
8.069390792742343194e-03 -2.129867916941561579e-01 6.812905537163357894e-02
-1.707492851397150735e-01 -2.698841586825424521e-01 -7.211160338804963876e-01
-1.965163747559674212e-01 1.492729727854357757e-01 -8.117797032352100928e-01
5.254620919263847112e-02 1.618447850068989169e-01 -4.239116400191236256e-01
-1.030236526356643201e-01 1.852003016848326189e-01 3.827297769681603512e-01
-2.825401316001101559e-01 -1.815662029068093319e-01 -6.514556096070956981e-01
2.745852202406097176e-01 3.382339424143319950e-02 3.044128680591555169e-01
-2.190364665237705399e-02 -2.575659834729155939e-01 -7.186402042311245131e-01
-3.339313764354706615e-01 -4.032007040664701419e-02 -7.095410250483981107e-01
2.378584373395535856e-01 2.632510667161769846e-01 7.892105138161890077e-01
-2.702390102658768223e-01 1.051690453726669278e-01 -7.704370812930682044e-01
2.534819834133439920e-01 1.190798971104400222e-01 2.880344089816946895e-01
-1.176509638474674685e-01 1.728558650153473597e-01 -6.637438232654427894e-01
3.168150827870257202e-02 2.697523027997739686e-01 9.171164364508095357e-01
-1.261363209241262162e-01 7.797664587464776809e-02 6.078620448107164842e-01
-1.606205986177640099e-01 1.162490888583102150e-01 2.695893000490098834e-01
-8.776398218877987101e-02 -1.478671013254167776e-01 3.106471384964917259e-01
2.489498267152495115e-01 7.123136267866903015e-02 1.769800339988304716e-01
-1.230890207945097431e-01 9.279741263101815019e-02 6.129678633115012154e-01
-1.392585643706443777e-01 -2.913822448672351850e-01 -8.973395193888406007e-01
-7.990254816750838596e-02 1.792841962172072798e-02 8.695931052918166593e-01
8.854097693502377409e-02 -2.201303633872265728e-02 -8.576391930491540361e-01
1.228343400543418507e-01 -8.739979825655266876e-02 -6.359138499935341748e-01
-2.348975346665858610e-01 -4.253701769344134936e-02 -9.428563838295617172e-02
-3.459076731853280573e-01 -8.028698956164524725e-02 -7.870644111151346989e-01
-5.990936691296164934e-02 -9.502736061068620121e-02 6.609069066991186681e-01
3.434603453389454414e-02 -2.289744078623468793e-01 -4.416381224515216752e-01
5.211045760750683542e-02 2.756289449213150111e-01 7.003123283603858162e-01
3.085099680569388658e-01 1.361608890709239128e-01 6.140734305937756154e-01
-4.101249779117172728e-02 -2.677151923887665652e-01 -8.650191292062855419e-01
-1.365237334831672089e-01 5.639060119246728370e-02 5.507015413075135868e-01
-1.067566394005126929e-01 1.382461451496135585e-01 6.339230868847295364e-01
-1.051959593202137222e-01 -2.244706939480091978e-01 -2.131735451387548330e-01
-2.628045295635893508e-01 -1.908565037811237319e-01 -5.961497388599524827e-01
9.614349157297788495e-02 -1.347574659085162552e-01 9.548987917477301801e-01
-1.755651534291517712e-01 2.057107461552436928e-02 3.028430037994087054e-01
-8.445292169997571652e-02 1.617840855335723471e-01 7.300602868125528611e-01
2.400215926778246356e-01 2.263025786231715186e-01 6.000417164810069037e-01
-2.784584797682707613e-01 -1.670073430514343684e-04 -3.635383469886700469e-01
1.526554462625569764e-01 2.019154628077346192e-01 1.489087539812034011e-01
-2.118178105942092326e-01 -5.597432454795086415e-02 2.041825238583009489e-02
1.539436957870268241e-01 -9.241871206632781832e-02 -3.977324717820070465e-01
-1.451718740490532122e-01 1.786124832247173444e-01 -2.580594318016786737e-01
1.942758553243932318e-01 2.870960530966650270e-01 8.311796375310458451e-01
-1.737383810432127085e-01 -2.141559131453668330e-01 -3.528274730717635976e-01
-6.556941525637238755e-02 -6.289079204999664663e-02 7.526713452791720105e-01
-3.146725304598804174e-01 -1.440348754256521278e-02 -5.985848708182837097e-01
1.075391005863153560e-01 1.083751081978887865e-01 -4.510298107451840011e-01
-2.537711189562475433e-01 -2.520472825850947340e-01 -8.432191453146685722e-01
1.665266916967270416e-01 8.670396203540295388e-02 -2.357147875654689861e-01
2.256197917460535038e-02 -2.320137654636041380e-01 -3.119403346274508548e-01
3.649324393835048363e-01 7.967306725765951891e-02 8.801978974057491634e-01
-2.704077650062013394e-01 -5.682248654918366920e-02 -3.167677918228013478e-01
-8.756270006230087999e-02 -2.759293504523988028e-01 -7.275564048458371680e-01
4.243267317555905055e-02 1.531802871766638485e-01 -5.078702810483368690e-01
1.209928706314694347e-01 -2.623224372734209164e-02 -6.683075367471730255e-01
-7.528373644313152147e-02 2.048807012956735119e-01 -2.231740789719312557e-01
7.594650456678479766e-02 2.765747314348634411e-01 6.236919451062830078e-01
2.472019816384233015e-01 2.674169457158180330e-01 8.447969794902538965e-01
2.821625678553498773e-01 9.757732620403569701e-02 4.016338673299000850e-01
1.791875838703182178e-01 -9.320069412806401832e-02 -1.973741944813938998e-01
-1.458915480413421617e-01 1.561766802081779593e-01 -8.731042282008618649e-01
-1.653806220703870622e-01 1.605024526807559970e-01 -1.199731047086201596e-01
2.679405933130737383e-01 -2.704088400810251633e-02 3.144576862648325033e-01
-2.870299951261705007e-01 -1.991091064676012157e-01 -7.343546282230363209e-01
-1.205694287177173085e-01 1.864954186853893803e-01 -3.935884133417291708e-01
1.190235308229493916e-01 -5.559315902051052000e-02 -6.863619440679659123e-01
-7.235996641544226171e-02 -2.714161290052465314e-01 -6.876471313085911197e-01
-7.023465398605759080e-02 1.453616357801686965e-01 9.014283734508974355e-01
2.229056217796212824e-01 6.076405857126319227e-02 1.505375652558797739e-02
2.373146559766174390e-01 -8.706188583970328465e-02 2.781521434603159704e-01
-7.227536371235170065e-02 1.499878042117609167e-01 8.728151854444772262e-01
-1.706682328731935760e-01 1.517466169154528810e-01 -9.013373107023127107e-01
-2.773399745064695221e-01 -1.733462874140433152e-01 -5.998157903771997868e-01
1.059495163949867452e-01 -1.841951608994804035e-01 -2.823932858523000022e-01
2.630871471806852518e-02 1.872699835307796989e-01 -3.384763434590853382e-01
-2.690836500138674703e-01 -1.761763472131738228e-01 -5.710788769785696273e-01
-1.883813549380884342e-02 2.138998157015936652e-01 -1.670849929390252897e-01
-2.662478261540093816e-01 8.365253908699198104e-02 -5.133535568894047607e-01
2.890857156896693980e-01 6.419725809198287281e-02 4.051372781280891955e-01
-1.646850970794704605e-01 1.375900452425089793e-01 1.249558259982014446e-01
-1.094836767485756791e-02 2.017519949881156627e-01 -2.919736612870201253e-01
-1.378266767496968692e-01 -2.923202837373511387e-01 -9.096578105644731460e-01
-1.470939104359403858e-02 -1.520393232846483644e-01 5.400564429873240258e-01
3.432332811087975277e-01 1.510243453774987032e-01 8.291176735812185727e-01
1.332263831083266813e-02 2.080321515830552137e-01 -1.967237864916811518e-01
8.804446881936776881e-02 -1.956384578140286101e-01 -3.547151114431432717e-01
1.227676016871353387e-01 2.428667368612693611e-01 3.187464121616513379e-01
-4.771722791785559803e-02 -2.635763346475931135e-01 -6.286089268340324665e-01
-2.669373066471469880e-01 -2.349570724799860885e-02 -2.791317692683928930e-01
-2.681069536634119177e-01 -1.963124024306807380e-02 -2.865508003036540963e-01
2.320517048966286300e-02 2.300443191018517186e-01 3.603464263661202566e-02
1.057458118665125096e-01 -5.687009583038249438e-02 -7.716883585842947424e-01
1.298875745017517500e-02 -1.276955122054672653e-01 7.781909984859933793e-01
8.419478456084327628e-03 -2.366398431231800104e-01 -3.218706008071864355e-01
4.780761538320231832e-03 2.502841896248130249e-01 3.762676604304764916e-01
2.067516610911262487e-01 2.545946567106496250e-01 6.360571237474116346e-01
-2.708431476395100138e-02 -1.352777278329456989e-01 5.984713527545041378e-01
-2.262536699296730514e-01 -2.312802548920413759e-01 -6.324713661561875977e-01
-3.054023439470995860e-01 -1.798925608714423974e-01 -7.531039671850633388e-01
4.816396747331592315e-02 -1.593299522349876651e-01 6.512931389482852218e-01
-4.355895063336354123e-02 1.483578052251285084e-01 -8.037489627312252027e-01
1.153868469628012983e-01 -1.580907368723009354e-01 7.441923352136818881e-01
2.989469778978631753e-01 1.805247039061357861e-01 6.790123773530575280e-01
2.202766825884311386e-01 -1.294509288261683211e-01 5.430856371722315723e-01
-1.710226214647983869e-02 2.449290305990413086e-01 5.495738509322325438e-01
2.286433227094782361e-01 1.813886558491907830e-01 3.594419799199961019e-01
-6.241712691896993126e-02 2.205546734888894911e-01 3.503230736494821751e-01
-2.643824574826632995e-02 -2.221826424720532434e-01 -5.302008576602317003e-02
-1.141852280798420632e-01 4.443914939956102039e-02 6.919070780683735933e-01
2.049599274744617894e-02 -1.551313033823724929e-01 6.196232929413150181e-01
2.028900537234040735e-01 -1.385646270902872734e-01 8.414007298627969034e-01
2.154542077773800579e-01 1.402732606550940175e-01 1.560255552581873428e-01
2.191245115442664038e-01 -1.130146068147929450e-01 2.822610067701843417e-01
1.930898334094769131e-01 -1.418773494041039029e-01 8.330993847997139046e-01
2.525441871869488764e-01 1.921477555197247458e-02 1.639152473051496417e-01
3.787572786721669221e-02 5.322936516527020101e-02 -9.603353615300349588e-01
-1.133742256276283611e-02 -1.882882978097252802e-01 2.873775219086219801e-01
1.692644991404622101e-01 2.002256742743294127e-01 2.010593559227532301e-01
-6.489000508824362135e-02 1.661693985083498581e-01 -7.077955752811849743e-01
6.954137621014497284e-02 -1.806269873583102314e-01 4.664902280282054448e-01
-1.059248953602258542e-01 -2.000240759049613237e-01 -4.622107437026767157e-02
-2.939996782439788237e-01 -5.501193772673382276e-02 -4.570638332482465649e-01
-3.177258154326854100e-01 -4.249453889135383633e-02 -6.030693583285873238e-01
-7.085559518623157915e-02 2.166666989173661739e-01 1.084329583612882592e-01
8.175652650344594763e-02 2.065195781843471301e-01 -5.216162242943074567e-02
1.164672144793894026e-01 1.492970462594228331e-01 -2.477573038297792574e-01
-3.241694163744792689e-01 -5.273265702827492629e-02 -6.438705618421790566e-01
-2.868687252085032613e-01 -1.934124354230096487e-01 -7.127250398201130377e-01
2.262489359333681449e-01 2.640330935934319667e-01 7.562854886173850932e-01
2.352337373123102038e-01 5.605489821302016978e-02 7.967082503115088810e-02
-3.376474942597771367e-01 -6.434487620894267790e-02 -7.303575579067353996e-01
2.390845862808796754e-02 -2.245650182670035633e-01 -8.391908576001975151e-01
