-4.106414888526484508e-01 -1.490749102203940135e-01 -5.828636836643417141e-01
4.431688413949032568e-01 3.357881153447993539e-01 3.636309547322327251e-01
4.020352508010129333e-01 -5.769301224213820717e-02 -3.223270172453822080e-01
-1.077939361856358053e-01 5.635652903482893938e-01 6.882686265698849670e-01
-2.313602974976599891e-01 5.984546215842255767e-01 7.330567145147541819e-01
1.750441304302047252e-01 9.426137520957982019e-02 -8.803744637434685050e-02
7.073657186153077259e-01 3.283853083447955679e-01 3.841239391134300685e-01
6.808752220872378302e-01 6.223459215696773572e-02 -7.969024836228487396e-02
-2.779619847197313809e-01 3.279362887116407665e-02 -2.514839349039361682e-01
-3.110717085699351084e-02 2.835178157016181588e-01 2.134162667765795440e-01
-4.994061848872196063e-01 2.520734156205916010e-01 9.998645328988761682e-02
-2.274820093267407306e-01 1.081015695439018626e-02 -2.831554180755214145e-01
7.916339882582025256e-01 2.039879123458679666e-01 1.795219722728044753e-01
-7.103388476653068606e-01 1.869139129495975271e-01 -3.933500866437165261e-02
-6.179395199052770682e-01 -6.806425713514309417e-02 -4.688337311942707974e-01
-7.555183201767784462e-01 -7.682048416763198606e-02 -5.013243107164209178e-01
-8.665569225815235033e-01 1.483018143725781945e-01 -1.258295043595379359e-01
-1.102446807361622261e-01 5.360609129688493901e-01 6.403735892122275342e-01
-8.567969078155693863e-01 3.647222801431068140e-01 2.498361140242932044e-01
1.123696601963870279e-01 -1.474699907455437331e-01 -5.141638208434889945e-01
-7.024827647572619016e-01 3.334698002075304202e-01 2.152158656388289126e-01
-2.961744908069331439e-01 -1.654535457092874418e-01 -5.967728052275969031e-01
9.021045571991737066e-01 3.796838465471176483e-02 -9.378898981843723781e-02
5.750075171481936476e-01 -2.302215950344331241e-01 -5.990214361750701988e-01
4.455644491883420932e-01 4.583428033136136004e-01 5.759683804688194853e-01
-4.967102303376163541e-01 3.125896676353895343e-01 2.050272135390038275e-01
6.150826140783003382e-01 -1.165385796537335011e-01 -3.972838262142923682e-01
-4.446857707662135034e-02 5.764080210487547706e-01 7.184700823113812085e-01
-7.338813079473995860e-01 2.386379022602609645e-01 4.718676802988495261e-02
-5.770766461913232753e-02 3.568454505305977409e-01 3.369296949972570010e-01
-5.880874878403052897e-01 3.054843180545035747e-03 -3.420257728425296073e-01
-2.870304517422277157e-02 1.791806745954508950e-01 3.320253898838491230e-02
7.790436042445544329e-01 -1.847898927942523140e-01 -4.947009035835953084e-01
-6.360572686007441856e-01 1.291229466209635468e-01 -1.299580087162898190e-01
3.966528188109261222e-01 -1.804110916004646736e-01 -5.353236066526032566e-01
5.484922441267076065e-01 2.396958789294627579e-01 2.106544795097264333e-01
5.788615783714288199e-01 4.139392225437696915e-01 5.159459279925179276e-01
8.577135156687304418e-01 -6.360663304433294973e-02 -2.751222017734037406e-01
-5.356961369776457316e-01 -3.254662977977245547e-02 -3.970172401054749001e-01
9.414240641799700438e-01 7.946787021885014235e-02 -1.703346659364825960e-02
1.381494615998751507e-01 -5.179173499401983766e-02 -3.453786312047453233e-01
1.404828850096153381e-01 -6.369879877452548633e-02 -3.656852752153239572e-01
-7.158894501850079362e-01 4.144223766257755792e-01 3.535844483008206418e-01
-3.789295606142591422e-01 4.451507961953412029e-01 4.492208316364713072e-01
-5.007821467447228780e-01 -1.825737957071253137e-01 -6.521829051734117089e-01
-2.780391125296232668e-01 3.356004171518711110e-01 2.724012745031145766e-01
-3.186179148686141271e-02 2.731512363309315794e-02 -2.299426630409352190e-01
-8.866754253716454537e-01 1.800888108502657218e-03 -3.818309105311512019e-01
4.957640569963456256e-01 2.264518210687671007e-01 1.810944005223689701e-01
-4.548928036624408922e-01 3.531989396267078418e-01 2.805574033400616285e-01
-4.888061839888168114e-01 4.872187069717528463e-01 5.081543195533706481e-01
-5.577552050462745159e-01 3.958386783685299837e-01 3.413643379880922923e-01
-7.055479168021925318e-01 4.042916119177357159e-01 3.373604169100847816e-01
9.946993411260411644e-02 3.966383991551108990e-01 4.255881576463875215e-01
-4.049457008363702704e-01 -8.830645717536611539e-02 -4.770084678144644874e-01
5.154496277106745961e-02 5.090986079451701452e-01 6.141181510029261048e-01
2.917394112603394762e-01 4.407295176331533226e-01 5.261061798958396318e-01
-5.166932286684042808e-01 2.580618546996183219e-02 -2.936640890860447439e-01
-2.574253781101353278e-01 6.809334599453104563e-04 -3.044545091854060637e-01
4.440024527096595452e-01 -3.980681171514788980e-02 -2.860918032720581317e-01
1.506840756968155504e-01 1.348487233115528983e-01 -2.088655421459176265e-02
4.207115820510645143e-01 1.430363198208649822e-01 2.731476977147892157e-02
2.139174440151485612e-01 3.094893561270992133e-01 2.892346160037004843e-01
-6.775353666264116725e-01 3.210943677801918472e-01 1.969492705267374688e-01
-6.998136548807483148e-01 4.332700974037422270e-01 3.882197242902790113e-01
-2.801391973662582524e-01 2.349544792717579433e-01 9.800607101445607539e-02
7.789935678451747059e-01 -1.979479477426114298e-01 -5.174723483316928663e-01
3.279677456216548159e-01 -3.188629786019646639e-01 -7.835207255687799410e-01
-9.892945560015609097e-02 3.247604153508609759e-01 2.762226151651231421e-01
-5.115334575143812845e-01 3.110530712433218561e-02 -2.838455574769582768e-01
-1.555609003262407308e-01 -1.058740134472303807e-01 -4.759688091199761883e-01
-4.459558152246090867e-01 5.591158229986926687e-01 6.379467261942664003e-01
-1.750022035896438566e-01 3.257976325886930424e-01 2.684285160023423544e-01
-2.697695626258193591e-01 3.408020253352843087e-01 2.824430684642552647e-01
3.639157904861716197e-01 -3.055851236685069305e-01 -7.560172328535113007e-01
1.921698713249808954e-01 -1.053009283011105690e-01 -4.311474368081828490e-01
-4.987224444800734263e-02 1.097278012796666785e-01 -8.962819997288114238e-02
4.673028305855855824e-01 -2.078915567384214125e-01 -5.739632593731817112e-01
1.863617673321432411e-01 -1.227431612043064224e-01 -4.620568417260014771e-01
-5.284444188055431590e-01 3.758856486339673952e-01 3.105375038486035133e-01
5.789182695910413123e-01 -2.425069486022171372e-01 -6.197837554197820342e-01
-7.953209598082867648e-01 3.334810289066536537e-01 2.035334662083123358e-01
-1.574621412196690884e-01 1.576971603228317365e-01 -2.019621148017249415e-02
7.019212326925768908e-01 1.191677054853040596e-01 2.146415823093674596e-02
2.874040399736975671e-01 2.058888632039342637e-01 1.192550026161616483e-01
-4.507336603618185278e-02 5.231842658082977993e-01 6.263098670124577216e-01
-1.139247500311636879e-01 -3.179500954648226130e-01 -8.376398317025123275e-01
5.526701501486789292e-01 -2.823040059526933376e-01 -6.919462693732481018e-01
-7.819166652556309716e-01 4.274546766602675962e-01 3.678095878197855106e-01
-8.345034142900966678e-01 2.120238633656673088e-01 -1.154191614391987357e-02
-4.355623559186183047e-01 -1.618684478846151575e-01 -6.081393198967336433e-01
6.052916377280660454e-01 -7.432297006170317244e-02 -3.254794657861028728e-01
-1.990679543327107393e-01 2.731411004078797000e-01 1.742925239173019891e-01
2.384633727198910980e-01 3.778445914564774744e-01 4.105919203784891280e-01
-9.802793636825093970e-02 -2.912510024285673293e-01 -7.894432254434962104e-01
1.338737778447592341e-01 9.740948585915201741e-02 -8.778014070440533223e-02
-8.269850969635208493e-01 2.956349237539157571e-01 1.340636879698093586e-01
-4.893011893996797590e-01 3.225769882755826629e-02 -2.790494957827972522e-01
6.459306624566621413e-02 3.060005691347261192e-01 2.643769135283672300e-01
-2.823953718198252139e-01 3.333507520701326499e-01 2.679599763720434957e-01
-5.541152683764435372e-01 -4.623432969169005008e-02 -4.230203789330281849e-01
-2.957924701159360681e-01 2.638455583900376628e-02 -2.648199111617631774e-01
7.215160201709239218e-02 2.662025189617371335e-01 1.964738549157912795e-01
-7.555644100276087682e-01 -5.796569914170895260e-02 -4.687089019710882765e-01
7.613135592134566698e-01 -1.597474577198833984e-02 -2.048636427226200596e-01
-1.110713976588246221e-01 1.113083947227637149e-01 -9.460743992078417264e-02
1.269181126337949050e-01 -1.800302123875639412e-02 -2.883354434568391467e-01
5.354680129024008695e-01 3.427178220397465447e-01 3.872541292122914092e-01
-5.609170553719751151e-01 -1.694963853679740118e-01 -6.371370209238792492e-01
-6.350054871177559512e-01 4.284332517775532034e-01 3.880201262063919798e-01
1.038930949895838229e-01 -1.769364839356334929e-01 -5.662130993945505564e-01
-4.051597428163814657e-02 3.174961919557857670e-01 2.710173186566500747e-01
2.057409583729827574e-01 1.412836927936891307e-01 -2.813557971060924329e-03
-7.979181224858625798e-01 1.180298394128619262e-02 -3.533385414469406016e-01
-2.076461561157223745e-01 6.055269999020842508e-01 7.482819024728126767e-01
-3.028210604115432747e-01 2.897195572634805316e-01 1.898977989995096205e-01
9.173866174822925545e-01 2.053880590580389465e-01 1.977949465188712508e-01
-3.720089678119830046e-01 3.425671248401561120e-01 2.726101133011441524e-01
2.038861562488018253e-01 1.465702925166942339e-01 6.099154449376368442e-03
5.421025940171008140e-01 7.628728542649738931e-02 -7.286892047060385125e-02
-5.329275406414349381e-02 6.317975714595076842e-02 -1.705934797392330837e-01
7.247777048634300723e-01 -1.351992789428148878e-01 -4.157426903950366404e-01
-4.805964619185699171e-01 -1.694509076734070363e-01 -6.269342980731277271e-01
-4.789616585597732956e-01 -1.766484500046102413e-01 -6.391809183377750170e-01
-6.216734714670085760e-01 -1.372475763060463094e-01 -5.890004739975052139e-01
-4.442470108548066815e-02 -3.024907764012027545e-01 -8.021330482802437878e-01
-4.296635170265298287e-01 1.531342096898966887e-01 -6.240043524569181821e-02
-1.653476512282057442e-01 8.133540026185392957e-02 -1.533058708153204330e-01
4.014299173283379929e-01 5.934372664515113333e-03 -2.123197066081335405e-01
5.330656083758179564e-01 -3.094181428874031581e-01 -7.413282973257461217e-01
4.579551634594585807e-01 4.151333541283653283e-01 5.027722339091071913e-01
-9.790598238725965741e-02 -9.950090303610439890e-02 -4.576753667058880426e-01
-9.488928876811369983e-02 3.741282104483555360e-01 3.621445339483062575e-01
3.093270474739796480e-02 4.952265605729155307e-01 5.875196337104550137e-01
-6.589239886014012226e-01 1.798905032167094908e-01 -4.500581044660749430e-02
-2.955883229944694102e-01 4.941201945333112966e-01 5.444490068891333356e-01
-6.998567961720523201e-01 4.997917218543999895e-02 -2.749286171184820438e-01
-7.319181806468519347e-02 -2.284805917826382704e-01 -6.777118134615296441e-01
2.889624084646570390e-01 9.887418839891450040e-02 -6.569780877542534536e-02
8.017474081787526186e-02 8.632274212140159109e-02 -1.137301582276591810e-01
-2.672206368976212665e-01 4.312274450398210224e-01 4.392120271615114202e-01
-1.336950897996853904e-01 -1.300315845623072411e-02 -3.125341266203461865e-01
1.434578806063922518e-01 -9.263279321935087574e-02 -4.153698455731266725e-01
-5.664532013810705813e-01 -1.195214212804370131e-02 -3.652628974515231830e-01
2.594956152964192908e-01 7.177573014267513152e-02 -1.162958019118430081e-01
-4.671973733334449652e-01 -4.160809299449100968e-02 -4.040607907416535749e-01
-7.681990796935066479e-01 2.098793305047966518e-01 -6.894879789641628585e-03
-6.127455902176039970e-01 6.502729939145483230e-03 -3.391685226861089197e-01
-2.006229652687382403e-01 -1.090325695832031622e-01 -4.871133855599638629e-01
-9.047030006933413082e-01 1.044887155506511733e-01 -2.064399726332707963e-01
-1.722011501812235612e-01 -4.724167531958998155e-03 -3.030639123191931072e-01
4.352292871345718184e-01 1.346961410399101777e-01 1.471507095270944629e-02
-5.761257575236318207e-01 -9.089322647303492431e-02 -5.030603705249065971e-01
-4.519813810234764029e-01 -2.666330449712581707e-01 -7.914651732380751925e-01
6.303046758171881869e-01 -1.822628626156926335e-01 -5.090766706344105330e-01
-1.608309215868720249e-02 3.397028382344962627e-01 3.125173427228211676e-01
-7.360276405916755804e-01 4.659576121581568420e-02 -2.853415241585833817e-01
6.607973605963476382e-01 -2.279256567486518392e-01 -5.842357515111117339e-01
3.934557754135372676e-01 2.824525113710491531e-01 2.650873547041139311e-01
-6.518709607146382090e-02 -3.156420364687184121e-01 -8.275034343279267235e-01
2.220202171300499350e-01 4.632587864675017930e-01 5.562969475328470859e-01
4.336188661978204184e-01 4.002170626034821654e-01 4.738976411139277922e-01
-2.210508379107769261e-01 1.538240036416765322e-01 -3.491233587261844545e-02
4.798083219065916172e-01 -5.176410891140513504e-02 -3.022663100980764184e-01
-3.742000751590872087e-01 5.501752615896363663e-01 6.315228781925446011e-01
1.061958654775483207e-01 4.806592285761195904e-01 5.718028386186074785e-01
-5.731092376474290484e-01 4.926383197105839162e-01 5.069049396578226840e-01
-5.322994102178310594e-02 -2.169970977014730185e-01 -6.553277799982718532e-01
-5.680807710241257968e-01 6.797395357820715245e-02 -2.271855560148683117e-01
5.220389426454856707e-01 3.390708641732457229e-01 3.792517477353020139e-01
4.101756502290166972e-01 3.422764048258114533e-01 3.706978955477545079e-01
-6.667053693117189206e-02 2.767133708364113986e-01 1.971610982143213453e-01
-4.072050636330434847e-01 2.371690259395261013e-01 8.582145663015805503e-02
2.457848866027195212e-01 5.664535403281226733e-01 7.378326535458623603e-01
4.522899233895340543e-01 2.210134881141593566e-01 1.662056665772758679e-01
-3.708085729361181304e-01 4.746759499327494192e-01 5.013267816174662439e-01
-1.740244655088835080e-01 3.361901075578906384e-01 2.865320820036490468e-01
-2.207031432938956761e-01 -1.314978721169095810e-01 -5.285122801338728582e-01
1.165176731694314849e-01 4.628584027109521881e-01 5.423061224841673189e-01
3.398896775064033648e-01 -1.184058878751510502e-01 -4.352013121997048151e-01
7.637256201546459566e-01 3.670706294619616172e-01 4.581584568376692590e-01
-1.296485138181360242e-01 3.065398235231966417e-01 2.408266376289117106e-01
-7.800952809120996756e-01 2.639557693789748583e-01 8.516489635782158174e-02
-5.213078343597924436e-01 -2.019162648755238876e-01 -6.882350483186999712e-01
-2.832233190127301792e-01 1.320666387670262620e-01 -8.039194745105737727e-02
3.539603041482308199e-01 2.766073102722296784e-01 2.499961782631475726e-01
9.696812011715971735e-01 4.795424782724577034e-02 -6.799442975745732809e-02
-9.231195257272183097e-02 4.136846636901819196e-01 4.309071785425033219e-01
3.418700282166523552e-01 5.581130700903006447e-01 7.355136498450457472e-01
-3.157325802907057777e-01 9.265515623752545050e-04 -3.113789121400591942e-01
-3.095185888849459332e-01 3.031271773146125281e-01 2.122505242243013512e-01
-1.829523984907879819e-01 4.131888472421776370e-01 4.186245415362895295e-01
5.670597426411054798e-01 -1.418427348465461091e-01 -4.471163509724279117e-01
-1.256802872896251866e-01 -6.344408289703281495e-04 -2.901244155353120968e-01
-7.153302600020908786e-01 1.332131982525432690e-01 -1.328733392040331029e-01
1.183825749980346211e-02 -2.691006509554549342e-01 -7.372721235498478354e-01
-3.103806475526567077e-01 -1.021355816190638727e-01 -4.890151537243229152e-01
-2.852671071268589875e-01 3.350287858544933051e-01 2.705012229815006997e-01
3.891937250874654697e-01 -2.334689977332075339e-01 -6.280608350515043403e-01
1.454733231762749546e-01 2.570919907150012174e-01 1.899533269870870844e-01
-3.303607574217150566e-01 5.332955780120922640e-01 6.078445850606604139e-01
-5.225382973469679948e-01 2.946158252471695049e-01 1.706746313617529265e-01
4.746992793038252723e-01 2.086686964899342189e-01 1.476721754980327983e-01
-2.191118033251529540e-01 5.598949430406434669e-01 6.678873467203751968e-01
-2.722907392781979685e-01 2.138332062809468470e-01 6.245279732572068393e-02
-8.096713292502354387e-01 3.013226221398119242e-01 1.460864628519451813e-01
4.579338343888976759e-01 4.644499933583686735e-01 5.880937135848856023e-01
2.835099438830119833e-01 4.573460733815669643e-01 5.538176853194153315e-01
7.028473769563836626e-01 2.989570353966937155e-01 3.326397023593460900e-01
5.473463880927893488e-01 3.603143623777186333e-01 4.191956356642688730e-01
-5.523066269356158298e-01 2.985709469900763025e-01 1.737653431005265481e-01
7.520664094722738779e-01 -9.156492576869963707e-02 -3.368099971053064579e-01
1.834024179931769138e-01 -1.118518312786154489e-01 -4.435864438119952458e-01
-2.011177293644944575e-01 7.145753867522108838e-02 -1.749045031498164260e-01
5.914571047972646545e-01 -2.843597843922741619e-01 -6.906141152806434258e-01
7.025352913405182864e-01 -6.981948359201958949e-03 -1.967136691263334514e-01
7.712003753825757979e-01 -1.561404850346102997e-02 -2.029934021657709975e-01
7.585463968081865849e-01 2.545118631921669539e-01 2.627644073386790624e-01
3.104531125205243214e-01 3.962698987359603575e-01 4.515440613087411958e-01
1.927626082007792840e-01 5.288575799856836124e-01 6.661035629510341227e-01
7.605214952896693914e-01 -2.314848601633621994e-01 -5.778238665443545807e-01
6.886494356109410520e-01 2.660794298680940750e-01 2.739676049300309169e-01
3.546085877859615487e-01 -1.626971637905062495e-01 -5.099757006308267560e-01
-3.124057638960811567e-02 4.664492430399183598e-01 5.298944947157010477e-01
-7.581752322192599758e-01 4.427998812157163955e-01 3.973512757715104149e-01
-3.683731842160830050e-01 2.031659432955087163e-01 3.188630259659632621e-02
3.023692045945294837e-01 5.649275485128569807e-01 7.423246826695928391e-01
3.150033412383947962e-01 -7.902807878147659337e-02 -3.702094144164398415e-01
6.530741765885985650e-01 -1.183600141127854992e-02 -2.113461546017001980e-01
4.278896970276671596e-01 -1.539566955176087659e-01 -4.856168133656155739e-01
-7.571965996763507789e-01 -1.174544056443340423e-01 -5.718377928437310409e-01
-5.874351324842196354e-01 -1.210998200093827554e-01 -5.567471810651295483e-01
2.267870945206779398e-01 -4.998675146095769156e-02 -3.310834110634935379e-01
-3.541684113904296494e-01 3.013931985923935519e-01 2.036226123285427014e-01
-2.443864200932181763e-02 3.391714204857461390e-02 -2.175846630184344321e-01
1.046537602606385925e-01 -4.830940948634795257e-02 -3.435757361663681619e-01
5.552053510862146046e-01 2.780261238243272176e-02 -1.551021372788435049e-01
-8.186408005922573006e-01 -5.055874110935069943e-02 -4.638443942843488155e-01
7.972345967528129407e-01 1.411934677440874475e-01 7.158538754667345683e-02
9.549247755454801645e-01 1.858850396246653977e-02 -1.206609463952067196e-01
7.792969772698601361e-01 -2.099884474544703311e-02 -2.112892571844710576e-01
2.640313624302064732e-01 -2.800324659804800387e-01 -7.243977999169959325e-01
7.954171805356385905e-01 4.546670309302688895e-02 -9.426338057182363783e-02
8.785674216902436551e-02 -3.394669281015695317e-01 -8.494331097860823299e-01
3.298688932526992468e-01 -1.565059826826359635e-01 -5.023824805459923271e-01
7.343366695013295864e-01 -1.367259080082222078e-01 -4.171790928156254297e-01
-4.557833596080289595e-01 3.784712515391593923e-01 3.241695230551673856e-01
4.535637688464759232e-01 5.066705116407020926e-01 6.605898475012889071e-01
3.404662463656313864e-01 3.770992579989854154e-01 4.221593890647216685e-01
2.196429037554061270e-01 -2.711210830876967792e-01 -7.145749148592361877e-01
4.692335229596938939e-01 4.078770978733003982e-01 4.916395567558636825e-01
-4.260965937742571263e-01 -9.509341533585166650e-02 -4.914167563123917892e-01
2.427577575842764512e-01 2.355826199622064205e-03 -2.385109494147602538e-01
2.050300825838891061e-01 5.577567318604619295e-01 7.176490942318309862e-01
-8.861953961224483534e-01 2.603111708489826426e-01 6.548583880447225725e-02
1.105372443309026176e-01 -3.242489483697446467e-02 -3.153518841061510591e-01
5.595589165189842618e-01 -6.311887490297742043e-02 -3.118593298961890303e-01
-2.915723048007341500e-01 1.288218012156272518e-01 -8.705828751330761672e-02
2.545676407367351013e-01 -2.398307089499472078e-01 -6.560364160989553550e-01
1.119529860836924063e-03 5.517746631815868552e-01 6.815973560456565217e-01
5.891978987432092696e-01 -2.387551201871693507e-01 -6.119969068555248803e-01
4.453057408381792537e-01 -2.460543110968208824e-01 -6.427623949522605074e-01
-3.601146257823520380e-01 -2.623948083217068628e-01 -7.725530943261923467e-01
-4.001092536170497427e-01 1.388084010357406306e-01 -8.346075950292894396e-02
5.145499678436108448e-01 -1.103513153196649110e-01 -3.992507348368191100e-01
4.826684364158745355e-01 1.166903209146718991e-03 -2.103283048922547360e-01
9.827235434789984014e-02 -3.071749907651882827e-01 -7.922510392788487676e-01
1.854507176893826215e-01 5.137905026541553927e-02 -1.609177157263835256e-01
4.363253182779329720e-01 2.386862709769358992e-01 1.947696031437405328e-01
7.827285309268196267e-02 -2.299371536207416300e-01 -6.611404303423161766e-01
-5.858400746992199482e-01 4.703066106182156036e-01 4.666635295779119064e-01
2.722139446237383659e-02 1.263690019337262438e-01 -5.111947143657902259e-02
-1.947176940900860187e-01 1.540008770255636705e-01 -3.128715063707981220e-02
-1.198680778761812976e-01 1.959173858464502427e-01 5.066828327723298803e-02
-7.256126683401605826e-01 2.704046202280601108e-01 1.031895250631656713e-01
1.727621026598271936e-01 2.465422718332638263e-01 1.751405729073886308e-01
-7.721245957930774617e-01 1.007213155332326998e-01 -1.962471654202649907e-01
1.887759818954938829e-01 2.930600658240775647e-01 2.576408522010616431e-01
4.670015966992463463e-01 4.455154795815610691e-01 5.564775040091746172e-01
3.371947343710810507e-01 3.104631800287389609e-01 3.064579915617742789e-01
-6.825828019125033119e-01 2.664733363433586799e-01 1.018116114913348441e-01
-1.284532616516987913e-01 3.577262428252875881e-01 3.295364232610758504e-01
4.967418197885824227e-02 4.016683627519755939e-01 4.280141205994662523e-01
-3.025797310824726583e-01 -1.116255716104482959e-01 -5.044507949807887082e-01
8.650272096461217863e-01 -1.398888092320641208e-01 -4.061783811094294427e-01
3.831374809602449694e-01 -3.212258629917247865e-01 -7.806549305268073446e-01
1.394167661066295083e-01 7.860529576415485609e-02 -1.196151549657211988e-01
1.386132596546946760e-01 5.348424129956206308e-01 6.696328228025691942e-01
-7.083107757127208304e-01 2.341521902477637640e-01 4.264895345315050657e-02
1.845105974865323406e-01 3.259037913830563071e-01 3.139271157968226422e-01
2.807635053643989242e-01 -2.915842183030920576e-01 -7.422748169005446428e-01
-4.449565440310275788e-01 4.692796415275474753e-01 4.826444597621487032e-01
-5.542307811827712483e-01 -2.602710786058139852e-02 -3.880738299346674913e-01
4.816002050666740586e-01 4.405809293349901568e-01 5.497801807751991898e-01
-9.046522530987685662e-02 -2.079183810990838654e-01 -6.443137613099505501e-01
4.855997302784711978e-01 -3.269334439466776709e-01 -7.776148900070506409e-01
-6.111115395992950533e-03 3.420051593409519919e-01 3.177575778918814708e-01
-6.961113377288091764e-01 1.076499251075759417e-01 -1.746786534177370009e-01
-3.263818231576900986e-01 2.510387634080468722e-01 1.200052942757755259e-01
-2.221855501343471817e-01 4.910911269374385046e-01 5.484604091028133510e-01
7.269009290651693433e-01 5.856151234174663406e-02 -8.024382358728360254e-02
1.338751511207890987e-01 -3.590158647178315343e-01 -8.774548917096346434e-01
5.765689200477474019e-01 5.177263968636868635e-02 -1.109381086092112306e-01
6.941276692201454601e-01 1.560523056035801603e-01 8.429694705077786510e-02
-8.065720348217124691e-01 3.463025739099627742e-01 2.242982522033042103e-01
3.773717438026223947e-01 4.848772536168001190e-01 6.132810372411194866e-01
-3.366167391605472403e-01 -1.705832751922903290e-01 -6.107454600691699653e-01
-2.710900089402034085e-01 1.755716375216236358e-01 -3.593321667302810246e-03
-8.476282297567656887e-02 -1.737293524538652822e-01 -5.844435557038020201e-01
-2.320799509630765145e-02 -2.121064535637768589e-01 -6.430822048319079220e-01
3.782590090456002252e-01 -1.567855924804684165e-01 -4.967668906480833257e-01
1.995669053529796899e-01 -9.906442249068005482e-03 -2.651702685624414690e-01
7.610479201459535714e-01 -1.463850996630709500e-01 -4.305239143944932789e-01
-7.194630271576639702e-01 4.233665568116309896e-01 3.686086046156055174e-01
3.090752574636566608e-01 1.807847583779697122e-03 -2.311000081777019044e-01
-3.458318739574805512e-01 -8.563750424482955911e-03 -3.315922399695388489e-01
-1.354263982206399264e-01 -2.100647528065276992e-01 -6.536944107227321554e-01
-7.307111722921288965e-01 4.484556751037389044e-01 4.105982492875540624e-01
8.768480646766041442e-01 1.465005938155274079e-01 9.080231310435246672e-02
-6.346158788844379339e-01 -1.519636926644816755e-01 -6.160925905565207694e-01
7.551427527259075845e-01 8.384779721921006845e-02 -3.293552667556858687e-02
4.957234757413794268e-01 1.821911842755169209e-01 1.045126558659987964e-01
-4.173899321946041296e-01 4.207407001571448757e-01 4.021404539461754801e-01
9.446806341807596763e-02 5.149812684856110157e-02 -1.721796419987085269e-01
5.790190620653670184e-01 4.854141473385087946e-01 6.396266478012786472e-01
-7.539368870918041754e-01 8.415838828403916783e-02 -2.226106961852174770e-01
-5.737536596449855919e-01 -1.291764523283981669e-01 -5.689963136179133629e-01
-2.107598519247242952e-01 -1.658904725448517858e-01 -5.867626236991767552e-01
-5.937501195337427928e-01 -6.792137980367890515e-02 -4.655375725087977368e-01
8.348376494153217919e-01 -1.553848354778664398e-01 -4.367937668129761031e-01
-4.766839044683901516e-01 1.668297643939265287e-02 -3.044054304895370544e-01
2.059698418386692390e-02 -7.551748506011866577e-03 -2.836546772296683061e-01
2.320506540907407989e-01 1.085860839571131664e-01 -5.606843690401897007e-02
1.980520482037484431e-02 1.017272685606756752e-02 -2.530888412058066028e-01
-1.129064075304826581e-01 5.123544808892323277e-02 -1.987727063831551122e-01
5.951612040147767901e-01 -2.450002380316910755e-01 -6.220501217884686351e-01
4.676762391760578286e-01 4.858210328244346732e-01 6.262963627763913355e-01
-6.201194678005037680e-02 5.961649976633461856e-01 7.504409477920708227e-01
-2.755709780520291252e-01 3.479975201197192669e-02 -2.477117068821987345e-01
-2.404276732999061084e-01 -3.228812981025375173e-01 -8.621165607718002111e-01
2.581931714505066866e-01 -2.317887022582783563e-01 -6.416657223441476487e-01
6.694254135952341089e-01 6.834138694547468862e-02 -7.056789865710823284e-02
-4.525036199992840680e-01 3.690590522401012152e-01 3.082985962613208342e-01
3.696087663315323346e-01 2.240560331095452218e-02 -1.878332553884655698e-01
-4.333121288884062561e-01 1.373494807282616692e-01 -9.016994981265261111e-02
-4.545970456899322554e-01 -2.724138511690230198e-03 -3.351983041615925196e-01
-6.812643811085551393e-01 1.097156279767594889e-01 -1.692333296817335186e-01
-3.565844772944447572e-01 4.913339595428567463e-01 5.319401757015886911e-01
5.974643203324878638e-01 1.086226962055028417e-01 -9.946384781229975630e-03
4.845836805911808987e-01 -2.993675949941061454e-01 -7.300504723055388778e-01
2.554318245743421589e-01 -1.607623755383647268e-01 -5.191290403980105550e-01
5.699255724643842447e-01 2.433206463722543678e-01 2.196273685160849976e-01
8.275850889861343651e-01 1.730050109464064123e-01 1.304490137702246366e-01
-7.393721415446331546e-01 1.988446400656663227e-01 -2.235281961612988269e-02
-3.164282867785121467e-01 5.461876535344941663e-01 6.319056678235775992e-01
-3.764253194134852820e-01 -2.207924606326640837e-01 -7.026315366640814020e-01
1.418037759550113408e-01 1.666446528484147593e-01 3.300519785946817719e-02
-3.708335921637992416e-01 4.757696585393260680e-01 5.032158854891837230e-01
9.594019866609534430e-01 1.736370175259966675e-01 1.481573792631881159e-01
-2.170773159381883533e-01 -1.581501122918290703e-01 -5.741670859718353004e-01
-9.263719504355630296e-02 1.161009816490768121e-01 -8.399209804866931972e-02
-2.122546347246685172e-01 3.447097710794723158e-01 2.964534658541086998e-01
6.326174589945336990e-01 3.810125899169741204e-01 4.657542733532934465e-01
2.804079032111431169e-01 2.144861347847477062e-01 1.332475642649067482e-01
4.512995070617737969e-01 3.165654743238925373e-01 3.313981310244668577e-01
2.154786129792650440e-01 -1.910889024704642836e-01 -5.766337748031528099e-01
1.377827001932919460e-01 1.155626321532702561e-01 -5.588014671017311336e-02
3.336667142342058384e-02 2.132199066357695627e-01 9.991841721078988103e-02
-6.261774397526611580e-01 1.068953246281222902e-01 -1.671693644346731733e-01
-5.540795885942590981e-01 -1.666258286050740778e-01 -6.313087550663688541e-01
-3.833625162040452672e-01 5.544464451982566988e-01 6.377576951263510541e-01
3.093387317417865545e-01 -2.258579420446205632e-01 -6.249580775432974633e-01
-4.321531841285815301e-02 3.380569171848485377e-01 3.062497942536791529e-01
2.605980292669141662e-01 -4.098020784771321673e-03 -2.474282559047789043e-01
-1.119003828262336853e-01 3.491308794092438106e-01 3.167517462679690921e-01
1.685852130312434916e-01 -3.254691363230807211e-01 -8.150396668851431770e-01
5.218571522838495735e-02 -5.359819037476162840e-02 -3.593393667591418539e-01
2.263143474296419599e-01 2.862244592478055960e-01 2.505459061406047905e-01
2.809613844485989720e-01 3.877842388146579555e-02 -1.706797507890188415e-01
5.668177201738008320e-01 -2.290791408716697508e-01 -5.980771287808943626e-01
2.206303573412920216e-01 -1.030452384413578643e-01 -4.236574883650588430e-01
3.879430643026434700e-01 1.813822966278173521e-01 8.952795152430199910e-02
1.000034098552756157e-01 -9.803005980104774475e-02 -4.301850509662197286e-01
7.361618824825276741e-01 -8.013319331247543975e-02 -3.190363128480350752e-01
-6.540431686089737129e-01 9.146857688538404668e-03 -3.397992088820369072e-01
9.570504809124575907e-01 2.136740518934188704e-01 2.171302335916377446e-01
5.953436131929836783e-01 3.141636532454198383e-01 3.453987653133108737e-01
3.207446217878421324e-01 2.933376949959383695e-01 2.747552253244711640e-01
-8.507936997512431931e-01 1.525357993570815585e-01 -1.165172808269604038e-01
-5.110044659744449325e-01 3.617156107232958884e-01 2.882197301309478155e-01
5.969205702925197699e-01 4.612971329636065265e-01 6.001574944575205350e-01
4.986553188174969176e-01 -2.296871192460409605e-01 -6.077205665342496621e-01
-3.082422250577939726e-01 5.112982429350901858e-01 5.725742876707551332e-01
2.360767805970039879e-01 3.453081311115071550e-01 3.539988143887777272e-01
7.519604030240064629e-01 -2.019711718275664369e-01 -5.278404524700331946e-01
-1.173275705800658764e-01 4.739309065907915675e-01 5.319878721015294243e-01
-1.184742661541790670e-01 3.409965354550759664e-01 3.018496708432529263e-01
-7.710611196599370665e-01 1.833490995965122161e-01 -5.315635957573581344e-02
1.634456435456091150e-01 1.219235568865379010e-01 -4.164022802011460578e-02
-5.122990169739445321e-01 -1.783309812398848060e-01 -6.462939354710874884e-01
-2.285051792229570999e-01 2.439320557448319549e-01 1.200466701038725853e-01
2.265627202056025580e-01 5.134518496503424068e-01 6.437100040724026417e-01
-5.014786966644583233e-01 2.703610432817323828e-01 1.313651852536309728e-01
-1.040764802464023420e-01 -3.213419798119854232e-01 -8.422669015695910533e-01
-7.410958752790759441e-01 -6.360156811188732995e-02 -4.766359925370812212e-01
-2.797585760907983499e-01 -2.678504079107517644e-01 -7.718634779943778224e-01
8.616106241696811496e-01 -5.924346223366912245e-02 -2.670821390555713770e-01
-4.844770350828348504e-01 3.775775914084508744e-01 3.190066698520063193e-01
2.118230605798433752e-01 2.240885317735744620e-01 1.412161504748971619e-01
6.671090211330632513e-01 3.717418880370124690e-01 4.540622617599743283e-01
-1.411589969469191352e-01 3.844070749149949284e-01 3.740962162713650785e-01
-3.537417354462307761e-01 8.787713465120873535e-02 -1.657340296149403536e-01
7.091901300634642080e-01 4.350150397188738693e-02 -1.085319516088386615e-01
-1.128751122957466074e-01 3.695641799918094050e-01 3.519811404642997354e-01
-2.710477985901574849e-01 2.578198605630211970e-01 1.387120686447850526e-01
-4.711042996959689533e-01 2.034647184456653268e-01 1.945443872175737707e-02
8.205522539568523843e-01 2.458164355907679344e-01 2.555357447498587398e-01
-2.110490697625176382e-01 -1.492247357434084709e-01 -5.579651968366046155e-01
3.389610579719031791e-01 8.806128416794449520e-03 -2.152251092740518068e-01
-3.927499433703346976e-01 5.795997809891941799e-01 6.800929793044866445e-01
-3.984560679195898736e-01 3.841245607168352061e-01 3.411763204047560949e-01
6.777287996504876011e-01 3.698593498557681269e-01 4.521438012090597258e-01
-4.359702316898956820e-01 3.391980731481933908e-01 2.587191954015056750e-01
7.637345353930383718e-01 3.619897883712945297e-01 4.493690679460891069e-01
4.502281868708579715e-01 2.979753295442311711e-01 2.990997397683118897e-01
9.015237486053072347e-02 5.041622930336550623e-02 -1.745954374128423914e-01
7.304124171983729374e-02 3.871070060729301376e-01 4.057663992746016191e-01
4.396116927154600229e-01 -6.662194069379825945e-02 -3.330388817021538439e-01
-5.748030227183577034e-01 7.162168083163291689e-05 -3.455126865144904080e-01
-1.257183456252058684e-01 2.867565361930378143e-01 2.070943699072372302e-01
6.415572752392605105e-02 4.648199381972525357e-01 5.390998508470848938e-01
-7.760051490263887297e-01 8.635132109014917456e-02 -2.215982413250830729e-01
4.877619541437945294e-01 2.552969971513758263e-01 2.299916599229348824e-01
-2.647344485245344270e-01 -2.395853389722142970e-02 -3.480052510263806909e-01
1.830969808211253547e-01 5.064599666798985655e-01 6.261344856025985450e-01
-6.222011560936206997e-01 1.308363375602262235e-01 -1.252471215459694809e-01
-2.528143497317206223e-01 4.360937991579115214e-01 4.494472956468222313e-01
-1.802706760522592155e-01 2.270911973250916704e-01 9.698954238302404107e-02
-3.617600718658618431e-01 6.967845969921054872e-02 -1.982307667799649842e-01
1.155445957766303711e-01 2.974227850040898624e-01 2.559584423291626498e-01
1.968411939275656608e-01 9.035116802465024272e-03 -2.327424834703899492e-01
7.126452639863709582e-01 3.035794286405223974e-01 3.418720193664051554e-01
-2.960904210680120330e-01 -2.872888229484267253e-01 -8.075530053779158557e-01
-6.289835293522764992e-02 5.310032317831931969e-01 6.375909325973856401e-01
8.259503429718045853e-01 1.213789974009542166e-01 4.092327703400844285e-02
-1.984984790712487623e-01 4.463811238334319809e-01 4.740919637729164027e-01
5.167587291343309630e-01 3.273382882574130126e-01 3.582873264741344155e-01
-2.966343539156273690e-01 5.528023666092558575e-01 6.458449114700414162e-01
8.327316557693048571e-01 2.544961861895829180e-01 2.720879940182035495e-01
-4.598147756808614872e-01 1.851482440558085973e-01 -1.081243991058195020e-02
-1.882004603275218568e-01 1.416090219990186749e-01 -5.190519623283185169e-02
-4.132883737545993696e-01 -1.786094195367832482e-01 -6.342958345865565839e-01
6.886914552754156739e-03 2.163504946251958994e-01 1.019970882821241154e-01
1.326966977279851467e-01 -2.607590858130126588e-01 -7.076064870685164765e-01
1.185781652133721664e-01 -1.926004147320364290e-01 -5.914627413879924855e-01
-2.959446294707762104e-01 -2.874483768563998454e-01 -8.078106779283578120e-01
2.903597686514489684e-01 1.209462960862019154e-01 -2.733407523752541188e-02
1.586680642103310557e-01 -1.791794289206313229e-01 -5.631895521099753443e-01
-8.725216515920443117e-01 2.264970358611350376e-01 8.706521736600972977e-03
-7.348444281925589072e-01 4.507829425543937729e-01 4.141037453036918725e-01
2.049807147185690737e-01 4.503089654732064240e-01 5.317443305984967949e-01
-4.047869994333451182e-01 1.451420946097382314e-01 -7.309225825175888480e-02
-3.641731725182633661e-01 2.491737265483455199e-01 1.120151137661280910e-01
5.828180804070859367e-01 4.138565942396787989e-01 5.163016691766656452e-01
3.545656348732302288e-01 1.167337338146013787e-01 -2.652949966014138058e-02
3.664469259948170410e-01 4.712584555855292567e-01 5.883417312657835962e-01
-1.821364608153205611e-01 2.620977963601345828e-01 1.573203154714166996e-01
2.234433570805763325e-01 4.434848020563497695e-01 5.222647757115846945e-01
-3.960377913206190037e-01 -1.090360998143865973e-01 -5.117506313436039900e-01
-4.171997793235288077e-01 -3.995455869621443445e-02 -3.948979961632145264e-01
2.467207701417968302e-01 -2.364996396565089420e-01 -6.512622970030129688e-01
-5.134683634498343752e-01 -1.202236826043801693e-01 -5.459081796957552246e-01
5.588703091715893079e-01 1.094773388963656419e-01 -1.333233952507997290e-02
-1.231686166082371914e-01 1.194608989792146220e-01 -8.202735119745262204e-02
3.771405453060835966e-01 -1.958856350933029788e-01 -5.645560016402786374e-01
2.226350482065886927e-01 -7.892594571918415403e-02 -3.816753085509906884e-01
-1.251416007786693707e-01 2.107325448009066404e-01 7.563572229733629693e-02
-6.137948181055155050e-01 5.003245190363959649e-01 5.150748293196147909e-01
-1.648102802313634319e-01 3.040557406035058197e-01 2.320968741315799222e-01
-6.557246991258239288e-02 -2.910304303117149383e-01 -7.849707451984430095e-01
7.237678837677533616e-01 -1.714840010699236195e-01 -4.786472387019984898e-01
9.149038669143433333e-01 1.966804449092028062e-01 1.824167078941199838e-01
-4.103940619861364825e-01 2.261282901584609206e-01 6.631759636646271383e-02
-1.322039138695255134e-01 6.402983306296834709e-02 -1.790691263309003856e-01
-6.177303845077043373e-03 8.629662604718632557e-02 -1.246596195915372768e-01
-5.741343505543576864e-01 2.679714990728086499e-01 1.180730542783617193e-01
-8.303467480920221355e-01 3.413792847482015058e-01 2.127836317991307069e-01
3.240519414926869013e-01 2.507193722779403888e-01 2.014368840391803084e-01
-6.605581651669611976e-01 3.610819715121857398e-01 2.682728979035888806e-01
4.895831908948417022e-01 -1.668220295052303404e-01 -5.000993255965231477e-01
9.168013157845115169e-01 -8.417702452239306243e-02 -3.032638962872147292e-01
-4.354752658556621525e-01 4.009135063019005352e-01 3.655572697294129925e-01
-2.068677967957698594e-01 4.361087835703453264e-01 4.552645718188489399e-01
-8.758004416958745653e-01 1.828634141749526931e-01 -6.719856693866151087e-02
4.078900324125420696e-01 -4.498785128266892530e-02 -2.996074763326032619e-01
-7.837480582143111496e-01 3.964101260402209670e-01 3.138676590228171026e-01
4.635970059461324011e-01 -9.515566242100842453e-02 -3.793826747705753011e-01
-5.736427315658733095e-01 4.745811842339829334e-01 4.755965139970076416e-01
-8.074585773121763232e-02 1.137286435121229004e-02 -2.636864459530638971e-01
6.380590782802889604e-01 2.191586466186611348e-01 1.864118963888257707e-01
-7.914425071241348864e-01 1.701131805648438966e-01 -7.862519234561207715e-02
-2.583186196626277575e-01 1.134650707998609148e-01 -1.094359447775278549e-01
5.689303431906319597e-01 -2.142259852911738705e-01 -5.721129610349990902e-01
4.634917070069692890e-01 -3.305893295203456983e-01 -7.867266595932224105e-01
9.699382445792779917e-02 -2.913667147458796070e-01 -7.650618287601498313e-01
7.873814114780048889e-01 3.355144355728925665e-01 4.065438610630994209e-01
-5.810130114407353608e-01 -1.330926933459694872e-01 -5.766869252234390064e-01
-7.030589854734865529e-01 4.276899922635388762e-01 3.781563612954640385e-01
-4.412926596336525509e-01 3.822654648032914881e-01 3.325604889590230151e-01
-6.172073576570196174e-01 3.643050518199204002e-01 2.793134133999745639e-01
-7.380844336888974233e-01 8.627149147488083480e-02 -2.169566255240544805e-01
-9.171124831018867551e-01 1.311411376238612314e-01 -1.618919913174229619e-01
-2.783213652086217182e-01 5.348695378265089229e-01 6.171270647355129313e-01
-1.846077380614562502e-01 -1.058226714276540997e-01 -4.795412007820732403e-01
5.707521746293152676e-01 2.769782183966317257e-01 2.779635132549889698e-01
9.657880378172357672e-01 1.962749259350682618e-01 1.881288227725333995e-01
5.083937806365161904e-01 -7.629070627297803928e-03 -2.223039168932879617e-01
5.146687267112971531e-01 2.658363626426111237e-01 2.516176008098582884e-01
-2.296729056830622839e-01 2.289642569355808954e-01 9.400325459116758153e-02
-7.350115805044278305e-01 1.364292286799657361e-01 -1.297899300918511079e-01
4.879366674333201481e-01 2.191094918605986097e-01 1.674046144229448807e-01
-5.329330319368080771e-01 3.840339605133074596e-01 3.240693689072319250e-01
-2.720117719849381444e-01 4.125481542922863065e-01 4.062905363236554712e-01
-3.658114192885829619e-01 -8.926340530154982036e-03 -3.347378973663682200e-01
-6.240509927970198101e-01 -1.036458223057143829e-01 -5.311647666604051299e-01
-3.289352926836765501e-01 -1.629542462826187865e-01 -5.965780418365946858e-01
7.922051421475330146e-01 -1.671213445113082230e-01 -4.624730773230449898e-01
-2.769017097249329984e-01 -3.007605972384139181e-01 -8.284422697178051020e-01
-9.212853383803594198e-01 2.602764330663055459e-01 6.100281247619386560e-02
-2.097949455154032028e-01 -2.499427314003509759e-01 -7.320622870112025726e-01
-3.912318616624421708e-01 -4.421883570704964600e-02 -3.990026109292103551e-01
-3.124012398969238657e-01 -1.075840856402987267e-01 -4.986964571417748515e-01
1.070105325743249541e-01 -6.883775138742807831e-02 -3.787953640136060285e-01
4.256854534379853616e-01 1.217764821886607590e-01 -8.840567081796910087e-03
5.446342192648828684e-01 9.993245290918431264e-03 -1.872470895563893012e-01
6.351107435796654599e-01 -2.437216340498283840e-01 -6.148025161230946667e-01
-6.202734995160089637e-01 1.675028994223163037e-01 -6.156625215069010809e-02
4.322714401699639386e-01 1.269240094353532300e-01 8.954544828682561852e-04
-2.518837854679637292e-02 4.825021651512618748e-01 5.584309790726410538e-01
-2.124066698273377740e-01 4.326288088639236307e-01 4.485456158077558153e-01
8.377915605122199239e-01 -8.690800599795078796e-02 -3.179476631093204331e-01
3.651139645248213106e-01 5.115291933679488867e-02 -1.386632274211783422e-01
-5.932072172430065127e-01 4.004185608389517204e-01 3.448195646450665230e-01
-2.362916424769180845e-01 -9.172207503910433102e-02 -4.616598621284010440e-01
-5.324436423694896003e-01 -3.067155186023367425e-02 -3.933631506918307541e-01
-2.101817093233743494e-01 4.256553800932328935e-01 4.367611275938363402e-01
-7.198109690837907193e-01 3.733380782859076485e-01 2.820090059297004070e-01
5.475263917544459513e-01 2.625525612336112591e-01 2.500777566198942869e-01
2.738762025607370809e-01 7.989364318028552292e-02 -1.004381550542687157e-01
3.928689578281004402e-01 -2.824763437147363443e-01 -7.123866396663610656e-01
-2.992473375844945660e-01 8.221971418101513274e-02 -1.686533315254407639e-01
-3.444490915735325953e-01 -2.893877987871262270e-01 -8.172798927145955572e-01
1.991193719987358890e-01 1.443293084355792844e-01 1.621130794014582523e-03
4.453117045333502277e-01 3.283921692161791833e-02 -1.602397471964545350e-01
-4.215645213243371936e-01 -5.469466604506997842e-02 -4.209504450548194887e-01
4.113537753594292967e-01 -1.025201542840970155e-02 -2.390733961868790614e-01
-1.975789824315201670e-01 4.417711010914947556e-01 4.662319261430519224e-01
-5.813405011436331010e-02 1.844373533437063672e-01 3.858763100244982924e-02
5.251186274919404928e-01 -2.144982865035620079e-01 -5.781063421783437795e-01
-6.690745426167064025e-01 -1.589992933250076179e-01 -6.326084459214723621e-01
1.465223430977194707e-01 5.300474443881483255e-01 6.623338100877349532e-01
-9.720358428184773525e-02 3.674472359832452462e-01 3.502938772339980189e-01
7.396216193194068422e-01 -1.275842850841140408e-01 -4.006967585447817615e-01
-3.731571100591389856e-01 3.969766888425832474e-01 3.666009823197584061e-01
5.009144068815892803e-01 -3.130546683184409207e-01 -7.516724676789848791e-01
5.957606671157423817e-01 3.837006459854805374e-01 4.657593295037188441e-01
-2.509754520696388935e-01 1.762017990176151239e-01 3.228644432058530442e-05
-5.958306683908014545e-01 4.067962242391898187e-01 3.555230737592746659e-01
5.210925035464555322e-01 4.068970825393012358e-01 4.964805888512316967e-01
-8.744024658855906740e-01 2.425977389844440335e-01 3.632575381649458951e-02
-4.037651201041446702e-01 -1.843432144367593284e-02 -3.559718238417801106e-01
7.667598439665854193e-02 4.112671232304275504e-02 -1.923661408740247603e-01
8.198349695148798855e-01 -6.163052940170533206e-02 -2.764777028724297314e-01
6.218368130255657045e-01 4.646465153807024517e-01 6.090929370353510564e-01
2.595500233456644601e-01 2.439455694393489749e-01 1.815871590567254279e-01
-8.568177290200425233e-02 2.871813082596803013e-01 2.128757059903151616e-01
-5.118163660385521840e-01 1.579795491379850370e-01 -6.437235886896294779e-02
1.794103454771744932e-01 3.715736473504028248e-01 3.922990136609196266e-01
2.909165165134235953e-01 -2.195178067580889070e-01 -6.163108583077819835e-01
5.946197337231521329e-01 -4.405697602652734746e-02 -2.744605235829363776e-01
3.155202937285010029e-02 2.882670753712983092e-01 2.295310039744532793e-01
-8.594534099709448816e-01 3.563565982644825159e-01 2.350275618910019348e-01
-3.434415922634542206e-01 -4.498161604715399803e-02 -3.942985764710841834e-01
-6.340497820989892119e-01 4.793847485976664990e-01 4.762932717288625994e-01
2.365116762339690981e-01 2.850007211962650167e-01 2.497140072327244942e-01
3.993878397442739980e-01 4.872315829507957718e-01 6.201293590775361908e-01
-1.882574457265346890e-01 2.132316531040931717e-01 7.200404176746418028e-02
-3.992429997039758510e-02 4.651846577623956064e-02 -1.977346379904527385e-01
-7.265461717412643461e-01 -1.422358418276069292e-01 -6.108495393401940365e-01
3.431832259817728659e-01 3.555403047727281329e-01 3.852020727199477745e-01
5.989632378315941086e-01 2.682693631381963817e-01 2.664519410875338390e-01
-5.973277161484191744e-01 1.314259832832447294e-01 -1.210917756901791209e-01
7.591523306632182999e-01 2.242786630467570042e-01 2.105334336721435273e-01
-1.459054639297892586e-01 6.344462750814276741e-02 -1.818086248997797250e-01
-1.137985386479904992e-01 -2.672244637139908341e-01 -7.498620158289660553e-01
-7.543408739269726881e-01 3.569022521645984214e-01 2.492205643878819266e-01
9.114723787023661927e-01 -9.614786878716977125e-02 -3.246466940087204267e-01
-3.577201854396605540e-01 2.413339914456638646e-01 9.926472674607435265e-02
5.552336287942374327e-01 6.556602170756309356e-02 -8.976298777664529216e-02
-5.527509031350694713e-01 2.384911811781736668e-01 6.976357414617853636e-02
-2.555570273604085840e-01 1.667694244292933919e-02 -2.765438465458023853e-01
-1.640493851559191307e-01 1.705352954832538986e-02 -2.643581856377687500e-01
-8.294238436299379291e-01 3.094070333375303905e-01 1.575838270708727618e-01
-1.443669161919391708e-01 1.196038393841461211e-01 -8.445199374395576108e-02
-5.663157544203758498e-01 2.506595618101288836e-01 8.910666041710527119e-02
1.936072620203392047e-01 3.301235180628236954e-01 3.223743816743239732e-01
9.475327179473012895e-02 2.970250208838188799e-01 2.526496083781797908e-01
-2.003874327077572459e-01 1.133680566938433942e-01 -1.023018326636129377e-01
4.650413843736736497e-02 4.118595563724321007e-01 4.452466350653286886e-01
-6.829322200080077954e-01 4.932923362141393153e-01 4.941937921682142409e-01
-5.484858469177864571e-01 -2.111111323757822456e-01 -7.075690222355182080e-01
2.719049382843731766e-01 1.004992272382698587e-01 -6.503629676836736317e-02
9.403736827969962908e-01 3.991674792182210718e-02 -8.559442234809373773e-02
6.940365873421379117e-01 -2.378462105896188283e-02 -2.268556898524157206e-01
-2.686272094553677214e-01 3.279140489300873540e-01 2.602891897563976986e-01
-2.583081216156767890e-01 4.125964328409871817e-01 4.081013464206031949e-01
8.823886985748409240e-01 6.484444230519180452e-02 -4.977502505449817732e-02
1.979679997666079494e-01 2.360343200490150062e-01 1.601375435893709620e-01
5.702334333617791184e-01 -5.302776969937374879e-02 -2.930549383266292107e-01
-2.261647751668357798e-01 1.128277158883392306e-01 -1.064858073765674318e-01
-4.219960675316813403e-01 1.233781887464063115e-01 -1.129157556443027705e-01
-2.438584477028765407e-01 5.801927987211329407e-01 6.998860634141146342e-01
-3.464115804444314883e-01 2.481539966280609799e-01 1.124896158431237525e-01
-2.434832565440835095e-01 1.867805300746249453e-01 1.927921691304059285e-02
8.514246997658310168e-01 8.755132107914703754e-02 -1.439205551509148417e-02
4.763913379755543298e-01 3.744788668706987012e-01 4.347585045270062065e-01
8.334207424247104257e-01 1.538310377729081302e-01 9.801111602461447248e-02
-4.009512386821710295e-01 -5.836422058365732524e-02 -4.247010400397676633e-01
