1.267593910535597113e-01 -6.455779647841801694e-01 -5.571527086300441800e-01
-1.556951221546064579e-01 4.022463644775977620e-01 -4.259307309299583677e-01
2.511930557304772882e-01 5.505952239879094989e-01 3.080428051424391467e-01
1.569425708004987263e-01 -4.919125711965139924e-01 -4.232769925704055192e-01
-3.564419341988466772e-01 5.197857574664643820e-01 -6.818590962240849151e-01
-2.932842115566771657e-01 -1.250948196834275328e-01 -9.398012254761674011e-01
-1.112844736691300136e-02 5.118070509163962223e-01 -1.334974022981290087e-01
-1.312639994944440058e-01 7.462552593377610455e-01 -1.952858992887695211e-01
1.538401473692649901e-01 2.394533273426630859e-01 -2.104140613100300219e-02
3.254577219988816772e-01 -2.022208387050170031e-01 7.786333093277892671e-03
4.596572913913156144e-01 9.922931509873253453e-02 3.904614049690885991e-01
3.858766524959836852e-01 7.123829639467313402e-02 2.567632241381061498e-01
6.768047248184558273e-02 9.212024416838773266e-01 2.206047298880865204e-01
7.217736866551789365e-01 -4.876646477922184086e-01 4.833125684994447613e-01
1.717059293224127703e-01 4.360808645861570243e-01 1.170356948750749526e-01
-3.245447831683000439e-01 4.435326981110442740e-03 -9.177270900299813183e-01
-1.731855251960817410e-01 5.335435424830836659e-01 -3.808284372319672428e-01
2.114604835407519756e-01 -5.868031799380596381e-01 -3.888327780525241972e-01
3.663760275514735265e-01 -5.907433389474583407e-01 -1.430259974727170758e-01
-1.623324713320731527e-01 -1.575641674339099962e-01 -7.482416981254433885e-01
4.289019989620777573e-01 5.681491244056251499e-01 6.023062216420155268e-01
-2.605500968371871617e-01 7.829773232832240581e-02 -7.741552173375496615e-01
2.440608642689776064e-01 6.348447156481306086e-01 3.435325948460050682e-01
-1.195835051270676408e-01 -4.417411753944171515e-01 -8.380269872249144214e-01
-1.888973330649934002e-01 2.494786222410918797e-01 -5.641397559869515410e-01
8.734511400968859862e-02 9.148117230467747163e-01 2.485272211931792430e-01
1.542361461536958800e-01 4.533515779379862498e-01 9.868454768643825092e-02
1.354410556775663965e-01 -4.075192554401636524e-01 -4.107106280768994533e-01
3.788410894491499314e-02 9.114172222582543892e-01 1.674563423586371003e-01
2.896810579845581213e-01 4.152092382484605659e-01 2.942785360504942549e-01
2.085853218945298015e-01 6.189639453387788537e-01 2.778987310807156663e-01
2.659112942378761835e-01 -1.582905026391923931e-01 -6.308103169928647169e-02
-1.656637593261507946e-01 3.455436826476737111e-01 -4.734596009759472479e-01
6.911258816550461814e-01 -1.082849177676297597e-01 6.454762794949492344e-01
1.304358841895628396e-01 -1.665680053284862572e-01 -2.845689935142542981e-01
3.762562416444387714e-01 -2.424390015601706472e-01 6.671620834691427415e-02
3.111753260420017653e-01 -5.915731786469783371e-01 -2.318574923535209609e-01
-8.088692872966758707e-02 5.784849034353540809e-01 -2.080478742856638474e-01
3.385988344058745714e-01 2.578790326977599134e-01 2.849931687518383328e-01
-5.536275677600882572e-02 1.647471254024534260e-01 -3.975433963864264397e-01
-1.654037823430397069e-01 6.776275453380132818e-01 -2.881492642359529399e-01
-8.706826187550957552e-02 2.100587693686737090e-01 -4.230718326695782627e-01
5.305748380550355803e-01 3.199279525228374554e-01 6.268698435614112885e-01
4.299045005553976950e-01 -6.854712399098802367e-01 -9.406640464168633531e-02
-3.450109086433819083e-01 7.008245232577032802e-01 -5.627625923507582062e-01
4.484221140536221450e-01 -8.117728292142156743e-02 2.720304014572368922e-01
6.713056503697502064e-01 -5.855204930710061761e-01 3.480363680182470554e-01
7.560220139605423884e-02 2.751203154796367720e-02 -2.642930744147875544e-01
-3.176049325464863626e-01 2.563575483387148246e-01 -7.663546575030985020e-01
4.987565959987415032e-01 4.241681166932095293e-01 6.339705285431945780e-01
3.601931902225733451e-01 2.044208717101093919e-01 2.897991794372484220e-01
6.295807885079456323e-01 -6.693286045487225611e-01 2.345782524847077333e-01
4.437830760339527836e-01 4.798838792767973760e-01 5.769855863461211820e-01
6.007270652131717348e-02 7.731871488103090329e-01 1.260152501460178043e-01
2.782110400026164831e-01 6.013171388095346348e-01 3.795356535535875375e-01
2.683041628893983455e-01 -1.041042603106035608e-01 -2.908110252021495548e-02
-2.618597138041163785e-01 4.367782329464822699e-01 -5.766607642328049899e-01
1.028999528807816449e-01 -3.464185808801191202e-01 -4.287859027625577357e-01
6.651762600348485321e-01 8.267566142388078909e-02 7.102551735420196133e-01
3.959280805456947272e-01 -1.603591253668212313e-01 1.439079451927564313e-01
2.442994145272419926e-01 7.298248046096627029e-01 3.967964950089540865e-01
1.591668794266438980e-01 1.144875317269396231e-01 -8.209110575322361991e-02
3.166523882919620170e-01 7.271568862120223464e-01 5.111392021192157076e-01
-4.392338987327796401e-02 6.936531952743377749e-01 -8.475165535894810254e-02
1.357065887281600769e-01 7.448028311390211265e-01 2.312921788894004294e-01
4.304452016667261738e-01 5.506582214524111674e-01 5.950382972365116929e-01
1.541672601941879439e-01 -5.268952594420220903e-01 -4.471972117769723032e-01
-2.962301545117819179e-01 7.856372500234314327e-01 -4.374495307612625838e-01
4.084585952860388947e-01 1.717159203144359991e-01 3.488569794638484711e-01
5.975181523424722974e-01 -7.637628724713019235e-01 1.306718407851690522e-01
7.216234023651155738e-01 -1.577811983526147821e-01 6.667410050572272207e-01
1.493589913594696728e-01 6.619956321869362170e-02 -1.246775812387397736e-01
-8.293517965490888877e-02 5.633897691641596289e-02 -5.020417640764540668e-01
1.063931382395215570e-02 1.254059684540897446e-01 -3.137862347153878018e-01
4.415247221552348611e-02 6.905398901316296412e-01 5.451346496520629442e-02
2.136090397338021862e-01 7.271656304751041855e-01 3.461844707594963211e-01
4.021709924195581154e-01 1.199090779801390005e-01 3.099468418517032919e-01
5.112222963678233478e-01 2.803792128602256017e-01 5.738692989093764352e-01
3.304394578991079467e-01 -2.600353347847958463e-01 -1.642787115557266253e-02
2.410440599917728355e-01 4.685889242441060309e-01 2.461369222892558217e-01
-3.028926389430298613e-02 1.476162258000277838e-01 -3.669418105383870921e-01
3.981777358036222431e-02 3.146402445904447620e-01 -1.617152837657684639e-01
2.484848894059484836e-01 -1.128010086657278560e-01 -6.565138090740225973e-02
2.119945416655192316e-01 -4.443480639199681032e-02 -8.600368234229260889e-02
4.226143555761462389e-01 -9.974511632805857508e-02 2.203773840629246472e-01
1.927638800334393887e-01 -4.121482971325983735e-01 -3.215212164811785400e-01
-2.039291336666050891e-01 2.192818295381001870e-01 -6.050164526684378430e-01
-2.854397086063746869e-01 5.468269102997701525e-01 -5.531376662147153844e-01
6.396426725002498648e-01 -7.485809660542275257e-01 2.065607859175070116e-01
-2.091928154590682876e-01 5.149773131711214980e-01 -4.488087448094005283e-01
-2.395219689698451504e-01 5.417336091381866892e-01 -4.824648638775611564e-01
-2.147780572788641484e-01 2.553690507754467487e-01 -6.022919696840832726e-01
-1.459371841202908859e-01 3.301692436542923437e-01 -4.504398224881216994e-01
-2.488065508124851499e-01 -1.346181026644832981e-02 -8.064441681017578967e-01
-6.671261411678498787e-02 -2.175151630766146982e-01 -6.285450678455192230e-01
2.081210874333660199e-01 -4.367116436491918496e-01 -3.106123559267022216e-01
-3.105047071860159158e-01 1.460905736894129170e-01 -8.163813603678247155e-01
6.325062878407744504e-01 -6.195333059435327305e-01 2.669861139425122043e-01
2.806593017009366142e-01 8.092173373602538078e-01 4.992074932710102719e-01
4.357378993586112914e-01 -5.586576365766152685e-01 -1.412191907607503356e-02
-2.977914822441611875e-01 4.402165204080655259e-01 -6.322687282972709877e-01
-1.751391158661709802e-01 -3.178651726420883006e-01 -8.579942457662997901e-01
-2.423569630242611572e-01 4.206110102128481909e-01 -5.544406986033602047e-01
2.330210897442486773e-01 -6.949041077012206857e-01 -4.145042189008978917e-01
1.874970114098017393e-01 -1.672881824109354043e-01 -1.936221901663632006e-01
3.449409082287154676e-02 7.743932691545636349e-01 8.573859500845487647e-02
2.738242491656630029e-01 -3.494681679450182821e-01 -1.568552553279094486e-01
4.615466802227043974e-01 4.914284119586415644e-01 6.118505528512589997e-01
1.384834901501231508e-01 -1.478538693628100864e-01 -2.612663171503112891e-01
2.632151481185912023e-01 3.472555232607648090e-01 2.140753504699137444e-01
8.179040593177626384e-02 -1.891993558295517464e-01 -3.750448052642831320e-01
5.645221804357631878e-01 2.444625215707761923e-01 6.391984757670314821e-01
-2.525202555430193230e-01 -2.669526704581088455e-02 -8.197573323246714061e-01
6.372096487608870374e-01 1.883292624898078027e-01 7.243087993828871696e-01
4.983349528244360727e-01 2.894218719169650705e-02 4.132458112075867995e-01
-1.787040530100902636e-01 2.492882900485883513e-01 -5.479275520850034331e-01
1.400443799031783343e-01 4.518107163217432998e-01 7.510738831443274088e-02
5.463251906442264522e-02 6.654284265895554773e-01 5.730942256166255550e-02
6.833760864277295399e-02 3.274182305027650841e-01 -1.089441788225866264e-01
2.397622336840025403e-01 6.181438645212465888e-01 3.273524977906553390e-01
5.508904009388141398e-01 -7.268987511988380668e-01 7.655141949957806891e-02
2.268619027670038812e-01 -6.467472815932313601e-01 -3.975520630417901935e-01
7.184155071680458082e-01 -3.524726047729980771e-01 5.532073382606074174e-01
-6.615954152343735128e-02 4.643330085072569502e-01 -2.480274434463678734e-01
-1.071445038864571181e-01 7.579010660417222489e-01 -1.501895539375711353e-01
-1.022012981870464993e-01 4.359863418952519831e-01 -3.215083760368405708e-01
1.454390079351249032e-01 7.883912313314939135e-01 2.711412620911738958e-01
-5.831406485178627919e-02 5.654795497878403743e-02 -4.625100653755350733e-01
-1.969572873146350211e-01 -1.458502520318888940e-01 -7.971497769443726122e-01
2.846856666191873164e-01 -3.927985044301682827e-01 -1.635924824366908614e-01
3.117833903653033922e-01 -7.636053342639007591e-01 -3.266663036621978988e-01
5.693945650688360116e-01 -5.215147278836537170e-01 2.205258349007795937e-01
8.217721570062251624e-03 -4.270430750166714917e-01 -6.252496470141152285e-01
-1.640148884450694233e-01 4.974731074798741659e-01 -3.862303029243284169e-01
-8.927877078594137483e-02 5.727325374812294312e-01 -2.246849124581010992e-01
7.236293396225494945e-01 -4.544800011676156104e-01 5.047594354514136628e-01
2.997252212024760776e-01 -5.320440955969434338e-01 -2.170437135814115015e-01
-2.848561066916858731e-01 8.546646209342984024e-01 -3.808087626382216095e-01
3.963138445140627630e-01 -7.340620869843520468e-01 -1.748947706341778541e-01
2.931913058174219766e-01 -7.327244479940762945e-02 2.792633418274376514e-02
2.457015280619577746e-01 5.560619459447763147e-01 3.022952552776301816e-01
-1.127055193271003092e-01 8.236363732771575519e-01 -1.224926386861345806e-01
4.482533142549828820e-01 5.852180632855185083e-01 6.427887369214666524e-01
6.316468352437911715e-01 -1.879388028768046726e-01 5.059088663959893095e-01
6.550919457574425619e-01 4.344065604927015156e-02 6.722665872385384933e-01
2.059311163156353486e-02 1.284296531370807126e-01 -2.961679457680348460e-01
4.625691489269437850e-01 2.594684842416841719e-01 4.843391994299998116e-01
1.338820167392908156e-01 -6.581535923638356378e-01 -5.527519948666305138e-01
6.262567548736203138e-01 9.006097080334747595e-02 6.520617953338696537e-01
-6.007744630521810042e-02 5.520274814776670036e-01 -1.894651620771752865e-01
-1.941861608842689740e-02 8.307629642564166028e-01 3.081597236576306964e-02
4.490799124603871428e-01 -4.201846884603319676e-01 8.433449203381360171e-02
5.898772740026103634e-01 -3.232439680694208783e-02 5.256823334563800465e-01
4.943507086156587182e-01 2.269320283035279606e-01 5.171022239319872371e-01
1.291795493809270653e-02 7.867438376739975814e-01 5.807430097884001136e-02
6.034995433236565177e-01 1.970787490374789341e-01 6.752145551221366837e-01
-2.312706939465978551e-01 3.928185617884177305e-01 -5.521669449786039685e-01
-6.280537491291206600e-03 -5.495492498802390102e-01 -7.166672528796427244e-01
3.442745747059030182e-03 -3.153594214435870846e-01 -5.707117449777440177e-01
-7.028987028359674760e-02 1.123542918320505207e-01 -4.506105792545625488e-01
5.474816778281413887e-01 -1.589678447946916151e-01 3.873010493416293998e-01
3.096417607234308034e-01 4.451804144459455687e-02 1.198436117663909672e-01
5.695778286601466123e-01 -1.511862273904372375e-02 5.027650924497060192e-01
-2.503716025748771723e-01 1.841340038597863715e-01 -6.989343109922439012e-01
5.605463903233617318e-01 2.085846545043355260e-01 6.128580297977607172e-01
5.308276088186785202e-01 1.900580390050235768e-01 5.549668992770031561e-01
5.569611101525517860e-01 -4.893214250620834399e-02 4.637409590754349997e-01
1.687812733420638311e-01 9.021805750958005188e-01 3.718637582593764535e-01
-2.864450764156396545e-01 2.163646126940156345e-01 -7.387384431847540123e-01
2.390116720571090758e-01 -1.455510842073218514e-01 -9.905106620099883574e-02
6.687716299257125963e-01 -6.446179878435090993e-01 3.110760370874026126e-01
8.476850024863352012e-03 -3.189939767942673310e-01 -5.646763787622204323e-01
3.834298014559799073e-02 3.408472184183661269e-01 -1.494850027276662940e-01
3.544319297285690173e-01 -7.289873066935264045e-01 -2.391170306128373724e-01
-8.044859186773681281e-02 4.810596879906241519e-01 -2.615895339593265478e-01
-2.350535604588912253e-01 8.250605412592648680e-01 -3.175637199516898601e-01
6.032449318273819250e-01 -2.211106742043768836e-01 4.419718632283456961e-01
1.006427661494202486e-01 -6.488424851971847929e-01 -6.007797658144815589e-01
4.883626384899862893e-01 4.629566773407992608e-01 6.389273789661510383e-01
4.861200623432867518e-01 -5.429797053790402783e-01 7.526265780839212771e-02
-2.431608495700859907e-01 9.944334171349314064e-03 -7.843742758771909962e-01
6.793274601584382566e-01 -6.097126008221102067e-01 3.474088626775817534e-01
-8.328117946527573145e-02 1.930782114497969770e-01 -4.264634399067050996e-01
4.752057183705051258e-01 2.021060549846728782e-01 4.726311297102303577e-01
5.169445811532832336e-01 4.493254893869583211e-02 4.519404590127866772e-01
2.605848057424065556e-01 3.865495291726109839e-01 2.317422007172236786e-01
-2.199137869340526408e-01 8.051803970222104478e-01 -3.043954801139918120e-01
5.860440184514810191e-01 1.049028848502217282e-01 5.959497241325085737e-01
2.897132243532087384e-02 5.336054119141612206e-01 -5.716599124475352234e-02
3.947015873031748390e-01 4.684754530093776514e-01 4.920603572227256195e-01
5.280737644602541137e-01 3.175797442322130237e-01 6.215585248338798552e-01
3.193934445553172630e-01 3.775972775301344453e-01 3.209031854969555675e-01
-7.971694200921990159e-02 8.537554815376821038e-01 -5.291262558760895934e-02
-2.060313163555712868e-01 7.984588849163068991e-01 -2.859137018699055566e-01
6.085252613023871548e-01 -1.212111131785154478e-01 5.060460372745074764e-01
5.759654536635702149e-01 -5.505121593808298686e-01 2.149001275718167847e-01
-7.060306597372253967e-02 -2.053544646706001453e-01 -6.280024927273080149e-01
3.383387755927855789e-01 -2.098018072913760551e-02 1.293165591165561235e-01
3.362893581997524750e-01 -5.054135188977804116e-01 -1.436819813902119602e-01
-1.537655796777066472e-02 4.602438199280352582e-01 -1.690069308081080801e-01
3.655985104366353822e-01 -3.017794993042535734e-01 1.661552906912061242e-02
2.313703569455532183e-01 4.681072398591580863e-01 2.303823383380764478e-01
5.287862559455865918e-01 -4.447916488110065236e-01 1.982340424750840546e-01
2.144419339513089495e-01 8.757351687221316683e-02 -8.587511264216880075e-03
4.516956032589211634e-01 -5.900274428740446275e-01 -6.041367017415191429e-03
8.286632926122083909e-02 5.319605729456281518e-01 2.819742320157737903e-02
2.508082497520784382e-01 5.137547159529858298e-01 2.869151095895157155e-01
2.246683404172926946e-01 6.227483123509914842e-01 3.057526656294742295e-01
2.161868074159006576e-03 -1.639402949979308632e-01 -4.884567289427771963e-01
6.878788873061998377e-01 -1.052455025360700125e-01 6.419704984316668694e-01
4.716583717867778858e-01 -1.847774513437681898e-02 3.441379499032921618e-01
4.201435687737365421e-01 -1.967093092580711813e-02 2.610048206139539140e-01
4.496348577809975988e-01 5.778937553425164131e-01 6.409224656530286834e-01
2.594552890539562062e-01 -1.013995176252466685e-01 -4.174113216209199978e-02
2.573860299563047183e-01 -4.711479774505719087e-01 -2.509184014111771610e-01
3.478574660519182515e-01 6.764368236020654734e-01 5.328552741867413900e-01
2.574522566372912658e-01 3.083567388660663489e-01 1.831920227761032471e-01
-9.593318858272287253e-02 6.519207555991536340e-01 -1.912482289015613457e-01
3.129148201114428374e-01 2.274156309540552312e-01 2.269151615137151579e-01
5.459941666426944007e-01 3.830311456612731646e-01 6.866882025113011379e-01
5.431900410161986104e-01 3.948561653961655815e-01 6.887829553440620867e-01
-2.371912179199008042e-02 3.896799484528018498e-02 -4.169158438283415702e-01
2.287962825509871068e-01 6.675622250351892495e-01 3.373120051871840164e-01
-2.272086881854919749e-01 5.332822052330615792e-01 -4.674583144387411404e-01
4.723001675910745156e-01 -7.250174098597351735e-01 -4.821430741171642276e-02
-1.859022158440833961e-01 -2.411601450525719392e-01 -8.325176165545451479e-01
-1.674744310769150923e-01 4.307142430256528098e-01 -4.289378963982679593e-01
6.161277716234656587e-01 -2.412392326701480183e-01 4.513887230959499064e-01
-1.161856379077807894e-01 7.866829023237625895e-01 -1.486384394833061562e-01
4.366929023868150184e-01 -3.881999453647176357e-01 8.231255521816656373e-02
-1.855144499557684068e-01 -6.375490363672173255e-02 -7.331230348244593964e-01
4.878905955425056340e-01 -2.597524279099417410e-01 2.357893538543493483e-01
3.022124206107172362e-01 -8.082430265022236271e-02 3.816337460973596996e-02
1.830770874017327576e-01 6.896987312551722260e-02 -6.915667440417010148e-02
2.196215944482888538e-01 -5.210852745563282484e-01 -3.391781320468187921e-01
3.538860345707580679e-01 4.400356647624770190e-01 4.108853228975322125e-01
-2.867469430986653300e-01 7.586273759505408609e-01 -4.373063598259508966e-01
1.826437101481069580e-01 -4.478331575643590412e-01 -3.575905909508539926e-01
5.421740778329554589e-01 -2.281582601747677574e-01 3.402811323698056722e-01
5.490466730911228721e-01 3.242499109840421556e-01 6.588472910731399956e-01
4.310078378014117195e-01 5.475088286150147088e-01 5.941855221086320693e-01
-8.976243510054135455e-02 -3.770574646333799684e-01 -7.542732454594195390e-01
2.209794666901559457e-01 6.443952518217170577e-02 -1.100203308338168831e-02
-3.152487692120518603e-01 2.650892443640511797e-01 -7.577211912160100038e-01
6.064238737889093844e-01 -6.653318487051693708e-01 1.997321803266917106e-01
4.054234434255188368e-01 -2.508374015383343925e-01 1.087333024943970827e-01
5.300317119193115323e-02 7.199320038076557626e-01 8.504696513677768854e-02
4.821850713821453915e-01 -5.537459239922976062e-01 6.296892463010722585e-02
5.662990456730132571e-01 -2.059087542137550408e-01 3.912900537700021997e-01
7.644722008938942270e-02 3.061324055478802375e-01 -1.078129951749244309e-01
-5.312501536191670259e-02 8.224410785479009667e-02 -4.398962091634743832e-01
6.384869157031792808e-01 -2.341662143606028645e-01 4.911209755115992226e-01
2.958941607132895002e-01 3.621775324335953505e-01 2.746985085725818232e-01
-9.497280446805399234e-02 5.276457041221384314e-02 -5.233026262638253989e-01
1.127267206239925823e-01 9.160671523278729467e-01 2.898590048652531226e-01
6.084718747686254092e-01 -7.499649745818028901e-01 1.558896374667391171e-01
4.842361747399732963e-02 4.708596664279900978e-01 -6.096019696500624280e-02
-2.687435127434824045e-01 3.521448192757929974e-01 -6.348021693947226707e-01
8.741099573711023918e-02 4.380591898977483356e-01 -1.680855070592718672e-02
3.583131893661735123e-01 4.427811970439750611e-01 4.195012762043826560e-01
5.726212798503590440e-01 -1.575705354123758672e-01 4.283244082305049938e-01
-2.744472794096738388e-01 1.491069505483950119e-01 -7.569784714848482032e-01
-1.227132375058723190e-01 -2.143380264611801644e-01 -7.164261763263289895e-01
1.585605360124376084e-01 1.070442530193415204e-01 -8.720597634228985373e-02
1.972857968177442745e-01 6.080556754851366152e-01 2.537362038948361986e-01
3.595612239229302454e-02 7.704293523000519395e-01 8.587213815914343518e-02
2.352060111357234529e-01 -3.338444283201390250e-02 -4.269249857814601951e-02
-2.207894434120374061e-01 9.172581174986195185e-01 -2.433958478126306280e-01
9.761126676274804737e-02 -4.075719935487831513e-02 -2.670695163451901610e-01
5.230609489838571324e-01 -8.433601978521043652e-01 -3.284225011192740823e-02
5.484761490502418901e-01 8.197009363918268676e-02 5.230399550081824556e-01
-1.798321964960250263e-01 6.338995681280156225e-01 -3.355937641774686675e-01
4.186366424044642431e-01 -2.068845624387758153e-01 1.543575901373345216e-01
-3.321302390912462266e-01 5.587390009720697437e-01 -6.212511170861072518e-01
-8.057895226912516196e-02 -4.746987981126535305e-01 -7.939353407680345143e-01
1.623713655611624118e-01 -9.285808575760041983e-02 -1.924048246458560651e-01
5.330863870571505014e-01 -2.140656316232065204e-01 3.335792132984113922e-01
6.370893701051817404e-01 -4.016118570287849909e-01 3.956550621180012772e-01
2.441410986705710440e-01 -7.216033996911908055e-01 -4.115678158753532379e-01
-1.784123646247884887e-01 1.356134617960838840e-01 -6.107512655563150927e-01
5.583451888638989447e-01 -4.560301279898659049e-02 4.678102548262946803e-01
1.708967958320721237e-01 -5.790770978235904032e-01 -4.494685564168086067e-01
-2.267002318594771582e-01 -1.806019615330740069e-01 -8.641132259736339361e-01
-1.860278159939592613e-01 -2.948020749106065042e-01 -8.625848739779495844e-01
6.892179708913412917e-01 -7.062072631727765552e-03 6.987797380701922245e-01
7.981913714565920526e-03 -4.745997665781637176e-01 -6.521052585712990846e-01
-1.747582346191045577e-01 6.680675231181404383e-01 -3.084473084270524246e-01
4.931217772059580118e-01 6.197748101674200455e-02 4.232932066844664609e-01
-2.578820620038526495e-02 -1.438140324622425859e-01 -5.219956377015809723e-01
-4.168124921067280220e-02 3.618801094170055743e-02 -4.472187884567231375e-01
-1.847475227774560413e-01 -3.576398385053769502e-01 -8.955214299663688537e-01
-3.230910461311329862e-01 3.208050438866457132e-01 -7.392548478759375374e-01
-4.431912733702183388e-02 -2.147462855312943231e-01 -5.911542510716124577e-01
1.912582656717270457e-01 -6.585496282048509675e-01 -4.611202488681835909e-01
4.225953343546903773e-01 5.959702352827004335e-01 6.076999793784176873e-01
4.640977481680532563e-02 -1.595246138692938964e-01 -4.151628108903537839e-01
5.768242918116524010e-01 2.034285145758426561e-01 6.360461467313193173e-01
5.637545173813791610e-01 -8.069988172043254249e-01 5.254800300327054641e-02
1.385708078183724157e-01 -5.046216817320210435e-01 -4.597639471098682873e-01
-2.748548443821428600e-01 7.169608152744374463e-01 -4.414672547512839551e-01
3.447022514956245010e-01 8.991950667432919986e-02 2.012492502244156989e-01
3.602276975087218558e-01 -3.369532818270423724e-01 -1.156616236689201639e-02
3.292913397559187882e-01 6.627719054008205379e-01 4.955250036299325145e-01
5.536681092562081158e-02 -1.583645141456533623e-01 -4.001778007465068288e-01
2.997719681974981079e-02 2.366711830793591376e-01 -2.208796152847145589e-01
-3.253049636605348516e-01 2.736565027836279085e-01 -7.690499215774305730e-01
5.840771143128663523e-01 -4.118024331958446416e-01 3.051152249678822370e-01
-1.597606129782720361e-02 9.123084022812099070e-01 8.172908268594315795e-02
5.387138566301153952e-01 -9.031927155989316613e-02 4.114862844348373683e-01
-1.912580310710444362e-02 -5.128626574583847741e-01 -7.168049538780169039e-01
6.626628496369378618e-02 -9.980946723196984505e-02 -3.501274362474231516e-01
5.401870210708096254e-01 -6.194063461448697794e-01 1.192651240633202242e-01
3.560920733927313009e-01 -4.528640638199740720e-01 -8.272236385420021765e-02
2.486980126994152718e-01 -5.491727765864380384e-01 -3.082686613539663001e-01
-2.205727927538147226e-01 5.794351635218605301e-01 -4.311385135457679874e-01
4.009261696268592856e-01 -1.440118845937587433e-01 1.610109089680382688e-01
2.215610259793663380e-03 3.683179302535035116e-01 -1.920255809739999930e-01
4.715118929240675882e-01 -6.111098190310333411e-01 1.394402820276694627e-02
6.199057424975412678e-01 -3.092295457468525743e-01 4.195818566653590764e-01
3.233493719238526021e-01 -9.280258872189275920e-02 6.533186418988176647e-02
3.901094825721430626e-01 -4.893580366722530828e-01 -4.858344655025630815e-02
3.706166625422070426e-01 -6.378693625351348206e-01 -1.624755973784272056e-01
4.783215868216246225e-01 6.309104277367476310e-02 4.002199376711556011e-01
9.380101738228684150e-02 -2.909170967391178642e-01 -4.124506379473495410e-01
1.298710569028240225e-01 4.055690188954729769e-01 3.307519810120211623e-02
-2.534356389084702760e-02 -6.103864140861702675e-02 -4.751970125732305483e-01
-4.905341690971897622e-02 2.497826597032070661e-01 -3.400977403575144442e-01
-2.160587504599716380e-01 5.776819447761316617e-01 -4.248882312330611866e-01
-3.043830197626759548e-01 1.589069050062316690e-01 -7.994455577087321574e-01
5.094828161760737162e-01 -5.637457773003865524e-01 1.011016101131643752e-01
2.356600689441569474e-01 1.328470078618710359e-01 5.058698309026558870e-02
-1.090833470390480953e-01 -3.236207324253485562e-01 -7.554516858168872639e-01
2.565198322553315924e-01 3.799296864983891520e-01 2.215489570676459907e-01
-2.826834217140724026e-01 5.807464041409633460e-01 -5.298398557628455352e-01
3.303220075522153021e-01 -2.536938942598628705e-02 1.140389321487889907e-01
4.004895192350266808e-01 2.524130612505686155e-01 3.810291805870192339e-01
1.055505755705017368e-01 1.151200527722993916e-01 -1.675719790504677786e-01
-8.406853739286321292e-02 -3.095830055379278911e-01 -7.075903058576283877e-01
5.429626292469375004e-01 -4.859778008784147452e-01 1.979974642146073160e-01
1.272760497168638483e-01 -6.902084913022373813e-01 -5.811745155007747021e-01
2.123312640526496820e-01 8.348711892887975550e-01 4.041060741765314934e-01
4.542568912186378816e-01 -6.442961592112149694e-01 -3.215622592752991060e-02
4.375633503192000728e-01 -4.391336048536947922e-01 5.534772920843120808e-02
3.834258819630025350e-01 -4.265213457095830968e-02 1.894291336345054477e-01
1.392528611744926481e-01 -6.841030280785860285e-01 -5.586017929112713221e-01
3.433494555342696541e-01 -6.499713220456654339e-02 1.128307418491391184e-01
2.543311740425670542e-01 7.227669456982313001e-01 4.089264955951344982e-01
5.618318383972016328e-01 9.559319808150579592e-03 5.041046485526450294e-01
6.131434982019352831e-02 -1.617779056247496683e-01 -3.925570019014449352e-01
4.499300604014815907e-01 -3.229287164400770349e-01 1.398446262413222674e-01
-1.338201474506337252e-01 1.450592369832375272e-01 -5.341055466305471011e-01
-1.310200680924896166e-01 -4.123370431680284942e-01 -8.399641815606819772e-01
3.514889386134751326e-01 -3.121608930746310739e-01 -1.175218536250418472e-02
8.305666529779258400e-02 8.700719368472300541e-01 2.167522019048725990e-01
3.661208042216442249e-01 5.541988878544766850e-01 4.940342628353334153e-01
-2.675783537388197186e-01 7.597311166732388932e-01 -4.060053004845590174e-01
5.633208118580178975e-02 -2.753032450741847992e-01 -4.637404345771101721e-01
6.895173931763473041e-01 -4.297568325995506089e-01 4.639155516314212857e-01
4.688969470978180953e-01 -2.211049531666299806e-01 2.269006151144225270e-01
1.054299461906113428e-01 -4.408257419086306639e-01 -4.772987198472099513e-01
1.443158892515969682e-01 3.327371350896959901e-01 1.564901312227082869e-02
-6.892404104891869387e-02 5.174203440199388604e-01 -2.228956577466745803e-01
3.716138743599985972e-01 -1.486373937278081536e-01 1.115102236066085745e-01
3.419028417145490439e-01 -8.080574379046062683e-01 -3.031983766119753509e-01
5.824042706235744715e-01 3.459585777888639635e-01 7.243353829216463424e-01
4.288680022655841362e-01 -3.109215638410652294e-01 1.128121033341354107e-01
5.667280210329617846e-02 2.541015807581779584e-01 -1.684385549036056529e-01
3.342086823041193755e-01 5.427271739518894078e-01 4.365598203970246782e-01
2.661816127673808166e-02 6.093673831162687432e-02 -3.241005820969376505e-01
-1.024137755996586130e-02 4.927432264186674682e-01 -1.426914686067507210e-01
6.899979067100507901e-01 -1.915472199186021018e-01 5.973126264896496673e-01
1.885227870924287008e-01 -7.615299087146620849e-01 -5.228356832372188512e-01
-2.359878583678995737e-02 8.846245676639962197e-01 5.411253460964773887e-02
-2.812575903458386373e-01 5.564444639748445942e-01 -5.410878544639667886e-01
-3.054200974405781380e-02 -4.451950543183408326e-01 -6.974056290310567396e-01
8.115877361466238005e-02 -3.834831619893440124e-01 -4.842272558725660980e-01
-1.112989716513243521e-02 -1.478733465670656611e-01 -5.007896079839125880e-01
-2.829491790813095098e-01 8.321397930517149266e-01 -3.902971442136686786e-01
4.535894999607076317e-01 -1.167164389156932353e-01 2.605156284059414462e-01
4.276491056745944652e-01 -4.284717176169358654e-01 4.541246815967869138e-02
-1.592910688835437738e-01 9.522509890363829443e-01 -1.254616287258623064e-01
-3.497644968325433479e-01 3.752549203416263857e-01 -7.516397016281873844e-01
-6.537920043601501419e-02 4.155482144052234927e-01 -2.739400967451643965e-01
-8.084078202406949631e-02 -2.993921642743876399e-01 -6.967491215264852711e-01
4.950451352846538949e-02 5.605941804064664691e-01 -9.268381667366076479e-03
-4.102908811085658608e-02 -3.131827797489624143e-01 -6.406937386439569559e-01
3.874307182469463595e-01 3.250396483212165677e-01 4.005599266388062962e-01
-2.483862024248300882e-01 3.523249855645655959e-01 -6.021123334932025895e-01
-3.515154111354186206e-01 5.575513351874554768e-01 -6.529456253085259565e-01
1.852605546497850253e-01 -6.012190206348970445e-02 -1.375355698280504024e-01
4.567586251731651781e-01 2.224401350345957817e-01 4.544210195351841008e-01
-2.894734538091834342e-01 5.661224476109096848e-01 -5.488520256881982418e-01
3.204175072626121445e-01 2.012375988313272746e-01 2.243509033233087313e-01
6.085927826246375488e-02 3.284285505509214054e-01 -1.203535413972361134e-01
2.301635504009786615e-01 3.484055534158684297e-01 1.618041501900313317e-01
-1.175893736706382364e-01 4.598702621976029636e-01 -3.328449363105580594e-01
-3.014832609099014123e-03 3.945942972914993213e-02 -3.834972330295600695e-01
2.607134085041525884e-01 -2.646755623874595953e-01 -1.306341510421486218e-01
1.912997262006097543e-01 2.779768618218635967e-01 6.037545262487738207e-02
-2.464970250676541130e-01 1.252906053726315361e-01 -7.254937997012764761e-01
-2.966793214129519463e-01 3.882092860239135246e-01 -6.594443356761113817e-01
-7.791705618337645134e-02 -1.717422526206795474e-01 -6.209970299889762124e-01
5.863912581276911062e-01 3.314537719152467754e-01 7.226422219824986115e-01
-1.813172724934422053e-01 8.629963928170837351e-01 -2.104170758288352872e-01
-1.157064517484469451e-01 -2.342128337646867675e-01 -7.162748680963052506e-01
1.716341531234278489e-02 -1.450341820070080029e-02 -3.812392294260472658e-01
-1.558282027084978150e-01 9.709091350890595995e-02 -5.960450055673369718e-01
4.577051243714890250e-01 3.615380657392628511e-02 3.522177126016917681e-01
3.176129124335550502e-01 1.247492790055490103e-01 1.772747365093234884e-01
2.086987083103377660e-01 4.361691210287195752e-01 1.763056768873078883e-01
5.207505728801893330e-01 1.099857916987378725e-01 4.942530364147285082e-01
1.100086476688440507e-01 -1.466224058487353710e-01 -3.061653612645790501e-01
4.256940952021185942e-01 -3.662112765388281788e-01 7.694745010820953912e-02
5.906065631403596694e-02 9.144689355326044433e-01 2.030564646074383972e-01
2.601877438335843951e-01 -3.815346643106376501e-01 -1.965392514804190083e-01
-9.133751807335922790e-02 -2.563822323840968531e-01 -6.896064762806269899e-01
-1.843145435635179519e-01 -1.334120988727905133e-01 -7.699851312603219755e-01
-2.132949734854403256e-01 8.288784715872727915e-01 -2.806052183645056375e-01
1.230657300648670405e-01 -2.897048789176902631e-02 -2.197576020959223775e-01
6.713270255824740906e-02 5.715911454274713588e-01 2.507493305170870740e-02
2.751025572892809579e-01 -4.109186341840850298e-01 -1.890225844331508143e-01
5.106883211781387821e-01 1.793543596850902533e-01 5.167669201527623768e-01
2.417744202616781413e-01 -5.436531037205095673e-01 -3.162792875600121123e-01
-1.465531536074319574e-01 7.586892436146445151e-01 -2.128390731931893154e-01
3.935879652651972371e-01 6.537653343699356689e-01 5.934413299589228474e-01
4.661058602814720231e-02 -6.297382971016781683e-01 -6.766419456491534756e-01
-2.112494480199069991e-01 1.297804134813864974e-01 -6.665670197363419147e-01
3.067133870252313765e-01 -4.633814022928972078e-03 8.778939828141445190e-02
-6.377671532665302179e-02 -1.592867816754923449e-01 -5.914252753722870626e-01
2.016692958523027823e-01 -1.109684710229227322e-01 -1.395770292995034412e-01
-4.786201382338491127e-05 -3.451390491294011320e-01 -5.928801609587247556e-01
1.256008385830222063e-01 -2.993783693625833298e-01 -3.662540527284977587e-01
4.415682736699278466e-01 -7.822980632260966294e-01 -1.293043689687034814e-01
-2.475747707936397091e-01 6.320005250081647263e-01 -4.450985390952984511e-01
4.184878719205180064e-01 -7.374223366701411486e-03 2.652006866078724379e-01
5.069195237083046202e-01 7.695800872362056066e-02 4.537223847368379581e-01
3.155314079376007053e-01 4.381126582311140605e-01 3.484136592111131692e-01
5.067228434073871579e-01 4.978283565401772082e-01 6.877352713987063826e-01
3.377205713709132695e-01 -6.908996098325139723e-01 -2.446637736712541922e-01
-1.198837982114353828e-01 -1.984060343135589377e-01 -7.030261491909761684e-01
-9.156502629033864971e-02 -4.599322947258037697e-01 -8.033011426640092045e-01
-2.303467023260593605e-01 6.172034904401192401e-01 -4.257570783664175185e-01
7.461792722030061165e-02 -3.951970987274431857e-01 -5.012203003608634022e-01
3.325184694360271420e-01 -4.633465623900145380e-01 -1.262971100712231010e-01
3.464837330036876217e-01 -2.581874306368246996e-01 1.028587665148320528e-02
2.246231349905461749e-01 7.828408781547153694e-01 3.948149453865962277e-01
-2.085614837373888086e-01 8.538958411991864894e-01 -2.590985824816688932e-01
3.340518025332990248e-01 -2.664031711584842754e-01 -1.419037284477982219e-02
2.349434954216126498e-02 5.888444189552947128e-01 -3.517855348482618744e-02
-2.379014302732703617e-02 8.778991991129493355e-01 5.006171584568312738e-02
-9.367761795079543319e-02 3.556071005767292847e-01 -3.526157279665763644e-01
7.270840376448991504e-01 -4.437617845671745220e-01 5.162575532480628837e-01
1.912341643195062113e-01 -5.391711408633426128e-02 -1.245179265319783929e-01
-1.033237836637860988e-03 6.375538784005300164e-01 -4.732423539698024650e-02
4.150064883768638802e-01 5.039488452062501622e-01 5.443164820185812935e-01
4.349072562984861168e-02 4.577264472456628042e-01 -7.616931906573909394e-02
-3.686028829903724713e-01 1.580276322404211842e-01 -9.027431328645595388e-01
4.258595666859227302e-02 7.387318511742375637e-01 7.883747929146429911e-02
-1.798057891453679613e-01 -3.385814502268167936e-01 -8.769992001886601773e-01
6.219862772984707799e-01 2.241306072131142579e-01 7.198711674933867544e-01
2.219798414773554163e-01 -8.216159450652409380e-01 -5.027291643016797984e-01
2.700150513325290103e-01 -2.175671376767647214e-01 -8.951484523104891178e-02
3.143923331204435123e-01 1.844406198659173102e-01 2.053533034798261103e-01
6.081102721169626690e-01 -3.815298343306314233e-01 3.604441828403818215e-01
5.589002211475334325e-02 -3.047617862428858015e-01 -4.808497316689286927e-01
1.911739990618798457e-01 -5.132001845661493533e-01 -3.803290210675878136e-01
-2.286671274253076758e-01 5.447948072616922710e-01 -4.633832295074243879e-01
3.038397456550731568e-01 6.055291806885705619e-02 1.194830356905303287e-01
-2.886637048450905185e-01 7.613054565054897527e-01 -4.388837838535745162e-01
-1.959303547864174599e-01 4.984215014013614886e-01 -4.367949629058108241e-01
3.040285458571065011e-02 4.130814814443523053e-01 -1.219783272499819216e-01
-2.349856032990632893e-01 3.804589233958609595e-01 -5.649955222786842146e-01
7.773881717969645389e-02 -4.003796413049698910e-01 -4.991096245688954602e-01
-2.945322302157793448e-01 -9.110155519601761953e-02 -9.228727375132659283e-01
2.106388775818938408e-01 2.163923134752885613e-01 5.704663704487882708e-02
-1.350210809938261480e-01 4.237247413849137834e-01 -3.808756555228994256e-01
-1.413475617968137643e-01 -3.448713471588216867e-02 -6.461219344847762835e-01
1.124252067842191616e-01 -4.365906571641041123e-01 -4.637422109059333719e-01
5.215466107873851787e-01 -4.919391407087212453e-01 1.603939873548029527e-01
-9.520028628928550729e-02 3.289176390293891555e-02 -5.347313677282967692e-01
-1.238555821176593255e-02 -1.618293810990376058e-01 -5.105700588431545395e-01
5.352109332504677575e-01 -7.409256993505451694e-02 4.149130708328496175e-01
6.872187803836891096e-01 -5.567528449655261280e-01 3.895282595651147761e-01
1.115707506956189338e-01 -7.177787525859373741e-01 -6.216670270584513380e-01
6.631995247585955600e-01 -6.951179737086345956e-01 2.740389401482072884e-01
5.968827560596262627e-01 -6.553155791117395434e-01 1.900347889425672843e-01
-2.198362522396467289e-01 9.425522351197841708e-02 -7.000927666327079191e-01
1.229554950330684210e-01 4.777388846109736908e-01 6.218621831013781964e-02
-2.690550095515535922e-01 2.967704359811451642e-01 -6.661316014016004372e-01
3.065034333496497246e-02 -4.260693550329164997e-02 -3.752955127106054056e-01
5.355938565823449293e-01 6.238889066905529968e-02 4.915147897527715748e-01
3.814173117832495019e-01 -8.198757474787217170e-01 -2.465206925307221741e-01
9.604266557686648442e-02 5.004472928624174033e-01 3.174546946912522316e-02
-1.841549878842994870e-01 2.729339440513463555e-01 -5.434886441345849750e-01
5.205612903519253321e-01 -2.733539931361847475e-01 2.805181417034348090e-01
2.982365661634229226e-01 3.600316176937386481e-01 2.772536289540967203e-01
5.320369020824925466e-01 3.538744825378600245e-01 6.481108169041598366e-01
4.779155428435474251e-01 5.048442188724760332e-02 3.925509304684113854e-01
6.780984524883892917e-02 7.952638138416094904e-01 1.506930604604601320e-01
4.898311692600931244e-01 -2.694425051177863351e-01 2.335008324478516362e-01
2.842304310646918686e-01 -7.185204511541861683e-01 -3.456732835096770207e-01
3.919265051005076383e-01 -1.417399200739703491e-01 1.478685245064446374e-01
3.660162624700099010e-01 2.800181280698231245e-01 3.412114367046138463e-01
1.132581406616857689e-01 -2.629441643155472352e-01 -3.657277268593870367e-01
-2.078206802341074078e-01 2.249923880352219241e-01 -6.080668708235371644e-01
-8.598171630756490380e-02 2.293276723894356883e-01 -4.106040718751070573e-01
-2.994168922154366030e-01 7.404534369830205742e-01 -4.677080681666943573e-01
-3.152157034060936169e-01 4.618708774294098540e-01 -6.481062575471718823e-01
1.943278737469370798e-01 5.258148663198646267e-01 2.032117673522352286e-01
-1.954571666659946083e-01 4.115768018962394081e-01 -4.843899221215955953e-01
4.829806058812475267e-01 4.985495980589631504e-01 6.501284638689537321e-01
-2.685618232775563996e-01 3.432370648350597242e-01 -6.394708725727168419e-01
4.108154760310024911e-01 -1.299800317563444552e-01 1.846549667965489416e-01
3.300496345889941674e-01 -6.254978734819235386e-01 -2.205303024446520488e-01
2.725338690845128253e-01 7.073309149819042574e-01 4.294724388641522617e-01
-1.669099685478125372e-01 7.056019016783243725e-01 -2.749852145530017888e-01
3.242048899566947195e-01 -4.924321323103125203e-01 -1.558000744598229403e-01
2.908159827542027287e-01 -4.363145790762090193e-01 -1.780070283401697928e-01
-1.436670284134698716e-01 8.258900826165664621e-02 -5.846506939587600149e-01
-1.621754658716614839e-01 8.746593219092219096e-01 -1.732798589404955791e-01
4.368788790733137417e-01 1.401242829326557193e-01 3.767650649186273792e-01
1.527339475904052890e-01 -6.960855434196937530e-01 -5.436917466663834242e-01
2.797137731201460031e-01 -7.312319636579913684e-01 -3.599812734553912152e-01
4.335106675598050519e-01 -8.835988201500072359e-01 -1.986047609386731305e-01
-8.704464736225465959e-02 9.140189554276696438e-01 -3.109051099017610606e-02
3.772109004227384155e-01 2.687219081403409704e-01 3.528432713181792191e-01
-3.497313120945473863e-01 5.463833025513331609e-01 -6.563075236479676278e-01
5.735748798040969376e-01 -4.347080003858306424e-02 4.933782489291149154e-01
-1.713546431196274686e-02 4.695872560710342425e-01 -1.666205816566248277e-01
4.061799452333360316e-02 3.564659507438841524e-01 -1.371469545027498571e-01
-2.662725806319391278e-02 -1.748065834210821567e-01 -5.405945607044033707e-01
-2.169753732007542457e-01 3.688046841133545972e-01 -5.426521055798582127e-01
-9.641628117468252490e-02 5.049368088767155482e-01 -2.738577696656001037e-01
-2.093814733850566934e-01 6.157615532846484330e-01 -3.929971778970846041e-01
6.407363490146171792e-01 -7.455164981953127379e-01 2.100178281990875695e-01
-3.600685907464988844e-01 3.856088580872866212e-01 -7.623705197912946652e-01
6.125153821707098878e-01 -5.697700714603733951e-01 2.626898055876263904e-01
5.247780574109641716e-01 2.247780460346477660e-01 5.646133578444003653e-01
-4.607706714521026675e-02 -4.253768329046831442e-01 -7.112411459839911299e-01
-1.452493728917503835e-01 1.004593884956773986e-01 -5.772341493175348059e-01
-3.108159372596089876e-01 7.024636628626022006e-01 -5.071080683912371212e-01
1.911710030303197250e-01 7.406551984448273007e-01 3.177745406784547311e-01
1.270262322660878629e-01 -6.907436408883049772e-01 -5.818723971392247840e-01
6.368884920447505094e-01 -6.358727264870979168e-01 2.649041884614813380e-01
2.108846664296532558e-01 -4.989948843268531276e-01 -3.408656142378641563e-01
-2.697439551831996019e-01 2.219550522693424510e-01 -7.088894369775917692e-01
6.185110046624178182e-01 -4.277254496871596978e-01 3.513741567155559964e-01
1.392397062009075037e-02 8.275061271721919631e-01 8.238000415860009806e-02
6.769576885273184685e-02 -5.164301960937097702e-01 -5.798006995558414589e-01
5.419103310569257648e-01 -4.854332550629824050e-01 1.966160520081959295e-01
-2.625868984843188758e-01 7.901622762915677667e-01 -3.810714610491029442e-01
-4.027214169156766860e-02 7.559651991483350431e-01 -4.421304118535743927e-02
6.650395579853998207e-01 -1.492757226289433692e-01 5.808928885997418634e-01
-9.294012968680191722e-02 1.411780583811357848e-01 -4.708226383747751154e-01
2.693807786296928408e-01 6.008329005363046704e-01 3.651298930130916776e-01
4.808476720069715937e-01 -2.752397318549902952e-02 3.538122146470757956e-01
1.954088486837445848e-01 -7.799222055060979486e-02 -1.312390590054333950e-01
4.080930415373710818e-01 5.682347322635358244e-01 5.690413297546360605e-01
3.364748774706889378e-01 -2.280141854673363999e-01 1.106248313174081239e-02
2.705514780681609333e-01 1.879027945831102109e-01 1.370971739941377887e-01
5.943942133730880650e-01 -3.198747800823834031e-01 3.728141267036612083e-01
3.209802927619307411e-01 -5.741102137354983093e-01 -2.064381135376925358e-01
-1.137214178870189774e-01 -1.033802008893374147e-01 -6.402534638946275614e-01
1.399399092326177041e-01 2.441804709445250798e-01 -4.066203146132818524e-02
-1.305158934091989464e-01 -4.529155517993858071e-01 -8.617499340074608050e-01
4.208146055390289964e-01 6.286436953095955738e-02 3.080322000339434374e-01
2.858641634260390418e-01 -9.444438787538962377e-01 1.064724128887112459e-01
-6.191858222293908920e-01 -2.284201101446416693e-01 -7.385326299280917661e-01
2.313105538872876066e-01 4.317369449349378052e-01 8.583063515106472696e-01
-2.989228953769925146e-01 9.148047777122408908e-01 -1.201047879365498700e-01
-4.681512029538013042e-01 7.677902882848226529e-01 -3.523671657448370076e-01
-5.496941862220742214e-01 -6.422523907948862743e-02 -7.989645889592589256e-01
-6.453854079764160812e-01 1.831603349947182879e-01 -7.067678074355183693e-01
-4.122880786916192641e-01 5.258674141750906417e-01 -7.205517024581108432e-01
-6.940608698692248835e-01 2.971794260537949928e-01 -6.255300481436738558e-01
-6.516865870382031467e-01 2.997858466285489576e-01 -6.578540458879867936e-01
-2.481217539291128704e-01 9.235261819214293233e-01 1.556267580420012953e-01
-5.983744252531169039e-01 6.783488998625515354e-01 -3.565544111020311768e-01
-1.324190628256774471e-01 -6.268668924603721937e-01 -7.450697039233643570e-01
3.997035353250778522e-01 -8.629351116776521335e-01 2.800845106391452455e-01
-4.006326571011905591e-01 7.123098782348967761e-01 -5.350605403641914837e-01
1.943545244612030209e-01 4.310320774152872070e-01 8.739651142320665755e-01
-2.731332530394776914e-02 -8.010070755547443744e-01 -5.678270621048899791e-01
6.286666364966780884e-01 -7.040718463653244941e-01 3.311235103736264729e-01
3.522412419682700579e-01 -9.092028517553333300e-01 1.762592504107043379e-01
-1.336656276859275738e-02 -6.867912509908878915e-01 -7.163351802427641024e-01
5.502312479273516743e-01 1.475818081091044287e-01 8.068552861662249276e-01
-2.602827230789876989e-01 -5.591707759667275957e-01 -7.574419801405316566e-01
-4.416345942891693466e-01 7.358176985103088708e-01 -4.493609517166176626e-01
5.394384477340228301e-01 -3.274714018728845932e-01 7.617923702720358348e-01
3.679073536673807543e-01 -9.118195651107762201e-01 -1.466668698897884426e-01
-5.706185247130021176e-01 6.714941044088801325e-01 -4.010692248588279551e-01
6.066991137450571392e-01 -1.528337111242893120e-01 7.661831650476496058e-01
-3.813430293669444748e-01 -7.654229127229431051e-02 -8.981266188031807873e-01
-2.159068391235869355e-01 9.479207282752297736e-01 -1.117343026662852290e-01
-4.308616766305797818e-01 6.758957788910883169e-01 -5.519943818426402693e-01
-2.193960901324576718e-01 -8.183920357852343397e-01 -5.154076834258606299e-01
2.255499419819558538e-01 -9.183696634976163953e-01 -2.865783646789480943e-01
-5.888493694298058134e-01 -2.598694911454503265e-01 -7.483130253833796264e-01
-2.362839085474733036e-01 9.420291187383038611e-01 -5.498798931373771043e-02
3.749025250988439195e-01 3.370519129817847737e-02 9.232989578987442769e-01
4.477073232465181851e-01 -4.221932977511440033e-01 7.895867214342530138e-01
6.874545575128608865e-01 -3.861367705680576051e-02 7.287048748919536800e-01
2.639594191957854163e-01 3.759126410430344012e-01 8.756121519274536746e-01
-7.869755164737918252e-02 8.175990750985079325e-01 5.313582843195671090e-01
4.067488545576803394e-01 -7.906521718475784111e-01 4.519389982449215637e-01
3.085211236041019989e-01 5.461182243517549439e-01 7.521374112153573765e-01
5.204785904374628069e-01 -6.187714242899536865e-01 5.724171085122478075e-01
-3.329216109968162751e-01 -1.622517230772382579e-01 -9.102122241060588426e-01
2.466332549492737114e-01 2.910253049683694804e-01 9.237748389123097148e-01
2.954754485529105801e-01 -8.801959675300733421e-01 -3.772157250894082048e-01
3.777962547176615393e-01 6.272351529811505400e-02 9.181964067664580842e-01
4.929793944963069552e-01 -8.707151010490995491e-01 8.600474413373818561e-04
-4.877030805314449546e-01 -1.825797436577788757e-01 -8.206863237290786817e-01
-3.797464233252345056e-01 8.822045999928523896e-01 -1.092401129911589608e-01
-4.133112011066200631e-01 -5.446651420208824257e-02 -8.816400431619367817e-01
6.100337593516657053e-01 -7.897605029621949102e-01 1.487816619983888256e-01
-2.742923872755338999e-01 -7.780507659521483932e-01 -5.527680463691611035e-01
4.531957526477145559e-02 8.230192409116856567e-01 5.181135979285185211e-01
1.257371830006619728e-01 -9.594638855176250702e-01 -2.003352213949837757e-01
4.339709855742317213e-02 -7.648561578649695214e-01 -6.285427464610215953e-01
7.141874606232830880e-01 -5.050102764614575745e-01 4.984002675106961600e-01
5.503985320077477983e-01 -4.312046515158522442e-01 7.001275902295657216e-01
3.844504472645708937e-01 -9.006514732554665725e-01 1.385401133684862340e-01
-7.039851853576571672e-02 7.383393884131764784e-01 6.576939758195714525e-01
-5.913427012211739386e-01 1.332124623187139201e-01 -7.573552910211084344e-01
-4.826295205498056795e-01 -5.176171317260928051e-01 -6.960549011494634453e-01
-2.948444905884257672e-01 9.190058553861902846e-01 7.567448169886627218e-02
