4.879539512719562322e-01 -8.477079461850410558e-02 -3.308085128651316875e-02
-4.616471403910128446e-01 -6.679850980973861541e-01 3.548833790727497495e-01
1.339753735808025259e-01 2.031520090850070237e-01 2.907031997198731288e-01
7.177689148827605115e-01 -2.659934970545835276e-01 -2.412692079822979785e-01
1.939701106708082712e-01 -3.780290657774254548e-01 4.706858607134530026e-02
3.107688872815980163e-01 7.762472930083921252e-01 3.831681795425402881e-01
-1.317247845723697464e-01 4.753995397772502463e-01 5.536399036517832828e-01
8.482883815343247313e-01 -2.357015828710464778e-01 -3.122747448543550797e-01
1.950585956670716770e-01 3.187418335877582609e-01 2.934288662270587156e-01
-3.834611528024347571e-01 -4.166825680904465701e-01 3.950147236530903716e-01
1.343031043208690045e-01 -9.469515169569499013e-01 -1.172743804161411607e-01
-2.141144413318256945e-01 -8.306031495651461372e-02 4.072378970013195709e-01
-4.445312456014558489e-01 -8.854302305935306261e-02 5.496062835523113366e-01
2.094960065487257439e-01 -6.656898172835111482e-02 1.477735819110321258e-01
3.785822283087240114e-01 -1.869886408705892511e-01 -8.218868488959185908e-04
-3.833588725507618977e-01 -7.475236682744013095e-02 5.161829431982642991e-01
9.483649248091334527e-02 5.268356029791209094e-01 4.299791579360722760e-01
9.353350664571875583e-01 6.255054469515819449e-02 -2.610468346433030828e-01
-4.260552569129110734e-01 -1.475382195620953685e-01 5.171176846817893136e-01
2.804741290972757040e-01 -6.095878005947484857e-01 -8.920950216024869928e-02
3.827751427359005199e-01 -8.434279673831100999e-01 -2.361902907033034404e-01
-1.326685263000626502e-01 1.508410945617359444e-01 4.391579027919391143e-01
1.026036086456818541e-01 -8.738313314701348644e-02 2.073416212532317449e-01
1.599505051252757826e-01 -8.421254591082532048e-01 -9.617123546362689457e-02
5.558853935690484249e-01 -4.363241264018161147e-01 -2.002711628958480927e-01
8.321631286552103046e-02 -8.801710744829964739e-01 -6.160103714559295174e-02
-5.427504292374648598e-01 -5.035634574305414279e-01 4.639752990953000533e-01
7.921542140468781357e-01 4.403122371897710829e-01 -3.743483708478114597e-02
5.911791574771637636e-01 -2.239819446253647761e-02 -7.561743211877813842e-02
7.312990393286952218e-01 -2.464156025569483321e-02 -1.641712744291842219e-01
3.937123583302051810e-01 -6.329235785808546844e-01 -1.684054746700320015e-01
5.935458559783991089e-02 -9.542723957314470651e-01 -7.292902832742777230e-02
-4.384379273963849855e-01 -7.503246940547794175e-01 3.111534955446410011e-01
-1.764411250949465271e-01 4.329851538502966779e-01 5.666080492026716042e-01
-2.949809625485348419e-01 -2.555815541626775267e-01 3.967175167807286407e-01
-2.855116783863195229e-01 -3.256360409383377563e-01 3.659488036350401763e-01
-6.346475639956923320e-01 -3.639124208263642135e-01 5.710450255229039263e-01
1.251486925459452670e-01 5.522801071026925968e-01 4.200157487329750361e-01
3.050569100783645515e-01 -8.178045094362144107e-01 -1.784297359344317324e-01
4.385736989737928360e-01 2.225090805211105693e-01 1.067933948644540221e-01
-2.965521502431094913e-01 -2.111487268040606810e-02 4.808323637435989450e-01
2.347138184297753172e-01 -1.154814535751895882e-01 1.146373706379842788e-01
3.879954531285160959e-03 4.487288995339691611e-01 4.592531830592846975e-01
5.096149537438244420e-02 -1.986309694176715546e-01 2.002423597450549708e-01
-2.360576109160904268e-01 3.223407843876949785e-01 5.647171759182378903e-01
-2.550554229470124445e-01 -6.678410800333807462e-02 4.386504070013798051e-01
8.092384175429237492e-02 -3.114387801054485649e-01 1.414803347752947582e-01
5.656346492016118832e-01 -2.675901671993700104e-01 -1.465521348448358963e-01
4.880938932949770992e-01 -1.749342578264454218e-01 -6.513619834912652562e-02
-9.885713049251190765e-02 -1.978492124344334302e-01 2.943524028224363542e-01
-2.533945622825537480e-01 2.380932128421351379e-01 5.457052733313921822e-01
-1.717241815548073425e-01 -2.671987691874737059e-01 3.154016756547108336e-01
-5.019143657268319014e-01 2.159841770007966955e-01 6.935168356043290849e-01
6.009510286053708628e-01 6.418899407010790759e-01 1.537875064729990193e-01
9.317876935939045646e-01 -1.086832595243695104e-01 -3.195364892809174351e-01
1.583610440943844233e-01 2.939421897559564654e-03 2.044443011614910100e-01
3.174099411058340925e-01 1.767721602384106361e-01 1.664632911941753279e-01
4.906717573253355780e-01 -6.795934018361826645e-01 -2.456790056963948643e-01
8.380866798627016889e-01 1.228401351554148091e-01 -1.787633825209116456e-01
6.762938634158749407e-01 2.655886931792971750e-01 -2.681907320491713417e-02
4.716551825832228095e-01 -2.063383144322633311e-01 -6.597486653263341660e-02
5.765649955778066049e-01 6.758620978563677495e-01 1.811056374979099770e-01
6.361067199157046659e-01 1.274215547794262660e-01 -5.063700564568009849e-02
3.425899027961996045e-03 -8.142195625673265269e-01 1.175576566697875656e-02
6.081692301863791394e-01 1.376431962313215060e-02 -7.343696335731818292e-02
-1.428740696501655527e-01 4.406910998917128452e-01 5.483168384803267514e-01
-2.418259364492268693e-01 -6.479279392698467088e-01 2.243185314861519397e-01
7.647855142014897689e-01 -4.927737160151053897e-01 -3.511217041220181523e-01
2.086703571403263069e-01 6.830235270070099673e-01 4.140607477660563362e-01
5.433542204435399814e-01 2.932695893497983541e-01 6.625666061843733801e-02
1.476726542045722623e-01 -2.600975486965376171e-01 1.178780740474024979e-01
-5.921266891998124837e-01 1.549767234850766839e-01 7.283873372905785848e-01
2.982586810874112149e-01 -7.741931940902532228e-01 -1.587094287649546687e-01
7.750069413078810587e-01 3.412484789495919268e-01 -6.181865635785815938e-02
5.585342548162821608e-01 -6.256664957974286123e-01 -2.690620203043510017e-01
5.230619218689688266e-01 -2.681657850021947898e-01 -1.200925066558575921e-01
-1.152941368729299698e-01 -1.185806860255124995e-01 3.327519311638786892e-01
-4.500219053069383704e-03 7.164625963210395909e-01 5.594274747546953419e-01
-5.719962068653317022e-01 -1.644613202129405205e-02 6.550009819779454290e-01
1.650824740726993534e-01 -2.976230411839183021e-01 9.366936881485643518e-02
3.455909423200780872e-01 -8.094783256201174559e-01 -2.008645253056887403e-01
1.797038668280414586e-01 5.817963451483239012e-01 3.963123722244766278e-01
3.216898744912826680e-01 2.293716531915548085e-01 1.824320197469972149e-01
-4.839090718621095188e-01 5.413827016324133934e-02 6.248570396731940590e-01
1.208460285172326953e-01 6.074972754165691713e-01 4.422879457800797387e-01
3.783403327017847984e-01 3.917148726078887311e-01 2.045105123309607642e-01
-6.355615371960032789e-01 -9.707530912803810641e-02 6.662252763064991923e-01
3.106332612142524985e-01 -5.412255612597156595e-01 -8.386044418906023201e-02
8.989037756838789139e-01 -1.402585957138902661e-01 -3.101360911760829286e-01
-4.450414779803110732e-01 -1.649089002180292030e-01 5.228501185614533586e-01
8.675168455808011103e-01 -4.970721952900664792e-02 -2.583729146175315905e-01
-2.696166108380418924e-01 5.550122545922133582e-02 4.911268173101729362e-01
5.167572519216480087e-01 2.150833998139610459e-01 5.519347664439101103e-02
-3.404722479833741655e-01 -2.757730954172431526e-01 4.180501876499729819e-01
4.813048174098890075e-01 5.037554128930016306e-01 1.797471265728438905e-01
7.470911545430208855e-02 -9.043046185424263861e-01 -6.482950968663171720e-02
3.520042331918588063e-01 -8.568374256911620579e-01 -2.216725291922621577e-01
-4.705722293126157751e-01 -5.826890821805007503e-01 3.907151828476647659e-01
2.190568964835130639e-01 -2.801230882121625854e-01 6.606931646878833053e-02
1.404950572813008502e-01 2.329005321308374732e-01 2.971672775175153713e-01
-6.710711400626265810e-01 -5.285493847484912244e-02 7.041437396361797108e-01
3.070324391474495984e-01 1.473144691557183306e-01 1.625185179200996366e-01
8.537034226326314923e-02 -4.084103677023349088e-01 1.043139091245916944e-01
4.408067041620705728e-01 -1.780349102433511632e-01 -3.661911453625272400e-02
5.804391222733882305e-01 -4.015386222163812580e-01 -2.033161083652178236e-01
-4.842659083688061195e-02 -2.037988787826856274e-01 2.606577928456751958e-01
-1.047717611019685496e-01 -8.857695353219757761e-01 5.415278066685134256e-02
6.993455066871965276e-01 4.929737595350860979e-01 3.936344835587298613e-02
2.619422678553719012e-03 6.470816774508317826e-01 5.303691809425693515e-01
4.053063936773907971e-01 4.772395843392068238e-01 2.179444230095723134e-01
1.024077455391676633e-01 4.217786586951409733e-01 3.879889841314430599e-01
2.863233770408277756e-01 1.634947624345301498e-01 1.812255726247803400e-01
-4.498603158974531779e-01 -7.086453982338056790e-01 3.330849562369743166e-01
2.433223759349580351e-01 -1.862380181842735738e-01 8.415881540961774043e-02
7.420281637630917748e-01 8.977564514730546064e-02 -6.392872826618892779e-01
-8.775628333353825417e-01 2.447456197935153621e-01 3.508537379206958517e-01
-7.814208920642479184e-01 -5.920950737508563488e-01 4.380990141764291163e-02
-2.323884325635273695e-01 -9.157207906582245371e-01 -2.354330525973741817e-01
-6.894571854691701196e-01 -7.009559986839672963e-01 -5.645043438184046969e-02
2.284616117562553728e-01 9.397211028153354961e-01 -4.018801912965737355e-02
-8.214180385166769405e-01 -9.826689221442762301e-02 4.715085198539901712e-01
3.561873786991571200e-01 8.876826282130269030e-01 -4.211310610253391623e-02
-3.023366578833408536e-01 -9.068485080610104720e-01 -1.772392329743060491e-01
6.963454405725550966e-01 -2.551338282157014636e-01 -6.366275485617578500e-01
9.025078571896330004e-01 -2.058524613367397615e-01 -3.679526900642235421e-01
-3.426680985752583730e-01 7.400185929149299957e-01 4.758532307502223446e-01
6.191618042540127931e-01 -4.810666292425525570e-01 -5.801786117062086578e-01
-9.324426594886965625e-02 9.026145327288194187e-01 2.775347524726709536e-01
-7.947203792110038023e-01 -2.422359990424273191e-01 4.719010980175562531e-01
-7.605700384219235000e-01 8.632070027409361607e-03 5.748846478264824089e-01
6.608984900618772862e-01 -2.023883212474500148e-01 -7.082554541726659991e-01
7.196019068363678217e-01 -5.326940154947751305e-01 -4.242362218007335040e-01
8.933524485599313447e-01 3.402810601070022090e-01 -2.161459642301999662e-01
-2.496491292753371116e-01 -9.130631726495215261e-01 -2.277733336404975939e-01
1.405294130365547511e-01 -7.876845609009153204e-01 -5.870678969201441610e-01
-1.436871905193421450e-01 -9.313479856862910689e-01 -2.438245674843841637e-01
6.387579656551101159e-01 -2.613696881826965690e-01 -7.087857890086692869e-01
-6.534758731635097462e-01 -7.272502433202543415e-01 -4.290186392073333521e-02
8.455077057742822755e-02 -8.327453190344205058e-01 -5.209925665520578342e-01
7.335431254837329051e-01 4.044774397926713116e-01 -4.995290202747793007e-01
-5.685800578537225647e-01 4.599999221647009251e-01 6.027893934812951215e-01
-6.614482720489919254e-01 1.012189895080736202e-01 7.029624911495010453e-01
-2.136340483181017047e-01 8.254271458181612342e-01 4.066350228359829622e-01
-8.265846024455567598e-01 1.692464766761019868e-01 4.468900304676269308e-01
-6.895882324057251989e-01 -9.908255946164955252e-02 6.898833244646355167e-01
4.648534904108819754e-02 -8.856299374966611904e-01 -4.096553471608399000e-01
-7.049919752049794708e-01 -3.318643289803582808e-01 5.939721010327065898e-01
8.939025411746798211e-01 4.040912973251429285e-01 -1.296132916307301264e-01
-7.646760717086167336e-01 8.894567502181238705e-02 5.568179535330445296e-01
6.541466496234542571e-01 -3.864942354407148728e-01 -6.125751730833093323e-01
3.359784139468731112e-01 8.606499970432961444e-01 2.507612025046898618e-01
8.093520284250499408e-01 4.722891711808527293e-01 -2.311978361780164248e-01
-8.738181659831396608e-01 -4.272258840213711828e-01 1.354540451726466421e-01
-3.029302944871704595e-01 8.534285823844673935e-01 3.072116649733373506e-01
-1.326584292060959125e-01 7.945140996117263654e-01 5.065145840855106441e-01
-1.576517446700129443e-01 9.537654789559207869e-01 1.369123900417091866e-01
-4.699668284822997033e-01 7.250519049039740871e-01 4.000911324230158050e-01
-9.286394826896713361e-01 -4.949408642778953260e-02 2.980080586104190132e-01
6.622261747656312814e-01 -5.357745269315202785e-01 -4.850188344738373125e-01
3.947671831058813946e-02 -9.434548862345883968e-01 -2.560754213855875872e-01
-4.748767945762195630e-01 -8.371934382806101027e-01 1.535712316000102384e-01
7.985764500273161148e-02 -9.686268444656483956e-01 -1.849400900413954996e-01
-7.577232542495715428e-01 6.261547612863304496e-03 5.794928296769243925e-01
-5.824719690861298593e-01 5.232827496607289630e-01 5.294194192593595361e-01
-2.552799801400413848e-01 6.990210204096312108e-01 6.021609248331459829e-01
-3.667868064101996173e-01 -8.548344573457186124e-01 -3.722305031186356472e-01
4.847264163841778495e-01 8.062483416124103242e-01 -2.494568428453131370e-01
-2.584013939952407579e-01 7.620600912619307499e-01 4.968660419957660612e-01
9.724705378159417823e-02 -8.359180373939962827e-01 -5.093517455947534911e-01
-4.905416132997468259e-01 4.035426092274913557e-01 7.381527035473784970e-01
-2.075091473951898025e-01 8.141116595742594608e-01 4.316036709254780224e-01
-6.141909887371702625e-01 -7.079805120324461631e-01 2.388893212573149349e-01
-6.626361796291204698e-01 2.714809735798983659e-01 6.267358632968522691e-01
3.169399787897959619e-01 -8.320281736249934834e-01 -4.068573215061811466e-01
-8.353907279179008105e-01 -3.561136544616128607e-01 3.097021994433412639e-01
-3.742586897150836367e-01 5.878204907436986870e-01 6.616534913503954174e-01
8.965756380787270885e-01 3.397265879366184183e-01 -2.095455162179911401e-01
1.496106800338388720e-01 -9.225375289565520553e-01 -2.972025786543517900e-01
-8.742311790561777540e-01 -1.847671196016142381e-01 3.508359320148073390e-01
-9.088580185426525793e-01 -3.224670622311236468e-01 1.845548669169630174e-01
-5.175265119029301975e-01 -8.063398285098338780e-01 1.561137784979786947e-01
8.079388279263478578e-01 5.513980795061708129e-01 -5.992298055595268735e-02
6.338546906697898331e-01 -4.905542971721956191e-01 -5.557241859814199270e-01
6.172851546562343472e-01 7.409825462552055431e-01 7.408778695974403694e-02
7.083236864924244980e-01 -1.626273306424479148e-02 -6.923087986197768995e-01
-4.635778413684416011e-02 -8.643602293551385651e-01 -4.774335587219895038e-01
8.399246515739254848e-01 -2.559148224739480736e-03 -4.856989183675851085e-01
-4.367142265576427068e-02 -8.762201592227882863e-01 -4.452726013781259651e-01
8.613925273103459901e-01 -2.463813965948842555e-01 -4.150802490092487806e-01
-5.010414210625321330e-01 6.683501947739896032e-01 4.483100168081085579e-01
-5.492089820470316130e-01 -7.393621245139392339e-01 3.624443777892429885e-01
9.208547723005158225e-01 7.737721521648618928e-02 -3.358948770243266879e-01
-4.191059349900094211e-01 6.165988730456454237e-01 5.858374704049731374e-01
7.873940810247106459e-01 3.884385562718290497e-01 -3.984565296881464880e-01
7.331025357972966727e-01 5.999676932108327643e-01 -1.611277059890188212e-01
-5.927690930648540357e-01 -6.903973245971862793e-01 3.701058219426879847e-01
-3.091338005371681574e-01 8.614930214202791703e-01 2.887141755610780347e-01
-2.554827590432881546e-01 -9.247463438047209827e-01 -1.555301719985068276e-01
5.355615524036506647e-01 7.912232128472799220e-01 6.120720874248935378e-02
-8.681958475860630797e-02 7.585302954814254761e-01 5.995503234048841223e-01
-3.085766384455769784e-01 7.126396440311307812e-01 5.427535525767607227e-01
-7.252733961624724390e-02 8.623952721765684171e-01 3.806183441444295767e-01
-8.487909018394940164e-02 9.492827034002522257e-01 1.528165374764280104e-01
-6.614562489929516342e-01 6.139827153541934646e-01 3.575205795084319682e-01
4.592564774031621111e-01 -8.040881100290068195e-01 -3.562436191274325203e-01
6.822782897804662294e-01 6.374849612330347748e-01 -2.147709796783185687e-01
4.404082593478146901e-01 8.370607142428224678e-01 -2.636011863630209895e-01
1.786911370096803606e-02 -9.907052635731549151e-01 -1.040239262462295533e-01
-7.962824971173683153e-01 -1.436028334907487880e-01 5.049889655274792943e-01
6.093047320593328875e-01 7.473248610937965886e-01 9.637698621386002473e-02
-1.407543192698532397e-01 -9.856392137364300421e-01 4.425462439896735156e-03
5.859762245743569409e-01 -4.352236443043827618e-01 -6.556487494411011863e-01
4.896046332517568489e-01 8.051305331584236447e-01 -2.269839509407669820e-01
-6.343889453044010418e-01 -6.649991579256084862e-01 3.088522056479497957e-01
-3.263026987846450178e-01 -8.829370488580259302e-01 -2.785673130373025885e-01
-8.251962110987776100e-01 -1.230018269906195671e-01 4.598521891533277617e-01
-6.247259863983971595e-01 -7.575376002880470638e-01 -1.789105488279217060e-01
-8.773566409238794384e-01 4.604249720584464162e-02 3.901068555219207590e-01
-1.490020235737785914e-01 8.755051800828872466e-01 3.284893578892352228e-01
-8.441314749361036318e-01 1.390352325877922957e-01 4.288616256299471741e-01
1.633243342766292627e-01 8.635777126099279943e-01 3.794977887828475116e-01
-1.858716544929556458e-01 8.100592226897822545e-01 4.502835313713455245e-01
-2.012107657925698290e-01 8.090066620914619921e-01 4.446179285285197791e-01
-5.244904309671613030e-01 4.177821103056293950e-01 6.882526082855439098e-01
-5.862853486133343672e-01 2.804536232895825654e-01 7.177516062731029711e-01
7.578744332855685828e-01 -3.677481172069611004e-01 -4.966765664466000207e-01
6.648626366935511678e-01 -1.855133042714793012e-01 -7.100252956574314434e-01
9.439919545086632446e-01 1.701176281255731559e-01 -2.532276774689295462e-01
-7.693973046730841203e-02 9.695794517322320338e-01 9.219241860468367633e-02
-6.335256766269313500e-02 -8.992976582475619152e-01 -3.791246425163659062e-01
-3.677194370624666253e-01 8.135673642463773225e-01 3.399171375687604635e-01
-7.083148683910749366e-01 4.683369640148511981e-01 4.388612137203211083e-01
7.265606800648547470e-01 6.605348200543894599e-01 7.086705117427408163e-02
-7.623244901316204025e-01 -8.811580004193700355e-02 5.718068526147381814e-01
-4.877114263259020310e-01 5.154398655895444659e-01 6.351225614231952310e-01
-6.136859937836010026e-01 6.016993208985071950e-01 4.184474757744493512e-01
7.949704108780630829e-01 -4.678968419915041088e-01 -3.865585001699012868e-01
-5.267984940829905094e-01 5.219715815614444088e-01 5.885794013907083011e-01
6.714374439695630636e-01 6.203661070130013222e-01 -3.009434037720178368e-01
-2.996515937110423855e-01 -8.629292885536332669e-01 -4.103636931433327084e-01
-6.964500923329316473e-01 -8.732725814470282399e-02 6.791528391957637467e-01
7.474566834640941071e-01 6.043149369974940566e-01 -9.828602569996958138e-02
-4.017086800037662497e-01 7.085784711692796334e-01 4.779841681744642634e-01
-7.634644904810891086e-01 -3.112495996475378446e-01 4.928226090765964740e-01
8.411498077159430542e-01 7.738280610084331823e-02 -4.743266683120085370e-01
-6.005378397828082804e-01 4.530814165040445984e-01 5.734642499899517132e-01
7.430272584265278368e-01 2.737309335450007763e-01 -5.798145996950432313e-01
-3.263742936874488021e-01 -8.820532700707225393e-01 -2.835052406901586997e-01
7.888750138003181034e-01 4.808512466375893663e-02 -5.659213386387438316e-01
8.287479930065858591e-01 6.302605729015410552e-02 -4.978899770737292285e-01
-1.026730162591607542e-01 -8.861646541546635003e-01 -4.143173452581330185e-01
3.836093655895853050e-01 8.383355918811821184e-01 2.990239624030414656e-01
-8.492751103465708828e-01 4.233325012920174241e-02 4.343992295180417185e-01
2.061122310653291934e-01 -8.054178892976939785e-01 -5.187457638325019271e-01
7.380762696879314966e-01 3.451428660216088184e-01 -5.426647289971400223e-01
6.546696240850310433e-01 -6.546965768211528980e-01 -3.765085186497701963e-01
-6.853801523134911422e-01 5.893718174339059868e-01 3.575260547955541601e-01
-5.496560337232614391e-01 4.304683209944309974e-01 6.494134851103307016e-01
-1.270661244499071141e-01 -9.797791914449308637e-01 -4.553448026410424759e-02
-5.704163471515092398e-01 5.493327081119593336e-01 5.162464570879311543e-01
-2.057715985924916391e-01 -9.616450053617540128e-01 -2.220520701303099059e-02
3.161612875074856777e-01 -9.062834831640858013e-01 -2.695864522619069170e-01
9.274882538902229356e-01 1.589617073628352140e-01 -2.908062516208170245e-01
1.520794635871689643e-02 -8.427399898138222545e-01 -5.205974437214009320e-01
2.639151481634838814e-01 9.038423499241531323e-01 1.215556423530936431e-01
5.568992480476036011e-01 -6.245804511606747322e-01 -5.051927651752634585e-01
5.439712907076706960e-01 7.340847740494120810e-01 -3.697545120611420710e-01
8.858443982399482053e-01 1.534391772236856355e-01 -3.711823854042656801e-01
5.128572951369708699e-01 8.032170221734793447e-01 1.142358138141622015e-01
1.049068807924148083e-01 8.293382549003707194e-01 4.910192279761754208e-01
8.641015684608085445e-01 -1.264801664463863218e-01 -4.406425557776125213e-01
-2.789013026946096999e-02 -8.395840170962918236e-01 -5.381641781806182356e-01
6.308340111065899314e-02 8.389861696108362743e-01 4.624258653372172456e-01
-4.268212592475374989e-01 6.003717274312763141e-01 5.988056143518049046e-01
-8.033938604075102630e-01 -3.957278175610383641e-01 3.388664018106097298e-01
-1.407000678421705953e-01 -9.707247410037830315e-01 -7.392731702366690805e-02
5.369147864824896921e-01 -6.145679159110832845e-01 -5.356615512626753395e-01
2.401589231053023743e-01 -7.986742948118260577e-01 -5.115840563465352542e-01
2.159644763661564826e-01 -7.563837542671364433e-01 -6.000749419639127558e-01
7.351048772402307696e-01 -2.160073050229743552e-01 -6.016132285854065564e-01
-3.706742841966401136e-01 7.986582588153171569e-01 3.627883170950467195e-01
1.503502877179932473e-01 -8.361319163968198298e-01 -4.869198263959799156e-01
-6.719014753130840845e-01 1.508948339022216090e-01 6.709947684462901352e-01
-5.135618769952320362e-01 5.845481933132807839e-01 5.356203339464323809e-01
9.294037585071879271e-01 2.506968287389615968e-01 -2.260878469353672093e-01
8.161005403573851069e-01 4.178978937912806169e-01 -2.975462636048472609e-01
-6.623418205238569278e-01 4.906364871660741089e-01 4.725962593361736630e-01
-5.592254915902640233e-01 -7.303580085005939582e-01 3.581151058297718515e-01
-3.947522180707588313e-02 -9.469143269674127339e-01 -2.338872982637798803e-01
2.895048785219681356e-02 -8.369281785278886998e-01 -5.303393729209917584e-01
8.590349293735254355e-01 4.820896464224422306e-01 -7.857282647049508573e-02
2.071630822113644799e-01 -8.772304300533185772e-01 -3.778643912054935328e-01
-5.973570947438860967e-01 -7.631623683935819802e-01 1.004267439392942697e-02
-5.185971178063568665e-01 4.802234940700304544e-01 6.380142730929624362e-01
5.349528604456264824e-02 -8.679805264165539880e-01 -4.510135532643719802e-01
2.667429031691995744e-01 8.398324350461541243e-01 4.191460326591527341e-01
8.714177918108421128e-01 3.655539375615208808e-01 -2.360422596869331813e-01
5.003903902212621935e-01 8.050659338455256053e-01 -1.435460260299858681e-01
-3.841677924851371606e-01 8.399436305388353619e-01 2.845854040543068231e-01
6.165209279191831149e-01 7.337962966353648309e-01 -1.954188208766621804e-02
-7.131341612690315079e-01 -3.455573023720071024e-01 5.693832222652499553e-01
7.875303610162709411e-01 -2.965925498923421832e-01 -4.958700891317185944e-01
-9.071602811641952258e-01 5.070684353545897721e-02 3.428045703436306546e-01
-8.707128591992561173e-01 2.220723209659379027e-01 3.680773972384014381e-01
4.412119180743591662e-01 -8.571491668248171214e-01 -2.852830037170968058e-01
5.133993259957104760e-01 -6.914766376511992663e-01 -4.669273085932306722e-01
6.684209891087565802e-01 -3.556273209216225806e-01 -6.157952368312974434e-01
-2.732924747528645004e-01 -8.791155817908490322e-01 -3.627173248070275080e-01
-7.185145899139298020e-01 -4.253278704278667943e-01 4.933337537905220782e-01
-3.520282649535345920e-02 -9.178438782400086815e-01 -3.263607537423499627e-01
-2.767831759904473832e-01 -9.448751730982740682e-01 5.631735712578653241e-02
-9.410953990345659603e-01 -1.923466221395993270e-01 2.204832263084548771e-01
-7.199270591954464171e-01 -6.572279695584926085e-01 3.380163801229486148e-02
-8.324200307707032565e-01 1.369505761392972309e-02 4.620480747886991924e-01
2.365334507348265392e-01 -9.190356098560409359e-01 -2.777824575179472788e-01
-6.927556571279709363e-01 -3.271863237939466318e-01 6.203118146727254478e-01
7.498712098866447961e-01 4.687921395623834142e-01 -3.847236564252224933e-01
5.464916175421616340e-02 -9.974876283615143890e-01 -9.254659920302799048e-02
-5.508537142870291170e-01 -7.858512089486399121e-01 1.167856358974915382e-01
3.924369170769691495e-01 -6.103691097621501971e-01 -6.757236133781808762e-01
-4.968367295420875740e-01 7.611454594295611331e-01 3.279245372364995026e-01
-9.397771788077420307e-01 -1.481369045329930800e-01 2.459648713813178400e-01
2.076503325249709209e-01 -8.991069267588925884e-01 -3.315971917386650869e-01
-1.566285073764336899e-01 8.038166801805388673e-01 4.767205027407452889e-01
1.320267053931223900e-01 -9.306433268323557328e-01 -2.815234501518747989e-01
-8.808235491278645357e-01 -4.849973611134892476e-02 3.793060350425917493e-01
7.469317609033175875e-01 6.238646161052382455e-01 -2.657715108012854294e-02
7.039684327954012222e-01 5.786327397263957284e-01 -3.067199459755513002e-01
7.439029680936131150e-01 -4.292968362559307360e-02 -6.347122706646280976e-01
-1.108078815060261832e-02 8.757785321289301983e-01 3.578237868129087174e-01
-1.148673578022424702e-01 -9.186501671525739710e-01 -3.052471956663228569e-01
-2.457517452385817869e-01 6.702821773480891476e-01 6.534404296617751795e-01
-4.868372033834490464e-01 -8.283271881960625471e-01 -2.511969862665825448e-01
-4.031626823951902638e-01 -8.798627312098534770e-01 2.385902920102760394e-01
-5.931121526260073606e-01 -7.740349036797431470e-01 -9.494951858880062989e-02
3.597325608143309150e-01 -7.236303397045038555e-01 -5.509972376226225377e-01
-2.703690133534762952e-01 7.905280910535777972e-01 4.401327716453224959e-01
-6.571748043182693011e-02 -8.934089908680502568e-01 -3.963904054226708995e-01
7.070430380658180303e-01 4.998248655418942032e-01 -4.432230622401426290e-01
7.499023210118780369e-01 6.267859661676872252e-01 -1.839271188825603769e-03
1.179303819652446211e-02 9.469625353566571979e-01 1.456003738373712331e-01
-8.827951066544286185e-01 -4.066632708714247590e-02 3.771035865509292373e-01
8.058121020947227597e-01 2.730875692647462549e-01 -4.585870739018587106e-01
2.940271782759471333e-02 -9.940192230613601465e-01 -9.663716896569020387e-02
7.111628139762758982e-01 6.284865668256721660e-01 -1.437105260994737677e-01
7.549657268866726278e-01 -2.699658725856988739e-01 -5.516565822602235158e-01
-7.537041411984520822e-01 -6.226964440409926693e-01 3.912935858249058652e-02
-5.644376209340995487e-01 6.542245271616443647e-01 4.077470845738977445e-01
8.076157036900085684e-01 -2.403502791557032836e-01 -4.922693346835828598e-01
2.277251566491542145e-01 8.417871055648035172e-01 4.315425731736831638e-01
-5.384442656643082525e-01 -8.035960852648894592e-01 1.750330793418987049e-02
-8.714940109029635229e-01 -2.264601061813656113e-01 3.346682725644411494e-01
2.765084568181068181e-01 9.285455939219593446e-01 -1.111113566978229189e-01
9.125999200099043085e-01 2.015564156831890497e-01 -2.951579188497958084e-01
2.969082560204109322e-01 -6.777265993083886331e-01 -6.663259381388964009e-01
1.678718669538978303e-02 -9.374755376551138220e-01 -2.724064858492122876e-01
-3.607028460346178855e-01 -8.824562485807924128e-01 -2.104726016019320689e-01
7.353718274502724084e-02 -8.669820622868886772e-01 -4.480230369262654944e-01
-3.800240956532801029e-01 -8.966027602528556795e-01 1.940789014047535621e-01
7.434030476268966847e-01 5.744590397067143028e-01 -1.996707415880896730e-01
2.101013777553159823e-01 8.536216682217010465e-01 3.967681904851392827e-01
6.951654262032007647e-01 -4.369126229994978461e-01 -5.277036902073173330e-01
-2.430692563685394048e-01 7.819509573268942360e-01 4.715467577454602877e-01
-8.060161212783324425e-01 6.807414606458156436e-02 4.985595286425102968e-01
7.446586869344498094e-01 5.583376493337881552e-01 -2.354421802878095271e-01
4.234291008350193342e-01 8.544860879860138869e-01 -1.355067580606691413e-01
-5.790999532706356812e-01 6.781725608292048513e-01 3.657905792672190293e-01
-3.571675938603767197e-01 -9.013513988659216380e-01 -4.888491644005234921e-02
8.437603345713654557e-01 6.546745434002601734e-03 -4.790189050543297022e-01
6.777459537303164305e-01 -3.275929328728879319e-01 -6.215277099558499385e-01
-7.605553366847828123e-01 -6.279247900118140047e-01 -5.542915145424162117e-03
6.275714638642145848e-01 -5.676008411713278079e-01 -4.926380453168952012e-01
-5.684546784828785615e-01 -7.131061615750641236e-01 3.824587507961014210e-01
-7.274011003906236672e-01 2.457300959240935057e-01 5.553773960586927405e-01
4.883001320416796021e-01 8.145238847628698542e-01 1.403383450820213929e-01
-6.081895485854109662e-01 -6.431640391963294734e-01 4.410312346620413049e-01
-6.471641332082650466e-01 1.470785269503015469e-01 7.065379651047205556e-01
-8.999416630212512258e-01 -5.044487691679581942e-02 3.467307254741002764e-01
1.836674460052585278e-01 -8.261925278179633736e-01 -4.910718541732845832e-01
5.068074961269922740e-01 8.075771060605366758e-01 2.865514159203778194e-02
7.567610296812082860e-01 4.270553008074405854e-01 -4.232058988200970706e-01
7.743620697358850613e-01 3.805937719904743943e-01 -4.351377797236397615e-01
4.228817167079956807e-01 8.465473646246760575e-01 1.119829074328709539e-01
-1.958335356324292509e-01 -8.887608828002196981e-01 -3.771049659871387738e-01
-8.005218422459943195e-01 2.346008428453576992e-04 5.128593841019393196e-01
6.317085283496083337e-01 7.045964715974470938e-01 -1.373550754392094120e-01
-8.049712654762842812e-01 -5.013551050166986656e-01 1.871937543589295982e-01
-2.999674906975596800e-01 -8.687314486675659087e-01 -3.841875716791178785e-01
-6.512550016614869763e-01 5.222924961311112835e-01 4.569108431532554193e-01
-6.023826091484663081e-01 -7.651992967683348690e-01 -5.244286825347509867e-02
-8.176347710162037430e-01 -2.626917553276640893e-01 4.173406090786418998e-01
7.551374268000120571e-01 -5.121309204518565972e-01 -4.006338244192707010e-01
-5.354200001864664049e-01 -7.897086135288966524e-01 1.787343331430283622e-01
6.765936835765100632e-01 -5.017786587852381963e-01 -4.984089759209927029e-01
-7.267949081899880426e-01 -5.731062853423091186e-01 2.579331023957889824e-01
6.963625018732158001e-01 5.677729382073873898e-01 -3.518566778186099087e-01
-7.008347429624448566e-01 8.092070556862514252e-02 6.522340011435053819e-01
8.484501603891257959e-01 2.145646603053187884e-01 -4.112090229298052679e-01
-9.032311680804926413e-01 -1.703564085293862995e-01 3.036137624336300855e-01
-5.095358241626429807e-01 -7.875233859632551070e-01 3.186941939908179977e-01
4.211896940896802111e-01 -8.681217662741865793e-01 -2.799625088796686145e-01
9.295301133373046198e-01 -1.492503149019996922e-01 -3.381724644669883428e-01
6.411473480018394788e-01 6.098423835556853190e-01 -4.168201794730167498e-01
7.073696061777799970e-01 -2.552451077364729093e-01 -6.219586055172618977e-01
3.524157541811611671e-01 8.884311585778574827e-01 -2.719361154361928101e-02
7.969895456062429939e-02 -8.227338213680948087e-01 -5.443138176656342475e-01
-6.229017881673872825e-01 -6.938488796733671693e-01 2.580319585594149645e-01
6.885068882083055231e-01 5.530527475369264589e-01 -4.019944926699523524e-01
5.375484322862932318e-01 7.740930407453544548e-01 -1.837615737087013867e-01
-5.000889231140045466e-01 -8.264992290555801535e-01 5.747968895589430222e-02
2.706973082471192393e-01 -7.934168928997984427e-01 -5.023066304373092761e-01
-1.140067209271533946e-02 8.354372129211166120e-01 4.598300714285626922e-01
-2.538787338017309825e-01 8.300190018577948692e-01 3.773052160157851498e-01
2.257955063150891145e-02 8.861927129697071415e-01 3.308254202486562434e-01
3.690550366599851251e-01 -8.503888916027485534e-01 -3.430351859374254908e-01
-3.405640711209237947e-01 -9.070211181485831053e-01 -6.432672203370609632e-02
7.601550600409621161e-01 5.900433399931577227e-01 -1.012403670606285555e-01
-6.807850025864370380e-01 5.070438099746185090e-01 4.380290211476371431e-01
-3.169163416857002646e-01 8.861494528942629456e-01 2.373313428619615861e-01
8.012999185201481467e-01 3.462874154080912148e-01 -4.104810780246996305e-01
-6.910094689165303672e-01 -6.972614107681393003e-01 -4.049513724924874714e-02
8.251554144106468813e-01 4.274733446571913897e-01 -2.626546643366486355e-01
-4.653134779310623692e-01 5.868070270404981414e-01 5.791710995837596743e-01
-7.770602597704356906e-01 -5.964037538759122681e-01 4.509294882913812696e-02
3.722907085684840633e-01 -7.530533443995360843e-01 -4.978187897530443884e-01
-5.446275770047744880e-01 -7.912626869861049128e-01 1.104900533888999031e-01
-5.629980761475824602e-01 6.385330712438800349e-01 4.273200238997830747e-01
-7.311723759674592094e-01 3.284699116220626824e-01 5.069617453607532243e-01
8.754035340179965041e-02 9.236942314563052481e-01 1.986001869771525097e-01
-6.997186326577132798e-01 2.049614406460117944e-01 6.109417553553236901e-01
1.981981834569207512e-01 8.507734058701404978e-01 4.115006829712211656e-01
6.523462682640114307e-01 6.099885558961599674e-01 -3.842409417261750115e-01
-6.602859759137440498e-01 5.129287173982546300e-01 4.554684725862264694e-01
-6.884862503759150432e-01 -1.159234945770876712e-01 6.908152341466837765e-01
7.176663809716354869e-01 -4.567006478311071427e-01 -4.865909017010799364e-01
3.294725836598567104e-01 8.397779756037835330e-01 3.683894903760700501e-01
-8.054886996309178482e-01 3.057919139100521710e-01 4.230655488779451190e-01
-8.091746370800663168e-01 -1.226819346177659836e-01 4.875742848315884892e-01
6.024431361645569138e-01 -3.130066912397514445e-01 -7.245016730889047851e-01
7.900064386861230803e-01 -2.430421713198668010e-01 -5.155481585983555659e-01
8.275123503027438376e-01 -1.652799055163441388e-01 -4.872360073884899889e-01
-5.734052558495129626e-01 2.689624911173402744e-01 7.409388769787531581e-01
5.993517384109681156e-01 7.511721458909201843e-01 4.607979378718435326e-02
-8.844003344941930855e-01 -2.995656505242620393e-01 2.575868425880211143e-01
6.826030811130142650e-01 -3.101209986907807123e-02 -7.292873199314280352e-01
-3.035982199304296247e-01 -9.290291576533348250e-01 6.178710838690426588e-03
6.622392906586417327e-01 -4.044564743970835430e-01 -5.902447726262841643e-01
4.996450990734858655e-01 7.894474144334907573e-01 -2.884315286741767626e-01
5.735378854801076454e-01 7.497981292778338469e-01 -1.555614809333009663e-01
7.881464201422145877e-01 2.988273740001622381e-01 -4.760454027150785028e-01
-6.556853738112192742e-01 3.157039915678498398e-01 6.094647373789180422e-01
-7.179266035609327412e-01 -1.659993181469520129e-01 6.350076161829051324e-01
8.695938570982786331e-01 3.536067514242970944e-01 -2.542217104291752960e-01
-8.328300703622368850e-01 -2.680719874149654625e-01 3.845622842142585873e-01
6.174297189279955855e-01 -2.849335028467746556e-01 -7.228610646184295829e-01
-5.576900986780298775e-01 5.214728826298641318e-01 5.571175871750246866e-01
2.322078229746852018e-01 9.043264782867491691e-01 1.667104599063541082e-01
7.384011018332966581e-01 2.968184763103239865e-01 -5.753558318001619210e-01
5.529998296651086331e-01 7.534241024812085019e-01 -2.392745005226622756e-01
-8.151208296428853473e-01 -3.344453943338452917e-01 3.718430943318250526e-01
3.469269479123760491e-01 8.705581769871958420e-01 1.644203293856942028e-01
-8.831330197643002533e-01 -5.654332449417295153e-02 3.741498382641658682e-01
1.959069240482840535e-01 -9.635800444025528488e-01 -1.874622854928117699e-01
5.942150554837730692e-01 -5.875993002136042920e-01 -5.073432963170774190e-01
7.078741273208627449e-01 5.354772453957007405e-01 -3.831144529438799129e-01
-4.429938094675648919e-01 5.518632019866649419e-01 6.401928200710153005e-01
6.799102994271688516e-01 -4.352058497595429065e-01 -5.469639966154866695e-01
1.535854547667944714e-01 9.547005395922496529e-01 1.072013060342094301e-02
-4.387551446424078350e-01 5.270255458141556160e-01 6.717259051720574359e-01
-7.917221251752106781e-01 -2.319081347224132561e-01 4.823769484331821289e-01
6.464622081002486809e-01 -5.443801442314379901e-01 -4.943474672817845805e-01
-8.185471407753958095e-01 2.028876233056663148e-01 4.479714094750527065e-01
-7.240479628926925482e-02 8.665698974858930814e-01 3.706426808149501095e-01
-9.361995701797142244e-01 -2.050015100409459112e-01 2.223578401638307833e-01
-2.329233945981851461e-01 -9.050730398173488789e-01 -2.844290395488827117e-01
8.580969228191309695e-01 3.522658811539044477e-01 -2.813702467578594879e-01
4.498709012874311797e-01 -5.930134912847655482e-01 -6.433455175968876283e-01
-9.198124528959179536e-01 6.140062927591175695e-03 3.208028918780367889e-01
8.628880680499191325e-01 4.404611712625330910e-02 -4.433266138090341535e-01
-5.554706574087581172e-01 -7.462619662420217903e-01 3.130645756153533354e-01
8.132403184272508634e-01 -8.420342147575216041e-02 -5.237458891251484117e-01
7.370211144781639856e-01 -5.779094359196043085e-01 -3.657811252529383217e-01
-4.479095908620586708e-01 -8.464882508985351883e-01 2.606386538692682109e-01
2.673198144579108093e-01 9.207063546843834434e-01 -1.178662644574798943e-03
-7.946105652390017537e-01 -1.724602469673961469e-01 4.998670735874560789e-01
6.375605155710777350e-01 7.048167053335935295e-01 -1.085074032011347500e-01
-8.061283205107150351e-01 -5.487578677285718243e-01 8.439287028423662906e-02
1.558733022299662041e-01 9.392837291247414511e-01 8.537004459259454892e-02
-3.843468916004459945e-01 6.201450643155190789e-01 6.119829819043319796e-01
-8.634810823285890002e-01 9.086455891992556433e-02 4.080884913256108137e-01
-3.345396986769989117e-02 9.647828442875771016e-01 9.906905535704543797e-02
-4.869117234421303508e-01 5.175373298580449033e-01 6.337714145954891354e-01
-8.100111460927129636e-01 -5.636195871412016251e-02 4.960888609629053869e-01
6.016390475596553600e-01 -6.278293175202983578e-01 -4.578052032305949259e-01
-8.207680299409680913e-01 2.845113207668775041e-02 4.797862195339034352e-01
5.373677888218880705e-03 -9.678946836916615393e-01 -1.767848276146160302e-01
-1.556285966383939845e-01 7.392467872366107473e-01 5.990091988460420902e-01
-4.470798448119048807e-01 7.607632542637214890e-01 3.671596441291437585e-01
7.040125961238860031e-01 -2.562369033120318051e-01 -6.259412340792731566e-01
6.675842436258375701e-01 6.718938929683280215e-01 -1.398924989719723955e-01
1.996913302301757953e-01 8.950114298521666401e-01 2.424870577553572271e-01
8.871868746348438028e-01 2.416325206502852041e-01 -3.187105374755401788e-01
-6.068653569611202059e-01 3.097943614740514273e-01 6.735850932105088562e-01
-4.233108467887189974e-01 6.837526459187467376e-01 4.949622538759072543e-01
-3.480378072385775234e-01 -8.655935566147862081e-01 -3.415010148045526939e-01
-7.261781504742220728e-01 -3.177161011136241942e-01 5.614395124965503303e-01
-3.179408063418422969e-01 7.265803449449806939e-01 5.144652610345863408e-01
7.081569652115758950e-01 -4.477496364665291273e-02 -6.886010020584535374e-01
-1.707709977002169061e-02 8.812942017760511115e-01 3.426266786585610569e-01
-8.206181423949506781e-01 -1.889532234113206477e-01 4.474528819238858812e-01
-6.809833777731718607e-01 2.801419518646077189e-01 5.983995530751338165e-01
5.515032919714363269e-01 -7.646978781578540607e-01 -3.392614880423534540e-01
-3.949227409978727787e-01 -8.732237640240929633e-01 -1.809800896712575879e-01
-7.588886819570999087e-01 2.482025823475154380e-01 5.121594827552495843e-01
-5.340363835889101463e-01 3.279061314376513492e-01 7.488519170868368491e-01
7.390963748982865011e-01 -2.249608926112786900e-01 -5.925513838172062897e-01
2.553847170130805755e-01 8.927408179125297938e-01 1.958908281118280081e-01
6.397710183650675564e-01 5.812420824556284726e-01 -4.786937133423926904e-01
-8.913458670281017016e-01 2.562279547856563706e-03 3.671477650225981604e-01
7.285707989786406602e-02 -8.499104202733790414e-01 -4.872564818024719413e-01
7.700738671171115657e-01 4.414031807062264168e-01 -3.744332209117109400e-01
8.049643348239653440e-01 1.394657683365729262e-01 -5.219667774251907089e-01
-4.288904644223532903e-01 -8.694286338836064720e-01 1.112746985135589818e-02
6.884976169641802146e-01 -1.655380357450402518e-01 -6.851728794823707114e-01
-4.386264874553378323e-01 6.897638798943138694e-01 4.741061915273299121e-01
4.318325772255406925e-01 -6.014957981437618617e-01 -6.503705891919310256e-01
-4.766616699382991706e-01 4.558473721618832020e-01 7.055769742273885203e-01
8.781255141202400916e-01 3.977386621497576713e-01 -1.777170450129187673e-01
-4.994927600586657190e-02 -9.268166618551425540e-01 -2.964942370793945403e-01
-4.878677544062940963e-01 4.441417697115800922e-01 7.046383024039774012e-01
5.343982027829906334e-02 -9.728256323390435112e-01 -1.702968338188066144e-01
4.674355514400981848e-01 -6.044900134743989017e-01 -6.135354043629746013e-01
9.734318908234094320e-03 -9.003779792109648517e-01 -3.764616733280182204e-01
7.810082670922789960e-01 -4.080474646634915659e-01 -4.432050602711154474e-01
-8.332223300327560311e-01 -1.961709745703150432e-01 4.215067547659747116e-01
-5.637983910804030829e-01 -7.727580291067099871e-01 1.396178698425747100e-01
-1.448871788164221297e-01 7.303203112807062913e-01 6.212620446511306627e-01
4.385884362295274230e-01 -7.167787682754649392e-01 -4.979060973430318726e-01
6.641153644601281991e-01 -4.688850899728018717e-01 -5.394018529464637002e-01
-1.492245872162002718e-01 -8.920339987109470181e-01 -3.847872897474758358e-01
8.755472388515462834e-01 9.364103245568033973e-02 -4.109338532665737787e-01
6.970928633360693460e-01 5.726013873660985576e-01 -3.396397019568910269e-01
-5.263679426836347375e-01 -8.016555118910680955e-01 1.391425701039700480e-01
-6.627539258282856283e-01 2.786303631070047859e-01 6.225733312187656798e-01
2.645346306760095190e-01 9.008216449186436936e-01 1.382748785631159050e-01
6.665967357992744757e-01 5.517895395684304649e-01 -4.613965968973338105e-01
-7.122585946414965175e-02 -9.799693338232524642e-01 -9.758922469348080275e-02
-8.887275036891469915e-01 -2.286756998501210392e-01 3.001114126427280038e-01
-2.129301196595204948e-01 8.809715272519136331e-01 2.937718078223927609e-01
7.001199902087292815e-01 6.794978255135235568e-01 5.628025192206637800e-02
-5.136892179256833391e-01 -8.168384823038143949e-01 6.913096465723279904e-02
-5.689038117054417976e-01 5.260306492401184419e-01 5.409656191807122871e-01
-3.773341988598225005e-01 5.501462353555084395e-01 7.043251394555942735e-01
6.299385314878354070e-01 -4.654742838160983442e-01 -5.810785496374734072e-01
3.722919760271321543e-01 8.624371359671321180e-01 1.571194315059739888e-01
-8.419871161283150052e-01 1.261792038113280501e-01 4.347174676592792664e-01
6.661814681116667858e-01 -2.943234504726878753e-01 -6.554454695288153276e-01
-2.743458615462127659e-01 -8.914283805753907552e-01 -3.050244981485258911e-01
-7.731174084856344830e-01 -3.053254347543371550e-01 4.777058329850490948e-01
9.013306292597949021e-01 9.356501516754749809e-03 -3.837764650734448169e-01
-8.740690370009733534e-02 7.787178360466060489e-01 5.590313834947067129e-01
-6.807121869389450852e-01 4.242746444557601859e-02 6.906655549998607091e-01
-7.627273346757013073e-01 2.019548901390991191e-01 5.261128798774162840e-01
-5.689567153192551796e-01 5.511632520449334383e-01 5.158888228727117609e-01
-9.236551355984610190e-01 -3.041800389540728986e-03 3.135973106852200654e-01
-1.887984061321503204e-01 7.429331570267206919e-01 5.728679790034125752e-01
6.965044593625667746e-01 -2.737067063442268910e-01 -6.272148830101903494e-01
7.664843579895933567e-01 5.658266196118464375e-01 -1.511539644669717408e-01
5.594634200145025549e-01 7.777790542576876742e-01 1.187426445526542917e-01
7.650069810005462045e-01 1.236760470020445979e-01 -5.952571056538473737e-01
5.106070021755562127e-01 7.883939838300135783e-01 -2.342077392183805062e-01
-6.903140841710544429e-01 -2.965624200087769308e-02 6.869334345678346221e-01
6.991932290672741024e-01 6.794334976072918808e-01 5.053027535044939123e-02
4.285194956558823765e-01 -6.599730271904603596e-01 -5.815352008861528477e-01
4.777802783315366342e-01 -6.668416512264403462e-01 -5.293723206466796061e-01
-3.748170455327601847e-01 -8.990664183114671637e-01 5.765158312939636098e-02
-7.382064894562989643e-01 -2.687518750382797417e-01 5.647741628582615414e-01
-6.816777681517646181e-01 -5.178619461187589090e-01 4.683946146429375235e-01
2.265669887821804007e-01 9.309547406679248294e-01 2.492354902922768595e-02
-5.842950646221047040e-02 -8.587034764935832509e-01 -4.935692068948092648e-01
6.346104158974357201e-01 5.887250593464260495e-01 -4.783316176146267251e-01
-1.540353468698814343e-01 -9.609186103691876868e-01 -1.062575782214592035e-01
-3.033469783334155623e-01 -9.149001226450298452e-01 -1.190822356040375507e-01
6.048573253712705711e-01 -4.618675798325835302e-01 -6.123644902419794755e-01
-2.565636712084058413e-01 8.788732310992213304e-01 2.800105295525281979e-01
-7.313393561761473149e-01 -5.398328937558585228e-01 3.105269813992315719e-01
8.204657252532762124e-01 2.588245463711486560e-01 -4.390500013900490162e-01
-7.010350865840965229e-01 -6.988129018128678149e-01 -1.068286994682586255e-01
3.190459045312482589e-02 -9.043232148272740689e-01 -3.639782312756451033e-01
-8.983963396002206947e-01 -2.072737703127725262e-01 2.939460144081826320e-01
5.814281314408056289e-01 -6.320740837172562632e-01 -4.730659704643061514e-01
2.531152445141505170e-01 -9.300891268126638689e-01 -2.477048637230103156e-01
9.096945818422657037e-01 2.742898835271163072e-01 -2.469692336620359641e-01
7.199079730673786370e-01 4.083320520405522847e-01 -5.251676709490056272e-01
7.863155863207292873e-01 5.710465287414710767e-02 -5.693489155658828516e-01
7.452440586959282465e-01 7.605406603926999354e-02 -6.353138520583102578e-01
-5.390056463599376402e-01 3.568760428965099263e-01 7.213270020393380833e-01
-7.931579711208182060e-01 2.315304879427825535e-01 4.727202696359808498e-01
-3.996870414416273110e-01 5.766765260771981039e-01 6.521679754971883014e-01
2.393546991678912467e-02 -8.977784026721760124e-01 -3.820508757558980228e-01
-3.409003877394299331e-01 6.905482177328028381e-01 5.514893655077623968e-01
-3.806437783202034075e-01 6.628197311266705860e-01 5.587119125044246459e-01
-2.791363007826359599e-01 -9.187463988329123143e-01 -1.481571839472616559e-01
6.356626684897641599e-01 5.960657830852268413e-01 -4.611372266429211164e-01
-3.141194974145302687e-01 6.597578389591004511e-01 6.167467537475880279e-01
4.526687417683074033e-01 -7.058172802414588443e-01 -5.009804000440877259e-01
-1.470713055076663112e-01 -8.645240172958791325e-01 -4.744502786949477691e-01
-6.824006364774812816e-01 4.726811169209926833e-01 4.650100787940413816e-01
6.635904951674218566e-01 6.957690438228216756e-01 -3.236810187185901883e-02
-3.544948244650268920e-01 6.405086752325611643e-01 6.106325492278801281e-01
2.558937210894429715e-01 -7.582400198291905369e-01 -5.712573879128984844e-01
-2.997066944282719136e-01 -9.050594237772940920e-01 -1.938790216830294233e-01
2.403747371210670225e-01 -8.842656333154803594e-01 -3.489332110641698570e-01
1.778524243415733064e-01 8.696873536042543096e-01 3.530959478441205168e-01
-6.730527982603649040e-01 -6.064791910583614554e-01 3.373929949973312747e-01
-6.452207475226101607e-01 -6.303419243593664234e-01 3.637601094903870624e-01
2.469181943581766348e-01 9.124180756995158292e-01 1.006363375537098204e-01
7.570644565057861319e-01 4.177297713631873688e-02 -6.180916588845727366e-01
7.280806527476839651e-01 1.424393046524380022e-02 -6.641156710269332519e-01
-7.643122181732393827e-02 -9.048503526094856531e-01 -3.606185140623917040e-01
7.344292673328370880e-01 -9.253306072220681897e-03 -6.527468964960470021e-01
-7.752025864980515157e-01 3.048487091334973198e-01 4.632635098263613305e-01
-5.108805474028672577e-01 -8.150741340783282940e-01 1.171468698374198147e-01
-6.151130201235235212e-02 -9.268916780659363086e-01 -2.937786707965746036e-01
-6.564915713431177524e-01 4.299984881311585405e-01 5.286421649990459271e-01
7.312435664049362627e-01 -3.715294602747602482e-01 -5.278417723556122487e-01
-8.767858394113370313e-01 2.529459242527594687e-01 3.490316474340956487e-01
