-4.141391014810222870e-01 -5.808036716308670466e-02 1.479383066950029635e-01
-9.186542638653653892e-02 7.616448418637046247e-01 -4.643093942926727197e-02
-3.400064938453221941e-02 -5.990183356772873502e-01 -6.927455863031725114e-01
-1.892180464651627425e-01 7.952621611407648672e-01 1.263241710852421040e-01
2.745145846525987587e-01 5.029677503554977891e-01 -7.501728165805410242e-01
2.607458988517631290e-02 6.597548121202071458e-01 -2.805201623080286755e-01
-1.123241799044440437e-01 8.736830544118191488e-01 3.243934301574694784e-02
9.976836399275651815e-03 7.214904519292619778e-02 -4.924760339939227571e-01
-7.230522707421632722e-01 -1.758481721571849010e-01 6.051058297529149366e-01
-3.684209930327899674e-01 -1.612720032830367023e-02 9.022324093080989760e-02
-1.141952062561473469e-01 3.750700637314133834e-01 -1.666846222367985852e-01
-6.200144637926895824e-02 3.988992803093470429e-02 -3.879076669202961014e-01
2.854021474471661601e-02 2.617562692944263580e-01 -4.459343492957878463e-01
-3.514652922126768053e-01 -8.811379147354267971e-01 -2.882434761897852415e-01
3.147471854018633608e-01 3.367256383876036652e-01 -8.833427083139629987e-01
-3.901045485566146942e-01 5.255515327118680940e-02 1.535151405168691252e-01
-1.808096704434695445e-01 -2.048993531995182416e-01 -2.929740610998602945e-01
-6.070747138742164095e-01 3.275307301306070173e-01 6.196542661251620565e-01
-1.078862603229102796e-01 6.800196750915710187e-01 -5.334287773691102907e-02
-4.249768489735328281e-01 -1.134087248779098653e-02 1.846050527373017669e-01
-7.348750428271049184e-01 -1.964197019113115561e-01 6.160887143744980810e-01
-4.841031833248514715e-01 3.597493152808485251e-01 4.317205845147751297e-01
-3.507469729115494372e-01 -2.719483293588277895e-01 -4.239778907629659921e-02
-2.064164597683807445e-01 4.878176540604906575e-01 2.976969656516274126e-02
-2.898961258910885963e-01 3.185717474087447210e-01 9.759050745153280415e-02
8.781551290428792067e-02 2.560984214577350336e-03 -6.479211912161494391e-01
-3.340533047314658277e-01 -8.882649010929414279e-01 -3.195934275519361489e-01
1.362161650666546542e-01 1.625378605111092375e-02 -7.214801688022121073e-01
-7.939082342126900504e-02 9.328038239409855992e-01 2.582335727525592126e-03
1.943327582352443461e-01 2.473502749561203029e-02 -8.130331625334589196e-01
2.861874047995785486e-01 1.947922484729086856e-01 -8.942139680542128266e-01
-2.252709189556310887e-01 -4.887952105583518447e-01 -3.354184865066807131e-01
-2.619552097455746242e-01 5.585175817966817613e-01 1.492162920004253546e-01
-2.980175070899958034e-01 8.777083623435837367e-01 3.375888191287977902e-01
-3.770871208358896887e-01 -9.897502680144133758e-02 7.079420020278280601e-02
-6.369122282594641415e-02 7.600605828088740079e-01 -9.312430476788062517e-02
-3.743273522687707300e-01 -7.248183284153248973e-01 -1.874893516419752770e-01
-5.364773948673614568e-01 -6.281629919145738095e-01 1.167389082513247134e-01
-5.404503016174058705e-02 -7.094036401780703383e-01 -7.047429291788259720e-01
1.680117654579882380e-01 -1.736905357339872669e-01 -8.504707043008780110e-01
-4.630734447598280346e-01 4.390409642672877255e-01 4.294992111527218825e-01
-1.550295316941420198e-01 3.516156239907288761e-01 -1.094511059283191923e-01
2.056807435393541439e-02 8.418561852134216483e-01 -1.976795811952896942e-01
-2.024625946801239251e-01 -2.709042713871540053e-01 -2.843464600906648321e-01
-6.156733254702797531e-01 -3.089855747823873067e-01 3.756082919019688160e-01
-4.379507800051556377e-01 2.747670853882714925e-01 3.218247302209075178e-01
-2.759766877971119373e-02 2.397512243388126574e-01 -3.630993286166569467e-01
-3.392216146852468639e-01 -8.780072180604446830e-01 -3.069864033049427565e-01
-2.945991649130593748e-01 -5.878851440672767659e-01 -2.622807991900139579e-01
1.306332999982438847e-01 7.165046155281211693e-01 -4.284107951971073414e-01
-1.072935434852811259e-01 -1.808086939690253803e-01 -4.033682683378754796e-01
-2.193289552085379568e-01 -2.277228299775026221e-01 -2.392686489916940606e-01
-3.912832070326403011e-01 -8.174629614712285441e-01 -1.973412651387768946e-01
-1.716705512649475684e-01 1.177418593733199070e-01 -1.770845049635610680e-01
-6.799091579677917219e-01 -1.456399231916087889e-01 5.468371782881310539e-01
2.554251630918384919e-01 7.161302891884188115e-01 -6.325358981695703431e-01
-1.612821824091280332e-01 -5.578249942794931693e-01 -4.679994285564128553e-01
-5.369738822404778178e-01 -4.551489775539050431e-01 1.877057318441346656e-01
-5.294402005890154472e-02 -5.059411974936018908e-01 -6.240407199805910743e-01
-6.385378980495744206e-02 -6.123975922927120674e-01 -6.493755286878725164e-01
-4.087409484932110204e-01 -4.238090350384424720e-01 -9.184036273116437041e-03
-5.759836883780571348e-01 -4.842514292474096038e-01 2.396668487408803727e-01
-1.180750608230070747e-01 -6.347047594545965898e-01 -5.697957340630216416e-01
-4.067288077414887848e-01 6.887536445190782786e-01 4.386592326783940177e-01
-6.537808877890680659e-01 2.031925104817333128e-01 6.455780853826831311e-01
-6.001885380221666511e-01 -4.187571400191497650e-02 4.586084391718205366e-01
-1.666369325598502094e-01 4.833802926985272808e-01 -3.704956701464945379e-02
1.930641496508140875e-01 5.408936339933256843e-01 -6.016628809967156100e-01
-3.709716206154822782e-01 -8.870768077002257890e-01 -2.587683802170877012e-01
-3.781092315869905573e-01 1.538427440844607197e-01 1.749797193430016329e-01
-1.049235839701494477e-01 6.880979660212856175e-02 -3.060243892580415959e-01
-2.384362927811052302e-01 -1.270764957233307402e-01 -1.672265503239267204e-01
-4.177282695094881593e-01 1.268459453222463840e-01 2.287904500414005837e-01
-1.481784608045356444e-01 -1.747496938681453518e-02 -2.703114794704648549e-01
5.386495095139288980e-02 -2.189500081787962571e-01 -6.822490317176620467e-01
2.757357664896980531e-01 2.275659548138626864e-01 -8.638412966885654631e-01
-2.517285452772501930e-01 -4.834883391147487552e-01 -2.900214016133279005e-01
-1.116296021081176620e-01 -3.730106908483302869e-02 -3.380901559265849787e-01
-2.691321508224921444e-01 -6.453483066805121293e-01 -3.272075320898971129e-01
9.683417624708515192e-02 4.815449961902456000e-01 -4.684394353954004497e-01
6.012601601724417572e-02 -1.784803608939896646e-01 -6.760727894952200945e-01
-5.274596462959177945e-01 -4.934143820314388362e-01 1.566384281094478637e-01
2.384226964324626663e-01 3.510485231975236653e-01 -7.527819339703210044e-01
6.632713305023935080e-02 -9.771026287455139570e-02 -6.534571649739073784e-01
-1.990126898137652700e-01 -2.565915521994036608e-01 -2.841817049457392441e-01
-6.534493146418630660e-01 -2.262659185736936029e-01 4.708953798259897239e-01
-6.170427446052693110e-01 -7.506566865966606272e-01 1.987537613731341635e-01
-1.583203735949893498e-01 2.276182709810298244e-01 -1.543517830915563105e-01
-2.161945103164834570e-01 2.484868613480706590e-01 -5.129404714484034344e-02
2.556229788920888479e-01 3.976797813371600321e-01 -7.619874652313549657e-01
-1.034283950103949828e-01 -3.628212637439640065e-02 -3.510819255498544011e-01
-1.725196553493234990e-03 7.041621067179829052e-02 -4.740516113727344938e-01
-3.162849563952999654e-01 2.557235833345639642e-01 1.152390155074520667e-01
1.370974549497662454e-01 2.434637429014146204e-01 -6.307894650505238010e-01
1.083005156845069095e-01 -2.698914986995948895e-01 -7.918806293584150779e-01
1.647623578080460380e-02 -5.468737118289950239e-01 -7.541063858566056100e-01
-3.124893763744678310e-01 5.321255044094836961e-01 2.211130975386287056e-01
-4.715730651615296365e-01 1.712442713191219545e-01 3.348032483804066484e-01
-4.825320531360832166e-01 6.055980522665272980e-01 5.288415623488122996e-01
2.921324715020491292e-01 1.176894257086830153e-01 -9.351955884839405764e-01
-5.936897717007950659e-01 -2.347910374428079372e-01 3.697610761858416972e-01
1.995301888046319139e-02 3.193435325392073865e-01 -4.085474954495834643e-01
-3.494900276309291787e-01 7.064025808341596324e-01 3.522584326295855606e-01
-2.997504359394291829e-01 6.639892390305970338e-01 2.537605132492908866e-01
-8.592144516332882176e-02 6.865973134224415686e-01 -8.657738602316573939e-02
-1.920247218492591723e-01 6.288900046890094631e-01 6.344959547260364818e-02
-5.151882609996962792e-01 -5.338036890411316238e-01 1.202033217819508670e-01
-2.298271528869968439e-01 -5.256757786462973314e-01 -3.429259563354170592e-01
-3.861354973101445154e-01 1.164088294909358251e-01 1.729196687489516493e-01
3.068699491610384911e-01 4.583155419681364529e-01 -8.211639110681188125e-01
-2.344162928855289540e-01 5.182568399044039653e-01 8.787841261525920766e-02
1.179283193958381992e-01 7.458372929716426958e-01 -3.957503174705567228e-01
-7.320208014454054890e-01 -1.064393876441473152e-01 6.479094774763247688e-01
-3.233661447653555232e-01 -5.013688895363254128e-01 -1.801795309083456531e-01
-6.981303745515765602e-01 -5.499742688023275816e-01 4.126667028250909919e-01
-4.049720836380327205e-01 -6.739633849323209969e-01 -1.167791589956272968e-01
-4.414497551809757891e-01 -3.729586622968376064e-01 6.489805092415923404e-02
9.515055228828334100e-02 3.206116676231566820e-01 -5.309442618563111616e-01
-3.998315174866318711e-01 6.748638113851602727e-01 4.217533784635815186e-01
-5.540689605053977784e-01 7.315081078960933292e-02 4.298676249909869629e-01
7.525362865659378231e-02 2.748707091049872875e-01 -5.169700417489321298e-01
-1.683592130422530420e-01 -1.390705753149821255e-01 -2.866315780232759902e-01
-3.595872338247903532e-01 6.691418585686841336e-01 3.536535787351050564e-01
-2.706937682113859100e-01 -2.990309961008258965e-01 -1.842271332048008026e-01
1.442894700404456498e-01 8.115653750999519689e-01 -4.121858069580076611e-01
-6.179898059128065002e-01 2.083851720325066159e-01 5.891828383184936069e-01
-7.324442800764807693e-01 -1.919789595893063583e-01 6.139162858057392036e-01
-2.340950854029508199e-01 -8.120911695153508469e-02 -1.557235633394532526e-01
-6.442547687087518682e-02 7.735349667054717271e-01 -8.646044365812846633e-02
-4.673706539906280488e-01 -6.127073007997980714e-01 1.005049236783545595e-02
-3.472491267189113939e-01 -7.688873073720537965e-01 -2.496184262516800700e-01
2.493447228198863996e-01 -6.133594234012491181e-02 -9.378515142170711361e-01
1.573921212392514202e-01 1.804993763444466548e-01 -6.894926319778785784e-01
2.640630388832683750e-01 -1.046905767574220160e-04 -9.370801117144612613e-01
-6.975764620820315010e-01 -3.631830067799972084e-01 4.875031641775334768e-01
-3.736332801858496810e-01 -5.784647273458086714e-01 -1.292790163297071193e-01
-4.952811307846265443e-01 -1.955527182417776937e-03 3.033236305477581829e-01
-1.858228590213923392e-01 6.707241301027342395e-01 7.027588535430835670e-02
4.871892331997033226e-02 9.192907017187336161e-01 -2.122935146965590492e-01
1.557033573495859337e-02 9.071811104157612160e-01 -1.630221862746665251e-01
-5.518838526056186744e-01 -7.095047943104527688e-01 1.089376682274359326e-01
-4.662139186281183956e-01 -9.653530753558074717e-02 2.174619576377368746e-01
2.419612912242922187e-01 -1.133228287689848762e-01 -9.468633550601559534e-01
1.730383721216806059e-01 1.898118675149925993e-01 -7.112904421986875336e-01
-5.550265417438398075e-01 5.236581666617851072e-01 6.141086579664626344e-01
-3.854895372565068090e-01 7.423188408938784233e-02 1.547615467390992816e-01
2.728084758896732187e-01 7.012844535211290586e-02 -9.228958230594990209e-01
-6.874523850351962895e-02 3.833510973091617813e-01 -2.376150955747506899e-01
8.588498332913058197e-02 2.824125198326410957e-01 -5.312889549888084595e-01
1.086715692221403157e-01 6.779325113936460756e-01 -4.081547380865653274e-01
-3.863635471543444000e-01 -6.779973718193966770e-01 -1.488307016369607438e-01
-4.131139837998270559e-01 -7.029444617700298936e-01 -1.152226699006869137e-01
-6.520892479244811968e-01 2.002360965453366670e-01 6.416142923666813269e-01
-3.260170431711948424e-01 -8.899170994303091664e-01 -3.333987111444100537e-01
-5.047405105689229954e-01 6.074852407415564093e-01 5.659067016035224107e-01
-3.922782215873897305e-01 -7.410700450126040950e-01 -1.647384046299819882e-01
-3.094271862023404984e-01 -1.716343183346590862e-01 -6.925907120167441866e-02
1.040520722006845061e-01 -1.400987355457246619e-01 -7.323069526526945205e-01
-2.017879093094724352e-01 -8.342207419315010863e-01 -5.138679729480807312e-01
1.379747827310397468e-01 3.752916321386818299e-01 -5.787686816613539786e-01
-6.578443976237222102e-02 8.480383805369007266e-01 -5.402887949778008292e-02
-1.800055638461328378e-01 -1.680252618624797911e-01 -2.793363348038620519e-01
-5.027377937851369438e-01 -8.379831751546688023e-01 -2.348855900379400244e-02
-6.491626009028015343e-01 -4.385744994109653239e-01 3.777998787684773152e-01
-4.857063618003890082e-01 -3.818060710766912336e-01 1.336483067433710814e-01
1.797512753022685039e-01 5.014156424492440672e-02 -7.788975340213337706e-01
1.281066410084391594e-01 5.212042222116759493e-01 -5.034731469547509830e-01
-3.698052911906716811e-01 1.121205820438979650e-01 1.444889757576891809e-01
-2.374477362034387584e-01 6.260383394183847150e-01 1.365375633676297884e-01
1.002900669517895332e-01 7.872760471417976635e-01 -3.501174835629838888e-01
-1.546215763147573974e-01 1.179083908183793244e-01 -2.048836668257924820e-01
-5.273785500962885342e-01 5.398506254905247742e-02 3.784704280107974439e-01
-3.509924098741519505e-02 9.373120079630232748e-01 -6.798459703749569483e-02
-3.654443849400554334e-01 -7.225367675315257365e-01 -2.010834859127370866e-01
-4.570358339511655932e-01 2.999793273543681082e-01 3.632426978403297535e-01
4.858909982999526367e-02 -8.246662507659940911e-02 -6.182830748503149731e-01
2.554168144299102661e-01 -2.648397419041504872e-02 -9.336443014502715521e-01
7.312132741594182250e-02 8.393484314308288230e-01 -2.845951688341552543e-01
-8.548262034106608731e-02 6.331085818222195183e-01 -1.089837507265012384e-01
-3.043894244736142229e-02 -4.170206828968563428e-01 -6.247691462156206299e-01
-3.907772916093957272e-01 3.585908127630319520e-01 2.787088933553136250e-01
-3.707074347803883119e-01 -3.737255998194580209e-01 -5.104183342148115726e-02
-3.200957658302579500e-01 2.441179555281185742e-01 1.167618580887610363e-01
-5.221614485101164771e-01 4.763547914853150100e-01 5.412093882722133209e-01
1.933417980337410746e-01 5.135685610304699944e-01 -6.131967209907488447e-01
-3.041004938709175875e-01 -7.383434948906525408e-01 -3.077600329467002904e-01
7.126367057434795926e-02 5.130948427537244116e-01 -4.138511139550060669e-01
-1.699326778689090323e-01 4.595308166028241326e-01 -4.133334895807058013e-02
-1.689876391790831253e-02 -5.048915234865241075e-01 -6.825313535776034168e-01
-2.298110728383792323e-01 7.702790392802366659e-01 1.825434180446262322e-01
-3.349388881090135661e-01 -7.771779354686290109e-01 -2.731013716229983013e-01
-6.763548593228179140e-01 -4.327756766691464585e-01 4.245972067451941889e-01
-5.420659404451745322e-01 1.215609918744278983e-01 4.298783955041813321e-01
-4.574192984273766083e-01 -7.681782584795707747e-01 -6.925687068952011971e-02
-1.052207897258049946e-01 -6.797421916184963608e-01 -6.090683364452523785e-01
1.517447696889352160e-01 -1.778900248203869883e-01 -8.255850144757256315e-01
-3.203581129230125835e-01 -5.641237268138936389e-02 -4.671130011557464955e-03
-3.517595895229156527e-02 2.194947198349304213e-02 -4.390288056600050171e-01
-1.429191703302579997e-01 3.750550655293180546e-01 -1.197411503713210340e-01
-1.552479779588273878e-01 6.017696818347664234e-01 -7.659289762638552684e-03
-5.646730835690336736e-01 -8.642037875527919244e-02 3.824957596845279251e-01
-4.398902961559704727e-01 6.808679501033648718e-01 4.896643920994326882e-01
-1.984994928147182092e-01 -2.072446357991458155e-01 -2.650108889235132104e-01
1.452463519096603151e-01 -3.234332276182073640e-01 -8.739794916915125667e-01
-1.815807713890369435e-01 -7.463415916387168281e-01 -5.112626599806416872e-01
-6.214376036407962545e-01 -5.289529679265440043e-01 2.958356535419028321e-01
2.225617769768816201e-01 7.539911260892273592e-01 -5.634682658840287628e-01
-1.720072267105841046e-01 -2.857763044115285700e-01 -3.401564558350105294e-01
1.778158473920172511e-01 -2.057910188585557743e-01 -8.795119547600331877e-01
1.281287301975244167e-02 4.528026681066323333e-01 -3.427606332858006422e-01
2.709330950430563489e-01 5.922384608453555854e-01 -7.081205353553849946e-01
-4.879304701216929940e-01 -1.690112663248424518e-01 2.235696209652839050e-01
-1.046207293332812593e-01 9.967446446012986905e-02 -2.940041187488202090e-01
-2.040467187552872652e-01 7.996364124796142558e-01 1.523354684376109214e-01
-6.225578570172086712e-01 1.429664200874871116e-01 5.701227589644449756e-01
2.782000039102078270e-01 5.915558743227314897e-01 -7.202751385978320986e-01
2.114321090668264402e-01 -9.597340926649442286e-03 -8.549035948269488872e-01
-5.259917584175192173e-01 5.801777867051095550e-01 5.895691623154433181e-01
1.804092820739822689e-01 -1.734920527205159879e-01 -8.706540635758448499e-01
-4.294768199561539990e-01 6.271055177932728375e-01 4.508433957165826067e-01
-6.642010613812632247e-01 -3.486021766520108756e-01 4.388631684751413409e-01
-3.144468163516272452e-01 8.484118445780683970e-01 3.525632380837567803e-01
-3.122563226473549225e-01 6.705671068655885136e-01 2.768687412768005562e-01
-1.141585925243875643e-01 3.224392887634770499e-01 -1.880856775014551341e-01
-1.378231495999649586e-02 2.146492804845965829e-01 -3.958592037231972727e-01
2.345535651235736985e-01 7.628010873926841517e-01 -5.794965973914389945e-01
-4.303753255837690084e-01 7.302185923027028069e-01 4.941232465934166651e-01
1.763929115655435698e-01 -2.640300927170640133e-01 -9.008014688938972281e-01
-4.170878851359077766e-02 -5.318962323695006766e-01 -6.529292833725619527e-01
1.609601259658681172e-01 -1.549213381506749643e-01 -8.313340355063618681e-01
-3.499219840681879745e-01 -1.900945297684717150e-01 -1.055540993373602771e-02
-1.688221528707712082e-01 -1.837608224125089618e-01 -3.039963107801186837e-01
-1.592514042039355412e-02 3.829612962908103824e-01 -3.241080366451609129e-01
-4.006669973785779160e-01 7.655474534597423997e-01 4.598902128869733485e-01
-2.598843225303422155e-01 6.421033464524695811e-01 1.797245331913732147e-01
-5.250794495629165226e-01 -9.429638118960495530e-02 3.145860083085350034e-01
-1.374135283400771124e-01 -7.384264060286028775e-01 -5.802448567246708544e-01
-2.097028499487733622e-01 6.415138450526429725e-01 9.746347067268618103e-02
-2.595327833172166865e-01 3.739882055139124306e-01 7.043215064776486845e-02
-1.562299380013464078e-01 -4.824576544042281645e-01 -4.456967223355116636e-01
8.860607040148798727e-03 3.015970681466002001e-01 -3.976128571638097853e-01
6.109703593383216530e-02 6.216396694082158003e-01 -3.532199139136839583e-01
3.561483798798338596e-02 -4.465659581392013022e-01 -7.447148783450088239e-01
-5.470635932291904036e-01 -7.300455131483859494e-01 9.272987572298777015e-02
-3.069398180830735234e-01 -5.607964022869509346e-01 -2.311257092557992832e-01
-4.127296962795348745e-01 -6.519521450469191182e-01 -9.517395825555473310e-02
-4.108080408291154839e-01 5.040699059461060116e-01 3.704395145759883379e-01
2.299431528103656475e-01 6.583948095567060399e-01 -6.142964569355169324e-01
-1.426755600056977547e-01 4.624157605507159263e-01 -8.471551678307127908e-02
-4.438506687646331383e-01 -6.610778747413461609e-01 -4.800685964723625659e-02
2.293534463345487939e-01 5.555536525043940355e-01 -6.550335534085499622e-01
-3.541867330357920673e-01 -8.024970537440224705e-01 -2.519072406824141019e-01
-6.402813660423692932e-01 -5.842456085956088119e-01 3.042153692622065475e-01
-1.521933387745481314e-01 7.632751428373473201e-01 5.283659464645609066e-02
8.041394988207983818e-02 -4.501715252139955048e-01 -8.194014104355269446e-01
-3.393793263696220364e-01 2.717395651102291407e-02 6.031255059483486836e-02
-2.128259863000286356e-01 8.730740248257268243e-01 1.964634100825638219e-01
-3.492336964187583437e-01 -7.260276293357693922e-02 3.596121856482076273e-02
1.882344456991764947e-01 7.703322679781683391e-01 -5.007338067933599923e-01
2.163249700943514486e-01 1.003128667145965214e-01 -8.183336160219191191e-01
-1.630061046350038401e-01 -3.990152263925178522e-01 -4.007860209542635777e-01
-2.783554685946270091e-01 3.209059365857021007e-01 7.967369746302736810e-02
-4.257870736569304704e-01 -6.408932574008594507e-01 -6.934730918041993875e-02
-2.290900123598982874e-01 -6.843994860338189490e-01 -4.084915646039753434e-01
-4.298799964902174642e-01 -1.474789306210568529e-01 1.374167776750323533e-01
-4.527218311070215218e-01 -3.099121911235615257e-02 2.219864492942342782e-01
9.532856689845214948e-02 -4.126129185233131658e-01 -8.285498648967026813e-01
-5.384311954740812478e-01 2.797972659022709419e-01 4.881004723269983803e-01
-4.947429917128838839e-01 -4.159183083631802780e-01 1.345866088643920266e-01
-3.478597348295017211e-01 -5.764894865428239479e-01 -1.706051475791441618e-01
-3.103676016893259226e-01 2.696410299589501736e-01 1.112104250238004077e-01
-5.264515212576021952e-01 4.298048445800147777e-01 5.293460473237663333e-01
-5.627573551939140106e-01 -6.690173222958658572e-01 1.431277287188823244e-01
1.515593411922324385e-01 4.812756492393561181e-01 -5.579973809632334802e-01
4.537289228167567384e-02 9.389465562443035651e-01 -1.988541633356668281e-01
2.267471886437780471e-01 2.679371429874169083e-02 -8.651800380955728675e-01
-2.824714345013203398e-01 6.988129338769816234e-01 2.396384760102149292e-01
2.357982292540867497e-01 7.170623372923887184e-02 -8.617624970617178137e-01
-3.941280483555525960e-01 -2.819811732743074395e-01 2.444072277631846590e-02
-7.014746823067248283e-01 -5.498652033273968565e-01 4.181772259880895404e-01
2.447307792145409777e-01 4.161898902324968064e-01 -7.366784271603443734e-01
2.605090899126629167e-01 -4.384180106407176841e-02 -9.490060782434709408e-01
-1.649343077360687915e-01 5.093000688895247263e-01 -2.932233235940456123e-02
-6.296277187071023240e-01 -6.958010900999171966e-01 2.415673550321190133e-01
-2.057315914442127414e-01 6.782124346027789130e-01 1.058532972778121334e-01
2.517694122741493540e-02 -3.715259861275244657e-01 -6.972261542155060443e-01
-3.296558756087752950e-01 -4.549437489965122566e-02 1.495326888119324210e-02
1.872102885953159934e-02 1.265075579947605444e-01 -4.847266990439020873e-01
-4.759363109383009105e-01 -6.493778934719851570e-01 9.181599908575569305e-03
-1.687204948605133814e-01 -3.748554994412952590e-01 -3.816492956520580737e-01
-2.648461977195986083e-01 -1.073319606804358783e-01 -1.160531500362207702e-01
-1.047600789071831129e-01 6.208657448518607735e-02 -3.090178334444564912e-01
-2.654558983144634787e-01 2.031837601566624796e-01 1.085417579514676850e-02
-4.065313051305691761e-01 2.854898615897627501e-01 2.748173121028877897e-01
-5.476855027213147764e-01 -6.855418536742778901e-01 1.117921442769701790e-01
-3.746363687250374164e-01 7.445058302569862452e-01 4.088107875641319722e-01
-2.037291149342413885e-02 6.595099972162059565e-01 -2.047006123992586857e-01
-5.830029429380025885e-01 3.689006719746924512e-01 5.970838240897478055e-01
-6.371225538130139698e-01 2.133182399477023261e-01 6.224557764236581248e-01
-2.972393038014412014e-01 1.850955097818861583e-01 5.546982137833181975e-02
-1.717035430728639234e-01 -4.453872946152598322e-01 -4.053733588659748088e-01
-3.555441152736593668e-01 4.710139461698980567e-01 2.667063436253277464e-01
-5.515104451869921043e-01 -1.677071755415758259e-01 3.280204032992351526e-01
-1.049958116769370980e-01 -7.519690577784012842e-01 -6.387232776844474769e-01
-3.757455486924071719e-01 -4.074477985388574863e-01 -5.648098188531637531e-02
-2.505697144083866013e-01 3.886787850744419237e-01 6.173881250778338881e-02
-3.212657568958650067e-01 -5.192018999625295228e-01 -1.908437247933248981e-01
-4.071223290729305000e-01 4.003997692796467528e-02 1.762560729200329801e-01
-4.688905035333925664e-01 2.152740199134775267e-01 3.482721662116279315e-01
1.476204130294243577e-01 -8.286411343324570633e-02 2.239348133650013173e-01
2.463653757143254575e-01 -4.259220983986419101e-02 7.886518795295327511e-02
1.862376637584679528e-01 3.920615411926069993e-01 3.533918167800619292e-01
2.363708827043838889e-01 5.935007519876780435e-01 3.531300822088974667e-01
-1.777620149431949070e-01 2.547178467911979660e-01 8.926608772978791295e-01
6.563759248187361894e-01 6.449240014254794540e-01 -3.125200122693765903e-01
5.438903823380430991e-01 5.507551326591339502e-02 -3.678386561599941706e-01
5.350127554277162023e-01 7.055765915587318693e-01 -8.955695330901675133e-02
3.655543869549000568e-01 6.799911142738819525e-02 -7.110663844958217683e-02
6.134062580106788287e-01 -1.208795763309586657e-01 -5.528108068518894358e-01
2.140942529229206137e-01 5.382300689326511289e-01 3.671297512257473139e-01
5.913194184676345833e-01 2.625409810587682191e-01 -3.612367998571254790e-01
4.143074835931632727e-01 5.887460489376475925e-01 6.036327664190280218e-02
-1.529052628545266301e-01 -2.735629663110055732e-01 6.378201592579274548e-01
6.985479647544812210e-01 1.341162945017803643e-01 -5.885775539633896214e-01
-2.627571832816302244e-01 -5.324449624947722448e-01 7.124001703198042934e-01
1.517443932001609763e-01 6.239434834456913936e-01 5.037969675257978341e-01
6.528163739499764917e-01 4.862053893084825051e-01 -3.710605773421313258e-01
-1.255449808684789004e-01 -5.153695055370624556e-02 6.831287024996466339e-01
-5.754522620198452426e-02 -7.776034004333434169e-01 2.775704591765763007e-01
5.938404737379820997e-01 5.182928117341183416e-01 -2.616528849672900559e-01
-2.332337817248084921e-01 -3.619469445579611144e-01 7.332790313669815818e-01
-2.919623239745102183e-01 -5.180036916721014739e-01 7.659919899747276162e-01
-5.786506183795162017e-02 1.436691494159011376e-03 5.939855617426409440e-01
-9.184205832594849808e-03 1.929596947557739956e-03 5.146161735208488741e-01
-3.212445776798848740e-02 -4.430284889741933907e-01 3.716865126398543051e-01
4.045981488102520784e-01 7.322647523157087279e-02 -1.328043460713591306e-01
-1.489149245816047407e-01 -5.722823276441817431e-01 5.101704497289679674e-01
2.920325750774914741e-01 -5.135170250344395226e-01 -1.867331392308994586e-01
3.415433877348817981e-01 -2.588890406217790874e-01 -1.644100734119507412e-01
-5.695411546146032095e-02 2.241188922196387656e-01 6.827918355926190230e-01
-7.515364632471603634e-02 -1.738990106218089859e-01 5.511471638460403444e-01
3.745958777874037193e-01 5.033189965476055905e-01 9.063247462834385371e-02
2.972419220132036521e-01 -6.047805171300570937e-01 -2.322542179087269676e-01
6.300299868830353534e-01 -8.908041301164909553e-02 -5.670882105505384851e-01
6.104905912085046849e-01 4.341223659315161520e-01 -3.229978428342193952e-01
5.475740523571428486e-01 3.758392352968517036e-01 -2.437934259943342341e-01
4.646478192426345410e-01 -4.085716709870631513e-01 -4.263199575708814248e-01
6.535856403853808061e-01 3.272776923327926357e-01 -4.367614112407262050e-01
-1.648532261929571141e-01 9.746082640093721439e-02 8.077953364783998502e-01
2.579457230302285020e-01 -1.699102373166863078e-01 8.310933196649482671e-03
3.712068475673657164e-01 7.064101914399985027e-01 1.785231543799087883e-01
-2.534261383703992690e-02 -1.361349512892839342e-01 4.850435425995771044e-01
2.136632455246069984e-01 -8.024218527965498726e-01 -1.757856130189830446e-01
3.919550698169173564e-01 -3.962638348671300714e-01 -3.025123715644247313e-01
6.734549601245432005e-01 4.893910091257693828e-01 -4.035027803472463481e-01
4.309276245167079078e-02 3.090991584697800887e-01 5.537229764694397982e-01
-6.620981605684826687e-02 -8.975825873118589149e-01 2.430825397504113583e-01
3.743989803629246826e-02 1.895528472879026427e-01 5.144878936685192139e-01
4.137094970047265341e-01 -7.905801309994757789e-03 -1.805951793262609018e-01
-9.801695483552907984e-02 -7.193006254579646652e-02 6.298647332309248448e-01
5.140377615472829786e-01 4.983206116831100374e-01 -1.393132122718841737e-01
1.208309568459473154e-01 4.851309213775784057e-01 4.980382392287605042e-01
3.659015403071295136e-01 -5.671537845744729633e-01 -3.292216908559027488e-01
2.348466120940874147e-01 -5.495693246195636483e-01 -1.078810339016309239e-01
2.205687452348183836e-02 -6.144187521528268192e-01 2.136297858559557672e-01
4.565596978482138191e-01 6.969638779759201874e-01 3.518284678146135075e-02
1.604072393633538263e-01 -6.820472325901256738e-01 -3.992763061127978241e-02
4.621756777564550722e-01 4.575059971832530770e-01 -7.109409806308210344e-02
-4.612669931282521035e-02 -4.270677020145083325e-01 4.010452170370063518e-01
2.834782499589669214e-01 -4.585318354103212202e-01 -1.504551255871683091e-01
-8.650861348286248420e-02 -2.375968970465007490e-01 5.438781464675220834e-01
3.924069802858785871e-02 -7.686794722569924021e-01 1.229916332221665659e-01
-1.571139688963794911e-02 -4.163536590455312325e-01 3.556755857468182347e-01
4.836134475425475365e-01 -1.944828105558676912e-02 -2.995341070833660302e-01
-4.784513522915922329e-02 -1.916257854058167065e-01 4.993231644222445031e-01
1.884546404581735335e-01 -4.940396598383574311e-02 1.707586634746089405e-01
1.504923113891979969e-01 7.533611895786682111e-02 2.833891546999866007e-01
3.672098207799869840e-01 -6.484164387814110864e-01 -3.643112130318035269e-01
5.520269463907417906e-01 -3.333696534452923466e-01 -5.386482488421673320e-01
4.553508417749583814e-01 -1.320575075772741080e-01 -2.990004705248158756e-01
2.002733027850934489e-01 3.546539473864894487e-02 1.858545710864332456e-01
-2.128922543096356534e-01 -8.516585233955452361e-02 8.122623772743967629e-01
8.191628998570620046e-02 7.140006106746940029e-01 6.544487622957779749e-01
-5.190194920526373934e-02 -1.258669944582885281e-01 5.326185382080063091e-01
1.786498563944285689e-01 -4.922459865797127465e-01 7.217014855332732487e-03
5.867651591582855319e-01 -4.169127183072370846e-01 -6.293039497660823933e-01
2.231786406921340560e-01 -2.784271264383696987e-01 2.113558828211556731e-02
1.794345900690138274e-01 7.940354887891082347e-01 5.275075828682724843e-01
3.675030778981912966e-02 -5.106548004419889653e-01 2.316884091480469476e-01
2.924476651078151690e-01 -5.640771066521987898e-02 -2.058725894009765921e-03
4.849051076972600294e-01 -1.049891909985629646e-01 -3.363312496269972862e-01
1.945836315740782363e-01 -2.360442259219631966e-01 8.506017143545581416e-02
5.136122748382041525e-01 7.127801959793437225e-01 -5.165670964634459100e-02
6.773375785677886451e-01 -2.178863885224564534e-01 -6.966422843518098595e-01
2.722539857242269878e-01 6.679515340890405106e-01 3.246678443944152614e-01
4.386806205044683216e-01 1.542622649224268394e-01 -1.556532879706273020e-01
5.014937990149764824e-01 -2.612686639501960451e-01 -4.268152362863723015e-01
7.422192675655442384e-02 -2.771379520580383726e-01 2.651292979614834344e-01
1.603566836062112200e-01 -2.472787904004606352e-01 1.364489026054687137e-01
-2.993603360496752824e-02 -9.094415072806855127e-01 1.789840828396784267e-01
2.380459393364296738e-01 6.500949497480298378e-01 3.733405233690368918e-01
-9.091321775728490595e-02 3.297200534069798933e-02 6.607902706191181030e-01
-7.461872845097718143e-02 -1.780874792911340820e-01 5.485744574909401372e-01
4.889972072124746383e-01 7.968414560811458713e-01 2.266275056951599226e-02
-5.323564239963528288e-02 -3.401148128145950467e-01 4.479232982752557879e-01
-6.922496402922358183e-02 5.106696850011462757e-02 6.326779548562012634e-01
-1.816142364669709117e-02 -9.127676135968296744e-01 1.583896867359198268e-01
5.681651994418248641e-01 4.388441198108376518e-01 -2.519020247880591201e-01
2.381806981810576374e-01 -5.871449909791401911e-01 -1.285671509611362173e-01
6.193718559366079290e-02 -2.923196338809758155e-01 2.790527998292883227e-01
1.134459925203909481e-01 -1.481591234926114553e-01 2.533167621881916021e-01
2.498183317039159024e-01 -6.472141079092654792e-01 -1.719463348489536636e-01
3.716725560401968886e-01 1.744937584482209036e-01 -3.792440853289831548e-02
9.318730467271418849e-02 6.673504297300364430e-01 6.171100532429787400e-01
1.298164781775712207e-01 -9.877584388901106127e-01 -1.138893686121980608e-01
1.934891187849192007e-01 -2.397719751610171701e-01 8.533759952841016294e-02
4.192809025536731182e-01 5.317227836138211927e-01 2.911186566395208147e-02
2.804211222355435518e-01 2.316492479199365462e-01 1.344027366195214013e-01
6.086891948054603541e-01 -6.798970801714587786e-02 -5.236544592132222897e-01
-1.765355721881538276e-01 -2.345139178297054872e-01 6.922780592046409165e-01
5.650920944466724105e-01 -2.420422984271212163e-01 -5.229710855014301218e-01
4.078764186684462612e-01 1.660382453585485807e-01 -1.005285362547976014e-01
3.431618938959014598e-01 6.623953442982124518e-01 2.065153155084258896e-01
-2.142677142047200722e-01 -2.842973224928682097e-01 7.337649210025676272e-01
1.774056656120694131e-01 -5.962293557512822195e-01 -3.291347633887954649e-02
-1.673311155122172988e-01 -1.203930382705746122e-01 7.235080816748171717e-01
4.885447611343924357e-01 -2.740655925350544142e-01 -4.108389443806034769e-01
2.413328864574908750e-01 -2.843863357508714662e-01 -1.095406934009689540e-02
3.075551349417451341e-01 -2.780806030300891352e-01 -1.166379680226116849e-01
8.158415341588326486e-02 6.549239304180451970e-01 6.310366875511727036e-01
3.825038790939981892e-01 -6.695125639505002946e-01 -3.978637265539076706e-01
5.742999864846243252e-01 1.689372694390371132e-01 -3.713736918519546792e-01
8.133901500638775206e-02 -7.739786697048669506e-01 5.203282365032348838e-02
-2.303658356236636118e-01 -1.532103635508841044e-01 8.132317752969858704e-01
4.362701883634641509e-01 -1.504445645748549165e-01 -2.752687396309947410e-01
5.666633813978440015e-01 -4.748521651171254132e-01 -6.199412489382600810e-01
-2.730959536465483173e-01 -5.004575867612995888e-01 7.422695095553742961e-01
8.370613713585120519e-02 -2.496006667586602168e-01 2.607933500237955005e-01
2.100606518329755645e-01 -7.574771053374153018e-01 -1.516725354328345154e-01
9.462195410555854225e-02 -9.098775141659860566e-01 -2.478375970620347660e-02
1.046439798444583069e-01 -7.073703674719604428e-02 2.990975421952344893e-01
2.726235394812235313e-01 -6.790551763910016581e-01 -2.221328416700092401e-01
3.701849641651382972e-01 -5.584014187006790531e-01 -3.326739924084595179e-01
4.422916880060048794e-01 5.504587553338121664e-01 -9.022169492277707769e-04
4.348175695972727461e-01 -5.981968758749443144e-02 -2.361470152930036648e-01
5.326848848232400568e-01 -5.337919580794128205e-01 -5.883025676094296719e-01
2.350749602426769058e-01 -3.828031856327527294e-01 -4.063240574533600463e-02
1.326125891735678575e-01 2.445052053392897662e-01 3.812099406773989951e-01
-1.047348884309144135e-01 -4.338288168370554310e-01 4.940992210904814885e-01
1.770889660962576551e-01 1.880882599947043543e-01 2.856364790225252026e-01
5.096353088980368901e-02 -6.510614154192344571e-01 1.515234168339213983e-01
6.869151365495663741e-01 1.347377307057429918e-01 -5.693116157593428595e-01
1.982803672689223140e-01 -4.734233857770596132e-01 -1.723685424423283818e-02
4.152962039025160368e-01 -4.075671839213635406e-01 -3.452470312817590981e-01
4.927676494182792744e-01 -5.495765657538320692e-01 -5.294580085165636607e-01
6.434866538678510883e-01 -1.731312286686337298e-01 -6.231649388316941041e-01
-1.225028823473909706e-01 2.672827522277899104e-01 8.074343077370008670e-01
1.096271474300108822e-01 5.261895904818825057e-04 3.198489814093999906e-01
6.307936566800227407e-01 1.285208683741336649e-02 -5.270039092092199118e-01
-1.305378939603695498e-01 1.395166800890682013e-01 7.687598398169377401e-01
2.293458595644205511e-01 4.559976955632953355e-01 3.088565381144326993e-01
3.242527317113892416e-01 -1.638050366362690247e-01 -9.759282029153655558e-02
3.904688488284414616e-01 -9.652156168096903688e-02 -1.785408824645060288e-01
-1.916918818287032811e-01 -8.075064804007799912e-01 4.847088861395087434e-01
-6.554272101863667377e-02 4.038962743723212290e-01 7.697277647995061090e-01
3.980775193137094936e-01 6.850559384311670774e-01 1.259439037688301066e-01
6.090737400129671020e-01 6.557545588362916344e-01 -2.308125316844842345e-01
-2.444407307132119012e-01 -5.818790612920697880e-01 6.624167870370746281e-01
-9.663023088930841609e-02 -6.210365212462071183e-01 4.049413935766728589e-01
8.094706796513397029e-02 5.050507317470877000e-01 5.713060483761739361e-01
5.364775646270653064e-01 3.746973477106848582e-01 -2.261191493883281944e-01
6.997204775349322725e-01 5.120274336871476484e-01 -4.372551574556393095e-01
4.817955294591840798e-01 1.780603742701782066e-01 -2.164750823240605970e-01
-6.398802294961228321e-02 -3.280598820424562856e-01 4.703862959537899457e-01
2.433106399162481281e-01 -2.811887677376810335e-01 -1.289014425973354291e-02
2.695942694908447582e-02 -3.586496587505776379e-01 3.093281240774588547e-01
1.993380196547095418e-02 -6.329440091022323078e-02 4.405749269135310620e-01
-1.212804048157246628e-01 4.403689300758802938e-01 8.756207306911025778e-01
8.022593002668765294e-02 -2.520374278838190610e-02 3.574723017721246343e-01
7.770789918947146324e-02 2.773097909035318054e-01 4.842540086344575001e-01
2.620426521079255999e-01 -7.396691258324145091e-01 -2.294165956874724133e-01
3.019534543903029111e-01 -6.029172164840607140e-01 -2.391997077412701400e-01
6.699377924890260738e-01 6.511230357893612597e-01 -3.321733541850394045e-01
1.043231308156132298e-01 -1.433293580203920947e-01 2.701865716703793496e-01
-1.255423699354547840e-01 -4.855599075299406042e-01 5.071328216772492681e-01
7.006002195572449964e-02 -3.170980974726623769e-01 2.557285586666936394e-01
-3.426347868131317254e-02 2.368521982658171599e-01 6.508670226082771126e-01
-9.595468133074455674e-02 -5.916819998103238776e-01 4.157401431622421706e-01
-1.167360342899101538e-01 -9.112201577942167230e-01 3.201381681259516943e-01
2.022093016224460194e-01 5.461341690015117933e-01 3.897608280890420551e-01
2.563558113541412609e-01 1.867211321392402423e-01 1.555198186083162626e-01
6.936933987495252918e-02 2.710283749191061409e-01 4.953364055996065107e-01
3.284613011454451947e-01 6.403585559418386586e-01 2.216078749613757115e-01
1.150814415918600953e-01 -1.977938917639895933e-01 2.305172458257715440e-01
7.431358257265095746e-02 2.118736767213222350e-01 4.632684104913167844e-01
9.819444196009688430e-02 -3.227963309113949797e-01 2.074320477727191470e-01
3.066606476981846852e-01 8.147781414320887095e-02 3.062112666488658874e-02
5.803922005633494960e-03 -3.070464959439805561e-03 4.880904853604616789e-01
-1.021278859447618675e-01 -1.073800319769378647e-01 6.222095045859897811e-01
2.434273058125805411e-01 -3.523590446549520472e-01 -4.193961289617164495e-02
4.473323018243870464e-01 1.122179060760829378e-01 -1.868430642496007044e-01
2.810265304025261202e-01 8.197338353799756838e-01 3.718751295884193397e-01
4.351001359147239067e-01 -5.849235004364622403e-01 -4.495327870994732522e-01
5.251120208382188403e-01 -5.651164712078333985e-03 -3.617692820831442946e-01
3.701735221002266929e-01 2.138124661720293695e-01 -1.953091475467468377e-02
4.714273982493383808e-01 -2.219658392244766021e-01 -3.617345888972373635e-01
1.565102055843858031e-01 -5.126508119985835610e-02 2.222174406441537464e-01
3.140756471143242856e-01 2.515504242047483796e-01 8.746385297657899294e-02
-1.288181946211344742e-01 -4.486592064152597481e-02 6.911838275193903369e-01
4.665192717957570845e-01 -3.874199644426472577e-01 -4.208020738702800134e-01
-2.204542042746004959e-01 -3.934646731817167398e-01 6.996106098716180499e-01
4.201124648120860838e-01 7.309067068795643829e-02 -1.582176893423161423e-01
2.852452508849707691e-01 8.212656470341398451e-01 3.656007296160205255e-01
1.631032570618834721e-01 -7.699537629254907811e-01 -7.997944048519160798e-02
3.178344329726209838e-01 -1.716063905705150945e-03 -2.137673391902894515e-02
3.898333142119557171e-01 -7.159552487795812770e-01 -4.286757542343186400e-01
-1.964012988235991700e-02 -5.781966578371608989e-01 2.964715468728318370e-01
1.973419668083804257e-01 -1.212948004529389168e-01 1.270813005251667793e-01
8.267035281998241433e-03 1.745256983505350801e-01 5.560778293845086706e-01
-9.815494159310123035e-02 4.454267922985420403e-01 8.398728809137254725e-01
-1.126117385660109355e-01 -5.854966957733442889e-02 6.591456308162917388e-01
-1.348203637692584334e-01 -8.636264040962254862e-01 3.689959043004973904e-01
1.177326386122533319e-01 -1.605419473142140896e-01 2.412891031145164566e-01
-1.344434399783386580e-01 2.069394452054111044e-01 8.024826884142201022e-01
4.017738515027163282e-01 7.623327931745320640e-01 1.512371471858825756e-01
6.796152892774272314e-02 -6.685300223513428453e-01 1.166567193382324896e-01
5.041024185011862002e-01 2.161047183813735381e-02 -3.163746170963259163e-01
-9.192482893405547195e-02 -4.204929297961599310e-01 4.785686323088156335e-01
5.136679149926416388e-01 -2.537868142203586475e-02 -3.510630923593972552e-01
-1.333265990282102575e-01 -3.112918510459604660e-01 5.905200190430854867e-01
-1.293164806164968095e-01 -3.639047808324481492e-01 5.626314740098841138e-01
9.051193996026944688e-02 2.355433368757845480e-01 4.463898543748066605e-01
3.527290219069852406e-01 -4.859429407456131861e-02 -9.742083918224042627e-02
-2.600799559698593541e-02 3.490043367313078182e-01 6.828498469381241165e-01
2.629694827642132804e-01 -3.061553653880305648e-01 -5.514636840533627266e-02
6.570194854573421228e-01 6.499071504739738492e-01 -3.115513043553188033e-01
6.278383653286701005e-01 4.727906317526427982e-01 -3.356733576481336634e-01
4.683264603265982484e-01 -6.857249132305358319e-02 -2.944667376136359538e-01
1.808570926288787517e-01 2.554181171084095037e-01 3.067789740802627230e-01
5.596538932675561018e-01 3.239824409325403054e-01 -2.845653935136686630e-01
-1.322791906850704913e-01 -1.927070129527941322e-01 6.368928904087228782e-01
-3.804856782088247846e-02 7.208613461348105378e-02 5.902429255096288685e-01
2.012357753626483128e-02 3.439295309512276355e-01 6.053896356893901931e-01
1.049951567968271104e-01 -7.671939552343829110e-04 3.268955548310476522e-01
5.554734399334705641e-02 2.023696080679490139e-01 4.900881834443022167e-01
6.300986688598035901e-01 4.699240811001645368e-01 -3.405301974742186988e-01
-6.721192539701226383e-03 9.485799444693555904e-02 5.482718179781056467e-01
3.951616220263227119e-01 -4.243344312799885998e-01 -3.191358304359984133e-01
-2.086747212881859270e-01 -6.792491401602502865e-01 5.644744395155996131e-01
2.037819193881730273e-01 8.064058483104070696e-01 4.927277215323955795e-01
-2.965861485096395189e-02 -5.585946015285710997e-01 3.207952639903897119e-01
-1.436726150015888055e-02 -1.552371620100982674e-01 4.593584999448117601e-01
5.000906250260598318e-01 7.792830288949480488e-01 -2.589283548908862757e-03
3.586400128562876044e-01 6.329503318947261592e-01 1.692765699146537017e-01
2.098224010412133578e-01 -2.226796657284027814e-01 6.557146305856106916e-02
-1.185204828770355934e-01 -2.534382545632711259e-01 5.897783089138747270e-01
1.467220793613189384e-02 -3.664379050938151305e-01 3.262536341066401557e-01
2.664052103322479548e-01 -3.072106999581514231e-01 -6.119001987800486847e-02
1.038610737281457502e-01 -2.399605166368972142e-01 2.317589184092353483e-01
-1.727908433400533461e-01 8.340658345971112275e-02 8.150705929674276762e-01
6.129095707071358090e-01 7.100909445549835608e-01 -2.150494117012753115e-01
2.635563450799885410e-01 -8.530945147560956010e-02 3.344502904887079048e-02
1.161294468569337435e-01 -3.407719758404049726e-01 1.708282065045165499e-01
-1.550005079124936180e-01 -4.370538872223763693e-01 5.749510548154135314e-01
1.209617258789935229e-01 -5.926321961822885731e-01 6.080321264555679783e-02
5.033160445231231739e-01 5.715366535543097148e-01 -9.210016554579383841e-02
-2.210115609270769110e-01 -2.559145176891446452e-02 8.496902250180554672e-01
-1.337557241033809075e-01 -8.968846734992712566e-01 3.537698736744180894e-01
-1.645753658146086873e-01 4.225867051098074201e-02 7.849572944595902824e-01
3.949022846700363520e-01 -2.215870605510410485e-01 -2.365000761658941353e-01
2.424686351510191018e-01 2.991686275602131739e-01 2.238147641290808565e-01
3.094444179919587645e-01 -2.603766949719195090e-01 -1.125472733983038653e-01
-3.530209886978778744e-02 -5.634757150462851305e-01 3.280403459109394460e-01
1.138689818068956000e-01 -3.032438804158745782e-01 1.897401917261275495e-01
-2.897579702526659542e-02 9.252213351381199935e-02 5.836999841221613972e-01
3.985389666556553023e-01 1.398330921355199485e-01 -9.589230091949935142e-02
3.676043865531060661e-01 -7.067396655535104766e-02 -1.306878122840488265e-01
2.384351580688342798e-01 -3.118564290339307862e-02 9.645243283364855758e-02
1.994814446390426044e-01 2.305460170342624529e-02 1.821164273826672841e-01
6.044339599700181420e-01 -5.292756473940828446e-03 -4.912763076665954132e-01
5.768264788451150649e-01 7.379794527886042177e-01 -1.447628155019093643e-01
3.859811581990901241e-01 6.036450663505993353e-01 1.127042768155468583e-01
-1.482159125346920181e-01 -8.969573422079920588e-01 3.773757031884515944e-01
5.414306958182704133e-01 4.649881322458536137e-01 -1.976031464584052377e-01
-1.819457892865560533e-01 -2.188137381642897283e-01 7.074873561525257815e-01
4.531139566950852515e-01 -6.387522381186943043e-01 -5.008034947781194735e-01
6.185156513796208344e-01 5.683643400991098549e-01 -2.816812009932871397e-01
4.860287698402427359e-01 2.701474960472949674e-02 -2.846417148363071248e-01
2.304059881179220393e-01 -4.635925387681947285e-01 -6.576014135241353697e-02
-1.871055822947538805e-01 -8.291986694104876154e-02 7.710245743987784728e-01
2.076288552763835816e-04 1.348420401053630480e-01 5.531597008305455532e-01
5.976624246845670951e-01 1.847592737970732424e-01 -4.031441359864320617e-01
-2.820683580883236452e-01 -4.232898949598526972e-01 7.882256418955370103e-01
4.489555800086255100e-01 5.682169218929066234e-01 -4.593658351349966078e-03
4.772045587565698077e-01 -9.555626629028811381e-02 -3.199196906869706813e-01
1.222018996271694302e-01 -4.067321945134760308e-01 1.341565779122430302e-01
2.589122147013058206e-01 -4.655357090863407876e-01 -1.131417356629727811e-01
5.505985475368765369e-01 -3.456283855818007011e-01 -5.412843025198680325e-01
1.586303644429416515e-01 -1.888945546690950772e-01 1.629447612657752842e-01
3.455282488049996603e-01 -6.665722924074237721e-01 -3.362345090741770681e-01
-1.077201876964578864e-01 -8.329608166790205548e-01 3.371350094713215784e-01
2.079941972254691074e-01 3.946124103378274017e-01 3.188649352805383863e-01
5.368997052280187754e-01 4.448352823041552551e-01 -1.983689680078376538e-01
1.290282559077076119e-01 -1.603685193250243279e-01 2.228966477218164155e-01
3.779151467914928508e-01 7.751056398816279502e-01 1.954136457100137114e-01
1.437129001017896646e-01 -6.796701452218242290e-01 -1.167671376490455638e-02
3.660172014973175347e-01 -1.094792685382102448e-01 -1.438286754775770504e-01
4.700291045730395911e-01 4.632318935041175867e-01 -8.160879921817015825e-02
-1.206445449468099840e-01 -3.754158066821947637e-01 5.437895280120320640e-01
-1.752592210416714091e-01 -7.240250043190636919e-01 4.917004034430811910e-01
-2.723749704630596957e-01 -6.110930757877645059e-01 6.962295628614287857e-01
-1.451916292235806982e-01 -1.269224731966724640e-01 6.846732956075789467e-01
5.127512025193904366e-01 -2.440298727705409731e-01 -4.382254107875281357e-01
-8.512701526148622189e-02 -3.232527626995720382e-01 5.068873861239334699e-01
4.846172219888060795e-01 4.458533689986296511e-01 -1.124999997390784684e-01
-3.910505566451241005e-02 -8.217351431123842698e-02 5.294191448457087334e-01
7.230739975547804954e-02 -7.912614867350234449e-02 3.485502518785958959e-01
-2.704488893882769363e-01 -1.216784194508070127e-01 8.915337156634557392e-01
2.614412865861966973e-01 -4.231038512853822486e-01 -1.000698650236368920e-01
-2.836840475650587168e-01 -5.343996309165691128e-02 9.408366453751744185e-01
-1.581191214750442275e-01 2.616433775628352332e-01 8.633626355683658993e-01
2.022715540614199448e-01 -5.113663865457026558e-01 -3.914595789303699364e-02
4.360434342254633777e-01 -6.636386682567713136e-02 -2.408042949002920374e-01
1.911054796241937748e-01 1.546634640429467022e-01 2.491729802546282235e-01
7.273036262074872305e-01 1.225188182534883707e-01 -6.402815682039452172e-01
1.527680039168167470e-01 -3.944175373562485709e-01 8.918949147761057183e-02
-5.827216233640908349e-02 -6.642243629162397633e-01 3.247326152470541571e-01
