1.696478743602356787e-01 6.678150754604642025e-02 -8.568962053918778299e-01
-1.356971825348808058e-01 -3.174605550556295341e-01 -7.616695381945169929e-01
-8.244378118761965801e-01 -4.819393397378561421e-03 3.211548090101684627e-01
-5.147702547361722170e-01 1.032348870071064240e-01 -6.314872885341137332e-01
6.876337749750559558e-01 -4.832504894516405636e-01 -1.662398564746604968e-01
-4.149658476373895843e-01 3.907715558627765096e-01 6.096980710253893099e-01
6.581664507603273151e-01 3.129852385665471415e-01 5.515095027185735743e-01
6.556157908869528761e-01 3.999424692656169400e-01 5.561125231955614812e-01
4.025670178283550227e-01 -6.741827551801509166e-01 -4.749197269073440753e-01
-9.150179690069548677e-01 -2.444667104057460238e-01 -8.576925263153802048e-02
4.866735925880287805e-01 2.804255852676945659e-02 6.812209433483006338e-01
6.178518705224445018e-01 -7.263459654527221199e-01 -7.239787751024674700e-02
-6.736482504042277109e-01 4.784477432210503256e-01 1.827968648729274004e-01
-4.171328213408190821e-01 -5.646843527714302813e-02 8.001338872923159373e-01
9.543809412405529491e-01 2.842947901752951312e-01 -2.853180974629692668e-01
6.358113870594868100e-01 8.870037101692004877e-02 -6.725587940404286202e-01
9.007840861204252647e-01 2.393886775320535065e-01 1.886307641672705093e-01
-6.685984062168430775e-01 4.066905670336243839e-01 2.798115909360284759e-01
6.547574775390457846e-01 3.075239767619859510e-01 -7.664051712679158523e-01
7.823845891113119233e-01 5.186467057795661750e-01 4.483989467347335167e-01
-6.746136074779255365e-01 5.290629714115498983e-01 -2.197562060372774684e-01
-8.320195302538069271e-01 6.557305509518521203e-02 -7.170799236302109747e-02
8.480530455347637941e-01 -8.716577167803044035e-02 1.375809283936757672e-02
-6.134425986917748652e-01 6.639418191459550700e-01 1.370746231250355163e-01
6.569207873623156280e-01 -6.748323727635541225e-01 1.448678692831895654e-01
9.347573524784211774e-01 3.014563818500705650e-01 -3.834137831582700717e-01
-3.278311726367880707e-01 6.350189899272999927e-01 -7.713830811130216736e-01
5.217942063721652257e-01 -6.887757315244397160e-01 5.690200956709938751e-01
-6.255795303512948768e-01 6.238215608165149639e-01 -3.179574655030325547e-01
8.122597244855184195e-01 3.966022578088640449e-01 3.987064369879979031e-01
-5.728466498825101061e-01 5.865925028224044935e-01 -4.720678243295655108e-01
7.625769574085262681e-01 4.998647298864445365e-01 4.665557485461567233e-01
7.980588734892684055e-01 -2.360444635386378665e-01 -6.589026666439024016e-02
3.584826871446814001e-01 -6.210281578575204131e-01 -5.377366763028027519e-01
5.294639013337617411e-02 6.915854807637220603e-01 6.834618061790748156e-01
-5.137371420243418418e-01 4.273010479675825035e-01 -6.017073520482121296e-01
-8.047960839049744797e-01 1.252782065802878486e-01 2.047844850697757291e-01
7.891268740953706340e-01 -2.321798862350910875e-01 1.481347207603386507e-01
6.263378296724813055e-01 -7.553832362422919777e-01 2.196911550016213688e-01
3.123824351600708593e-01 5.121535965611659913e-01 7.118091614868788941e-01
-3.886072216671195845e-01 4.956651549063258444e-01 5.786429856748388501e-01
-4.558986954375349177e-01 -3.892089414150608495e-01 -6.581339188816637265e-01
-2.883034327301575162e-01 -3.198330582415381262e-01 9.257272252760359033e-01
-6.737438218130645806e-01 1.911476609944736671e-01 -4.272841194511500240e-01
-6.756814702848611409e-01 2.567257110729496694e-01 -4.016341428301042904e-01
-8.969551447805312883e-01 -1.426132025239741641e-01 2.445686815033002171e-01
4.963456652275423375e-02 -4.903275216587925645e-01 -7.148689454901513418e-01
-9.579712657708415735e-01 -4.151648631849725879e-01 -8.891114022856652643e-02
-7.359802960251239368e-01 6.085115864322213942e-03 4.964357093202416138e-01
-8.040145529505910993e-01 1.668178331198932884e-01 1.127884650424229585e-01
1.469129257387338516e-01 -1.402049622984794519e-01 -8.018547163097601294e-01
-2.491541960011274190e-02 -6.091443705958112798e-01 -6.912333215134285336e-01
4.751268500215319324e-01 -8.565099921017990670e-02 6.902130502126302414e-01
-4.544539846099835967e-01 6.699122886849790959e-01 4.229447879094322960e-01
-9.289250676331670675e-01 -2.031156891108435447e-01 1.285825207093603817e-01
1.694997514111525050e-02 1.560181524143927079e-01 -8.756306373646115526e-01
-4.595322729972261544e-01 8.526574291126464145e-01 2.928169582398839621e-01
-2.491901094445451159e-01 1.670215760898534629e-01 -8.039450900942735068e-01
6.578091220289826735e-01 3.786354620798382947e-02 -6.249787803686278620e-01
6.641376795953382040e-01 -6.509841054043106201e-01 5.420356525973123174e-02
7.845948287947172028e-01 -2.396746638476558444e-01 1.612962349952569985e-01
-9.492928489066143616e-02 -3.950851691736863014e-01 9.488054047546551351e-01
-9.599516482465878520e-01 -3.115807569225435003e-01 5.817104037936434574e-02
-6.566561000680407600e-01 2.457007675196357099e-01 -4.392549619624681601e-01
8.798447773220444135e-02 3.223427604846982875e-01 7.794926579817953449e-01
8.036201679446739465e-01 3.167462436866281261e-01 3.951324078494451997e-01
-9.196117610065110970e-01 -3.529546318113049863e-01 -1.555765258295683795e-01
-4.825732655974238061e-01 -1.416057144318657590e-01 8.027637137222453090e-01
-1.711073939648549980e-01 -1.583258226102784161e-01 -7.856291415587288718e-01
5.370199390060820255e-01 2.635145540917601115e-01 6.422350720757691311e-01
-6.842253154236174195e-01 1.712988118886616395e-01 4.532803430275251788e-01
3.066302964357737193e-01 3.133589713886831274e-01 -9.094739298394493021e-01
-3.576883169068728607e-02 -2.775562167047850304e-01 9.181257467054214638e-01
5.368480448351825585e-01 4.718349591282025579e-01 6.323145772815321752e-01
-8.992495126184791854e-01 -2.212188482430069436e-01 3.600808481055279286e-01
-9.657955882469938524e-01 -3.262868449458607434e-01 7.257561726038901095e-02
6.791359140621490154e-01 -5.604231830866931441e-01 -8.031871721055498792e-02
-8.709086626201069103e-01 -1.390830770906515690e-01 -1.458375763287121374e-01
6.413402235479772305e-03 -6.905212508355743073e-02 -8.265378955666825567e-01
8.452558866828702167e-01 4.305587923586243204e-02 -3.361413687166853181e-01
-5.844280305864147929e-01 8.413658579246686697e-01 -2.146400253960215332e-01
1.559347145498548026e-01 -4.956178288923731023e-01 8.975841128654554746e-01
-2.030881531387958849e-01 -3.701661743975764862e-01 9.469111539698834568e-01
4.089492131914716500e-01 3.670409899758443617e-02 7.295493212231441982e-01
-7.264732402784789267e-01 4.090768793904477341e-01 -9.869129216162157714e-02
2.313625662208858569e-01 -4.351122161872768013e-01 8.561347207473543053e-01
-7.107980253273037119e-02 3.022527839076248890e-01 -8.844247694594958853e-01
-7.318741157994831381e-01 -3.077252718731587344e-01 -4.496650035286907654e-01
6.141073374874040924e-01 1.495720614486199529e-01 -7.203858395397950698e-01
3.833021552406809529e-01 -3.875962599656170293e-01 -6.285968884856175665e-01
-1.447775337315712618e-01 1.450456876535357043e-01 -8.400731037740042373e-01
-5.940537167781941852e-01 -2.785735440354967229e-01 7.977318408839041419e-01
-6.292998885229803552e-01 6.415340405558448422e-01 -2.864212753480938067e-01
-8.169874616043891757e-01 1.273540773481334765e-01 1.213161961885039636e-01
7.534419077066253356e-01 -3.227591349273567500e-01 2.013004047377410233e-01
-8.610391892357545096e-01 -2.630061847201612540e-02 2.045432286564723978e-01
-5.383855512857891323e-01 5.237361779210969459e-01 -5.498784302112182942e-01
6.583807648568382742e-01 -6.707432812932785371e-01 1.409336295965801233e-01
-5.599042660585056286e-01 -1.938972343195190240e-01 -6.023513717839036330e-01
-5.230003821545359255e-01 3.356564481892186924e-01 -6.037079252593029466e-01
-3.849264324410176519e-01 1.886960509450137935e-01 7.179123664472388811e-01
-4.618516379079336542e-01 8.179954827959642905e-02 -6.749775870470918759e-01
7.609961634099844385e-01 3.643439694883797708e-01 4.548656690953827297e-01
8.868747607096136853e-01 9.252577032832222381e-02 -2.617492974098622471e-01
-7.063795642366611505e-01 4.018946102491950945e-01 -2.330394696091253326e-01
6.450887612893004830e-01 -2.542564058624846024e-01 -4.591523633869081245e-01
6.411986128834592513e-01 -9.042206599499358344e-02 -5.681332562957154275e-01
5.731440157034318750e-01 -8.370188488629012324e-01 -7.787979763091795737e-02
-7.111768953718176078e-01 3.953835647976109979e-01 1.641075624370393338e-01
-7.003924166251328520e-01 3.621129286196497210e-01 -2.888843160505580876e-01
5.115637579903167254e-01 -8.423302563612448113e-01 -2.242941894209317111e-01
7.837751523735891901e-01 2.979612195754471338e-01 4.177731128466907751e-01
-8.382981131744734471e-01 -3.731105140151230182e-01 -3.224471990528787191e-01
8.729412239293995457e-01 1.499469235413412316e-01 2.066132125187574720e-01
-6.751152929334948150e-01 3.983653885191190125e-01 -3.353001232262781683e-01
4.101504558650150289e-01 -1.044622872237159078e-01 7.353683763385890915e-01
2.392879279236510004e-01 3.456314009769758111e-01 7.560301701250377038e-01
1.539349036835717215e-02 -4.145254518154474210e-01 -7.405946343232767681e-01
2.223829901709373572e-02 -6.488975388782128872e-01 -6.723383104689079071e-01
4.098112947319068056e-01 -7.249624488032476721e-01 -4.402514144889972392e-01
-5.527383196820461198e-01 4.286797893708599316e-01 -5.509100667968349629e-01
7.000755240491971509e-01 -2.704952313698727462e-01 3.917108893002803627e-01
-6.368976358878932764e-01 4.793916618739858526e-01 -3.841155807208767037e-01
-1.546216811624797627e-01 5.929765572425538256e-01 6.640147960771857205e-01
4.947292349522025567e-01 -5.397657616136845027e-01 6.395853829899559306e-01
-7.928974518700671048e-01 1.311520408682922967e-01 -1.748282462592715136e-01
-4.607313668691172537e-01 2.643849501106145250e-01 6.368579476090232561e-01
-8.116590308176723223e-01 -3.530094504195734340e-01 -3.568591210185229068e-01
-4.785536968587184581e-01 3.463866081744301773e-01 5.817394854221742406e-01
2.721512111585456251e-01 3.793276124526494542e-01 -9.322098070631437139e-01
2.668172360107473606e-01 -1.409637711111616232e-01 -7.757084031728984641e-01
4.442024312812852815e-01 -7.340543287736550626e-01 -3.986622877235858065e-01
1.794262729360314168e-01 -3.715616204128956435e-01 -7.235876440442554625e-01
8.949306488920114599e-01 4.639353055719970254e-01 2.956745220393318663e-01
1.250118266057238525e-01 7.208107074351725874e-02 -8.610229423370318047e-01
-3.011942391420004972e-01 -6.268516355655173733e-01 -6.772424391360576390e-01
-8.106183802640618552e-01 1.219274587741381033e-01 -1.040396793853240603e-01
-1.337922361105030877e-01 -3.518858012171183769e-01 -7.547903354166377587e-01
4.991814003440462333e-01 -7.671993161137953265e-01 -3.046397552786507812e-01
-3.488563070734856386e-01 4.323320970429609389e-01 -7.585017441153776296e-01
7.210466605840719634e-01 -3.397413015203799014e-01 -2.420390905314950825e-01
7.279855975993951844e-01 3.797082188425077859e-02 4.410390624810309745e-01
-6.504409682309966190e-01 6.371171932720165465e-01 1.126911344603529494e-03
-9.148152100599764580e-01 -3.811251977845194761e-01 -1.830427443045392344e-01
-3.683473296859280932e-01 7.216471382499289877e-01 4.806166999190067957e-01
-2.193786397734483196e-01 3.434740452620107382e-02 8.320550099402171940e-01
2.054332741115865585e-02 6.596230801651877806e-01 6.879042382824305246e-01
7.280863809975242074e-01 2.512580552137837486e-01 4.776931490570872629e-01
-8.463281090622316594e-01 -2.622276864329283197e-01 5.234463302111199701e-01
-2.804408303618108889e-01 4.360050336832865109e-02 8.139506094363528899e-01
-5.599239147968461117e-01 -4.623120182029786390e-02 -5.985990923474697745e-01
-9.202494073443441280e-01 -1.957763751110492834e-01 1.318472743006895813e-02
-8.197682774034322772e-01 -4.121539066836776150e-02 3.754009012293537673e-01
2.802607059322822711e-02 1.556768278612697884e-02 8.508234154665745841e-01
4.859788633846885697e-02 -3.874681886542580833e-01 9.214776363529452174e-01
5.768008648331096611e-01 1.465693828907671525e-01 6.141601398435768688e-01
7.289291832405455640e-01 2.246914992468841965e-01 -6.598602627156184841e-01
9.483954132302692130e-01 3.027546630683520812e-01 -3.402615336839789340e-01
1.206477658217092325e-01 -4.220582820150518555e-01 9.037522656291900880e-01
-8.708278819842462104e-01 -9.890798225192834470e-02 2.896385250938002254e-01
5.064970943653113178e-01 -7.007726463250827376e-01 5.900903440766129826e-01
-5.906584812764097137e-02 -4.373089963547504566e-01 -7.386364354379942876e-01
6.277909482243521078e-01 -6.806083417269364055e-01 -1.026789945397045961e-01
-2.856323283051535600e-01 -3.149726460583920917e-01 9.247162965482810248e-01
5.539645252308915691e-01 -4.858861190732309265e-01 5.718659366888307893e-01
4.399549950782382646e-01 -4.781533910383764518e-01 7.059117042447686785e-01
5.691597752234757168e-01 -3.454971357018641470e-02 -6.644737036438875810e-01
-4.387439806749757754e-01 9.418175011863570978e-01 2.582134285522138528e-01
-5.499133934352723463e-01 4.299605458184512230e-01 -5.545541940469022046e-01
6.814300721303248043e-01 -2.493645517939350187e-01 4.352565584724739089e-01
3.936425994881512791e-01 -4.810368599136175538e-01 7.477206587052714903e-01
7.983069028280527224e-01 -1.859341056205081055e-01 -1.846907097393585551e-01
1.556654123339165086e-01 -2.800205412198778498e-01 8.735445257180309842e-01
1.260501212958388961e-01 2.997915723624979822e-01 7.818030649066187721e-01
2.847368271871633660e-01 -8.519632945033001059e-01 -4.808944027263139520e-01
-5.765244475441194671e-01 -3.824966333769477811e-01 -5.891915711061767036e-01
1.276984871473459127e-01 -2.646070454457215004e-01 -7.685660316736214748e-01
-9.278771569302829425e-02 5.220724054341395748e-01 7.070743358543862822e-01
-6.579633812493967948e-01 6.231787532288022291e-01 -3.126050052022709413e-02
7.937450952587548070e-01 -7.172861807534219869e-02 2.781751494305784722e-01
-3.043152832787962558e-01 5.368990468063808974e-01 6.156282838131693635e-01
-4.993519336802768604e-01 6.506555097103968732e-01 3.792851733569471695e-01
8.953122543252060028e-01 5.625232041365539615e-02 -1.067010780157805483e-01
-5.040505491644227121e-01 5.310478250809732570e-01 4.514249361337869249e-01
3.706999672486701591e-01 -5.470626847923631964e-01 -5.641260225545601248e-01
-6.099989410058299644e-01 7.572524642329727662e-01 -1.665581689848881150e-02
-5.886254423387985574e-02 4.450759052624732037e-01 -9.087377455001868221e-01
-9.408029028573978714e-01 -2.674709960648722351e-01 9.660402826187819772e-03
4.671064259197774682e-01 3.698220384804994376e-01 -8.881730974842914073e-01
-8.417757989582345945e-02 -5.142884403679504057e-01 -7.200746112945255462e-01
4.359314747596959583e-02 -8.127578599195578457e-01 -6.149188072818598805e-01
6.685862628487816428e-01 -4.233132502984366385e-01 3.884741888164060519e-01
-6.842672641001344980e-01 -2.944106862393189861e-01 7.390469880989563034e-01
4.119742973850419876e-01 2.810768345089938447e-01 7.090939486795007074e-01
-7.745483263337241686e-01 2.867849949783437668e-03 4.323924955172054330e-01
-6.735630350302048708e-01 5.640448137406787188e-01 -1.603814743504609619e-01
4.805929324542661529e-01 6.157617520395199939e-01 6.453884469512198852e-01
4.612387288289352405e-01 -8.413352822798119135e-01 -3.069615730752651150e-01
-7.254719122006924037e-01 2.597146269479300162e-01 -2.881066721038201828e-01
-2.459133477152090352e-01 -1.410164321793428710e-01 -7.687003974845468823e-01
-7.628034118626227933e-01 2.905970695326741127e-01 -9.396826171267509686e-02
2.538777695910025556e-01 -3.874203262988287766e-01 8.409597523999803315e-01
-1.418985742495513236e-01 -2.200061344384270368e-01 9.109876531147195200e-01
6.543200369840029840e-01 -6.078488844217935227e-01 -1.096506268173191578e-01
-1.349578841916259098e-01 -3.896189757818510069e-01 9.507160543003435604e-01
-7.511815506121489738e-01 -1.242668899052966625e-01 5.673853222380927930e-01
7.460966742438240873e-01 -1.712778257056862818e-01 3.384521934072888261e-01
-6.948165357474767045e-01 4.889001437913298997e-01 6.847459882864087577e-02
4.219164432781446483e-01 -2.165023866731802249e-01 7.295175459186900024e-01
-8.588922829152708660e-01 -2.859831743990342082e-02 2.219526351079223747e-01
-5.754429880720319801e-01 6.665464882161932225e-01 2.364418074598313713e-01
7.396951780670715237e-01 -3.647699922348147661e-01 -1.428461388657215336e-01
-6.591793044595484208e-01 1.113335203481081170e-01 -4.702790274000294146e-01
6.952940649783502236e-01 -4.311868914398249153e-01 3.123078933729173667e-01
-5.454340314124713762e-01 -1.981788799641868298e-02 7.111859685070514026e-01
2.802819938590969673e-01 -2.819950568787909020e-03 -8.176420645720006153e-01
-6.649788607539279806e-01 4.359766229449354991e-01 -3.387419060273709759e-01
-5.787217955194651209e-01 -3.917557097056612037e-02 -5.813417047854948505e-01
4.520853209126938776e-01 7.131414846605593771e-01 6.432261200270287249e-01
8.765161720440850512e-02 -4.215509950617715718e-01 9.150254751727638913e-01
-9.466818571572637175e-01 -2.758453346426237296e-01 3.509484656265025176e-02
-5.295994979902327593e-01 7.509190994941123964e-01 -4.909540410155550649e-01
5.549719721455219634e-01 -2.546867881506175713e-01 -5.616103614588437987e-01
-7.073627576392710337e-01 -2.994746592365132853e-01 -4.754068552526879987e-01
5.984127536803154346e-01 -8.416015937420507909e-01 2.387008518967905779e-01
3.022226379283492470e-01 -6.299831884016060535e-01 -5.713967346338121311e-01
3.202971223107790588e-01 -5.338665456544783305e-01 -6.025438635273469012e-01
-6.793842190132818801e-03 1.031474977573202251e-01 8.330525915360109668e-01
-6.394250931462822640e-01 4.751762968851605540e-01 2.790992458443483648e-01
4.917845607200211910e-01 -6.877850678820771613e-01 6.153061503866283921e-01
8.056628445187358212e-02 7.890692501367528866e-01 6.593803665863334773e-01
2.619493832952904389e-01 8.709580578782948404e-03 -8.256724130159249775e-01
-6.298789023492251671e-01 2.015325607942345110e-01 5.085181308697659386e-01
-8.715881708628677726e-01 -1.936421839699998537e-01 -1.835565426287281143e-01
-1.707797952372048789e-01 3.788632115023519709e-01 -8.591083919639387334e-01
-8.180804048054228783e-01 -3.756645148077725760e-01 -3.527616883862656483e-01
-7.582280562048182571e-01 3.088997278226168763e-01 -8.487088253045833863e-02
2.602721259596866843e-01 3.608275653242402625e-01 7.489201784823862340e-01
-8.748413705014972397e-01 -1.084595101884046481e-01 2.883310341648173125e-01
8.426419881077368279e-01 2.030833659581545991e-01 3.010549230928176723e-01
1.782083695869245699e-01 4.546737477099677682e-01 7.443002697449143668e-01
2.253731055849443887e-01 2.131821394064551678e-01 -8.914564424203125226e-01
4.239899274876544055e-01 -8.447765372286151209e-01 -3.533738818220247824e-01
-7.754122797170936998e-01 -4.728177698429581466e-01 -4.212782209017269519e-01
-7.978725801581206811e-01 1.868555438390649415e-01 -5.711948246922588651e-02
9.063370326915907160e-01 2.079364461113017981e-01 -3.545785985716622402e-01
-1.388665914140450597e-01 5.401022692796832170e-02 -8.280735979829808580e-01
9.632712379446227713e-01 2.738415113030266967e-01 -2.008947985686494186e-01
-1.820885816321144435e-01 -9.276871678352763273e-02 -7.938695968925276736e-01
-7.046113295101155138e-01 9.257332808564253113e-02 4.804336440041337419e-01
-4.681204848763094728e-01 7.555965992379850560e-01 3.498787133657237369e-01
-5.613141729918727507e-02 -4.151929662484987738e-01 9.479313316386903665e-01
5.331396818046602037e-01 -6.810390569506022396e-02 6.440313532610776326e-01
4.514192353791597889e-01 -7.478166204233622771e-01 -3.817756998693371262e-01
-7.133322191313598015e-01 2.815485286215086425e-01 -3.068283632271499028e-01
2.502892626710417900e-01 -2.818921519112818630e-01 8.347097872521189732e-01
-1.174950488821136785e-01 2.428863474542931056e-01 7.880458029204219228e-01
-4.503840790689424278e-02 -5.061526631134409815e-01 -7.207521728434086450e-01
-8.267913946167571027e-01 -2.482331256594400848e-01 5.453242712532084813e-01
-7.392849244040826662e-01 -3.013194902075961856e-01 -4.403464516896192782e-01
4.049076232583233015e-01 -8.725854633551521911e-02 -7.426075760518817681e-01
5.085727576534091465e-01 3.184150482991285891e-01 -8.533874099088823995e-01
7.603616937136167264e-01 2.009310277157579649e-01 4.304083187662148813e-01
-1.545457078895033365e-01 4.315588297557017006e-01 7.202169777157708674e-01
1.553295787110587356e-01 3.444925966296359388e-01 -9.268057149407452622e-01
7.960905485450314734e-01 -6.334873935934007272e-02 2.771390577995883064e-01
7.079154780839175265e-02 -1.758067563424969282e-01 8.814380309186167217e-01
-5.172213793786126779e-01 3.682392601534183463e-01 5.340204824114986870e-01
9.333474411980355670e-03 -2.640017501236273725e-02 8.613711019606061781e-01
2.386410207796916816e-01 -2.399200533389592160e-01 8.362342373769926507e-01
-7.923256050118048233e-01 1.755408405368628633e-01 -1.215665983201844602e-01
8.376046383279024399e-01 -1.230144905410342493e-01 -1.095152754686887220e-02
5.927487783225589002e-01 -4.863040966171870982e-01 -3.693923732922170799e-01
1.161034110621061849e-01 -3.422438756982225105e-01 -7.474363821404601538e-01
9.001140185004719019e-01 2.555765266113580458e-01 2.002284017786135351e-01
2.520646981101499207e-01 -3.667676330381630101e-01 -7.014965402330793909e-01
-5.132085503405046101e-01 3.394951368521865742e-01 5.540851268727332579e-01
4.399132693433912555e-01 -4.863565133276956387e-01 -5.409274934374748156e-01
2.684150864877777320e-01 -4.546383933628509455e-01 8.366907595887478344e-01
-4.289486493043099813e-01 4.942618511892736821e-01 -6.867601194432807477e-01
-2.406778127590214200e-01 3.186090023138308802e-01 -8.211250253894397666e-01
8.112024829014847782e-01 -1.728069898664278681e-01 1.175955681321520230e-01
5.756085468413758566e-01 -7.351095034328178901e-01 4.426013748365505429e-01
-7.108958470325005274e-01 4.654182181287436215e-01 -3.412713792484904640e-02
6.456004028528669059e-01 -5.101199938478276907e-01 -2.511943275924834462e-01
1.303100430362424678e-01 4.624723818540820708e-01 7.458437045690227141e-01
2.625037841079078116e-01 4.710836701334386034e-01 7.292415763521924443e-01
5.569410550520317305e-01 -1.428146318772312851e-01 -6.195911694736889741e-01
1.858379980658935726e-01 2.434562435554467330e-02 8.214059005975671290e-01
8.605252086562861225e-01 -5.185314042396910184e-02 -6.853312511259590512e-02
5.581804086185675473e-01 -6.285354437732135757e-01 5.259394880322680876e-01
6.111336413240672227e-01 -7.545602729973038825e-01 -5.515962836637198358e-02
-6.584358724923096429e-02 -4.614933504292233479e-01 -7.327881907129627503e-01
3.132827795804515314e-01 3.818506859395982000e-01 -9.282788136688915337e-01
4.708219727839191848e-01 -5.367545952940824261e-01 6.679836224950475021e-01
5.719573861969444728e-01 -4.385769402718682763e-01 -4.319967376679412219e-01
-4.244700263991711409e-01 9.374146230457611750e-01 2.836272458983566391e-01
7.663584908885522351e-01 -3.357546001637410904e-01 8.344486012854276935e-02
-8.284691745652890127e-01 1.012702151945110568e-01 8.975048303017534035e-02
8.441228198086654366e-01 2.650278702926989194e-01 -5.406955235610415578e-01
-5.204504671786781556e-01 1.573400479630406301e-01 -6.232916788485581838e-01
-5.544765873129640088e-01 7.509233534408600308e-01 -4.347092925854545986e-01
-6.504667244137881353e-03 7.961771311307674903e-01 6.402002808110729415e-01
-7.282979211513509465e-01 -1.657343339179263020e-01 -4.322150950553904081e-01
4.556803560790156915e-01 -2.537594003956569061e-02 -7.421561090358141932e-01
-6.538023550897090752e-01 4.408929429115369669e-01 -3.643754195886990122e-01
-1.098791405615415356e-01 4.704186587667451569e-01 -8.939431594892079946e-01
3.727511188267443321e-02 -5.322089207563802660e-01 -7.045588958445982986e-01
5.148913122543776755e-01 -3.481965621482561168e-01 6.415757395973628041e-01
7.877820257861111175e-01 -5.042585555567918876e-02 3.041618408460231571e-01
5.742763558971255428e-02 -7.901179937388470575e-01 -6.184879115384223081e-01
-9.064994021191585816e-01 -2.656982140361327516e-01 -1.334283608859668235e-01
8.628438366849927599e-02 -5.487951980985626976e-01 -6.898397663974311644e-01
-9.442754122981660281e-01 -2.821183656506460746e-01 4.701165433673186109e-03
8.109107113519103960e-01 -1.786224861113538953e-01 -1.308291677308526246e-01
-6.748304787703404140e-01 5.238429727850424378e-01 1.085389154725401317e-01
-2.242366735352805951e-01 3.075607684939297148e-01 -8.282452264316723101e-01
4.219489198763381466e-01 5.962172241890226904e-02 7.209101942338379532e-01
2.980213591950595653e-01 6.961243654206701326e-01 6.811841062808505765e-01
-6.117999117792456421e-01 6.498049115363790929e-01 1.606378395912027857e-01
-8.337138763927093299e-01 -1.118304231843185031e-01 -2.319870135651159460e-01
-6.708886195884690151e-01 3.188224732676531170e-02 -4.705862281342736431e-01
-8.150021302666675682e-01 5.103479918965207057e-02 -1.706108023494338766e-01
-5.814171585003489184e-01 3.724041385040544050e-01 -5.226768819683975664e-01
1.309200539395258545e-01 1.734457903025187278e-02 -8.466738798654663833e-01
-8.885570611348730941e-01 -1.387952956025531037e-01 -7.761579404316469588e-02
-5.385282693938394649e-01 6.968799028852313837e-01 2.831904798677081780e-01
6.016905643947205728e-01 -8.456535117192136575e-01 1.728497050928326229e-01
-1.692285908274134693e-02 2.085138241905292733e-01 -8.808225521995585172e-01
-4.554818389115899979e-01 5.182680478262680079e-01 5.104207161750170529e-01
-1.615559280274970477e-01 5.357514782653637342e-01 -8.776054726417584773e-01
-6.812688265296953372e-01 2.034897144510105019e-02 -4.588652783880290964e-01
-8.849118851142565578e-01 -9.219818834195171731e-02 -2.369283839196324043e-02
-6.729556702657285561e-02 4.299459110909795156e-02 -8.415372058453188808e-01
-5.669902559021634536e-01 2.705993927544093625e-01 5.389329589065595671e-01
-9.784386079009010917e-02 -4.254610555516373793e-01 9.553985260718673711e-01
3.421879431960104245e-01 -4.594569702893189223e-01 -6.218771889771677053e-01
-5.791155284708552342e-01 5.012731858538563845e-01 -4.909641371618519434e-01
5.994225822637636591e-01 2.521928330381225658e-01 5.980149833695085348e-01
-6.712647296760885229e-01 -1.636491830729103203e-01 -4.994173660035393647e-01
1.012853919082192314e-02 6.350491657575275672e-01 6.934377940080662661e-01
-7.910948216168779412e-01 -4.122517891655992639e-02 4.387928419926547252e-01
-6.065997259945750120e-01 7.852274293004922745e-01 -1.123940018332217211e-01
5.078438644719474038e-01 3.002564899592569114e-02 6.660368071430440295e-01
-6.665619374388466190e-01 5.944581781406647059e-01 -1.304345596812799338e-02
5.493956350999658067e-01 -8.721113464850867025e-01 -1.080243529123384033e-01
8.932147416504752080e-01 3.458169818458072808e-01 2.588713444599910485e-01
-8.270308560785633034e-02 4.666369931149626504e-01 -9.036042403903509213e-01
-2.238819798331345978e-01 -5.923670463498376115e-01 -6.955516180360613587e-01
-7.010893383570540038e-01 4.317989636686792032e-01 1.477861180270422237e-01
-4.111524266168782860e-01 -1.099014857367478087e-01 8.229688343279624174e-01
6.210109368604331825e-01 5.608870245243726682e-01 5.788171232006175115e-01
-2.049605525958395624e-01 -1.537081090727231980e-01 8.895044504535224439e-01
6.505170214110035376e-01 -2.702733339302862969e-01 -4.403424108406803206e-01
5.479534207664766843e-01 -2.317024149267870037e-01 -5.806481218324109905e-01
8.351951143502209796e-01 -1.973727060124252225e-02 1.947431352119758097e-01
8.960285663034457393e-01 3.812494875497005609e-01 2.669978983139000284e-01
5.446206319835338039e-02 2.238802859642249898e-01 8.032946847429869308e-01
6.429224097522889814e-01 -2.672412126348721606e-01 -4.531770423455278030e-01
5.594215213094644312e-01 -6.427597954719783679e-01 5.187513941904638992e-01
4.669128037277483489e-01 -5.523071705332289749e-01 -4.811072520173559353e-01
4.257009094688442019e-01 -4.980360372006602948e-02 7.236341962630904456e-01
-6.306555224155331318e-01 5.619090233217195474e-01 -3.504728687475371363e-01
7.847316740287144654e-01 -2.221299981542975699e-01 -1.837954432145677830e-01
-5.462219399730953162e-01 -1.205963989719092688e-01 -6.121008701354848647e-01
3.126452958255683812e-01 -5.969056787023089283e-01 -5.795970677962832829e-01
4.297975953209554056e-01 1.948431738816205350e-01 -8.389523897070751968e-01
6.199922616979889334e-01 -4.955953625796468698e-01 -3.165496146008982548e-01
5.775397060499490864e-01 1.306921750456124798e-01 -7.373311733283851588e-01
7.864072237652837138e-01 -2.739167264151032843e-01 -4.770195011550215636e-02
-5.380520626360751901e-01 -5.538029394925617632e-01 -6.041915656226624076e-01
-3.739330553292694037e-01 -1.195428793559803887e-01 8.404797951097529030e-01
3.672685826511055129e-01 -1.014014994656081137e-01 -7.540215246974248942e-01
9.671483862366880846e-01 3.348568514866832602e-01 4.631756247588554587e-02
2.982890753950953044e-01 7.784820468897390988e-02 7.777543210175160704e-01
2.448401335668692613e-01 -5.591230575450683027e-01 -6.317312779515613652e-01
3.753621094768762601e-01 2.125893986615105258e-01 -8.629203636083092599e-01
-7.374548810734834481e-01 7.263858576439263803e-02 4.420902573860884810e-01
-5.664611212574700572e-01 -2.315052594736965730e-01 7.940097319165733136e-01
-4.118265310824801850e-01 -6.040077963830033925e-01 -6.522957150505590551e-01
-4.904970648118326532e-02 7.083876847642965879e-01 6.577340404103788618e-01
7.158258753773434624e-02 -2.872136920735524068e-01 -7.698261128985324220e-01
-7.527430206904806020e-01 1.328373666271669140e-01 3.578938380119238150e-01
6.498491801967608561e-01 -6.297146544790968026e-01 2.907791400337927379e-01
7.210977168457471942e-01 -4.154134240615770524e-01 2.332446780071689429e-01
-2.044143210327591942e-01 -7.015540941347436776e-01 -6.737990310493674473e-01
-6.416225381775072512e-01 2.673703027188272796e-01 4.472507525268011874e-01
-3.027466916376870265e-01 -7.955354540004097585e-02 -7.559421787478527444e-01
-4.526950606599362548e-01 4.300006572062491095e-02 -6.814606224282363511e-01
9.370035486564417537e-01 1.813705054283568652e-01 -1.005465606116312111e-01
-8.585520260459045261e-01 -2.362796982795487555e-01 4.781610404904648171e-01
-5.622685211772237013e-01 7.220048625857420355e-01 -4.317844979795091298e-01
7.458334333696616802e-01 -1.869388305133434236e-01 3.311235225149841699e-01
4.051211729416277496e-01 -8.909932063965358973e-01 -3.467765931088737652e-01
-6.197157937889489210e-01 -2.961262610938270035e-01 -5.567237095589692153e-01
-2.621070789417100921e-01 -5.663677940108028525e-02 8.511920151281638924e-01
-2.919669573629027348e-01 9.181984402227766351e-01 4.439330981586097624e-01
-5.452895168713295382e-01 7.632557724542896049e-02 6.644515210367816227e-01
2.472061433835384126e-01 4.872003848054061725e-01 7.289250734718379920e-01
1.018110068146639569e-01 2.609243781109528079e-02 -8.501811213687152646e-01
-7.253187969471558416e-01 -6.247679831870920492e-02 5.601172921268248173e-01
7.176125276359736072e-01 -4.889747386794457418e-01 9.838218462477467396e-02
5.370465258625852778e-01 -7.647127841482181942e-01 -2.426947352844754935e-01
-2.450890507648681438e-01 -1.165742196639805821e-02 8.408661128582839428e-01
4.417875858122969346e-01 -5.988626915655730354e-01 6.926863326195411563e-01
2.623194976069599949e-01 -4.703935101390610551e-01 -6.583557706067393323e-01
-8.011559158606071929e-01 1.746938833414396208e-01 1.136475041000423042e-01
-7.012044738957604606e-01 4.494690471967048850e-01 -1.972774074040563874e-01
6.260150658642833488e-01 -5.218160137701637336e-01 4.356595797126036618e-01
-5.376511991884073138e-01 1.134136440395868556e-01 6.519388971310635661e-01
3.193459919730400332e-01 5.216169829784785689e-02 7.720960276302268888e-01
-6.177094411302371801e-01 -1.989098001716371397e-02 -5.412030802903279314e-01
-3.662196509179377890e-01 6.081750426827683409e-01 -7.386957280352439703e-01
-4.554104578231329414e-01 7.109483274193454383e-01 3.960322265560735633e-01
-9.701182758714677057e-01 -3.392244919660096780e-01 7.684886143016834981e-02
-6.267964223573941895e-01 4.805540013228050689e-01 -4.065427900218636648e-01
8.233763834600370535e-01 1.387727099436742578e-02 2.531491061633408535e-01
-1.401490399487624328e-01 2.491696765536427771e-01 -8.558253348681335027e-01
1.979244697914753492e-01 5.434734692440345016e-01 7.237293354561420422e-01
-4.571018609818293665e-01 -2.648306171548495680e-01 -6.667990167939991109e-01
-2.161512168922860577e-02 8.307965006810675845e-01 6.247349378049948943e-01
8.478571872980464885e-01 -3.773976897777923251e-02 1.256848105749014954e-01
3.785607386224905668e-01 7.039710579151545744e-01 6.647265549040510813e-01
9.375953289389862277e-01 1.870238305561929271e-01 -5.437473585227223238e-02
1.059346801323870629e-01 -7.866337734146492400e-01 -6.036673508725259873e-01
9.425626051510334058e-01 4.300582705382727799e-01 1.926972124735065461e-01
-5.608446587403892458e-01 -6.355192553584432247e-01 -5.864898657939178195e-01
-4.463226414908749162e-01 6.099381990856670432e-01 -6.551051143081478845e-01
6.998077604755500447e-01 -3.106634739482290741e-01 3.739184306962679560e-01
-3.454458867101100061e-01 3.694143663467516214e-01 6.637643248985061195e-01
1.179942262865077141e-01 -7.043895224361438334e-01 -6.287229216564864664e-01
-5.240555537989806112e-01 4.270624179537892418e-01 4.923629636898486095e-01
-5.948135502188010015e-01 7.853509572120173088e-01 -2.606313028212015048e-01
-6.259136134714857747e-01 7.215454314835190175e-01 -5.552699757977756778e-02
3.485159100305785240e-01 -6.695953629556321562e-01 -5.216795417745349051e-01
6.768593799731995597e-01 -5.559011916873868309e-01 2.600145084640438919e-01
-3.818663286026551806e-01 8.599770490115982158e-01 3.890721328823072978e-01
-3.374800569245249293e-01 4.993408070104556756e-02 7.928346527525277354e-01
-5.354207908059305243e-01 4.388917599957171678e-01 4.721028429463495768e-01
3.015185515364141033e-01 -1.741655225543710384e-01 8.008645671523180187e-01
6.702508831246956067e-01 -3.046437888190561272e-01 -3.837560303620737301e-01
7.044850488901243102e-01 5.192783750623813921e-01 5.193444778352864777e-01
6.606575431443101332e-01 -6.311274243015829732e-01 -3.855507070448638968e-02
-9.641879811941728162e-01 -3.231474558211893111e-01 2.272971000260787799e-01
2.242439954041981764e-01 8.024445178271637225e-02 8.023226044668091417e-01
6.432506032344593727e-01 1.772238272786071378e-01 5.578355131377362719e-01
-7.292615416437638887e-01 -2.473581093833394640e-01 -4.444507215271467637e-01
-1.621442936806974100e-01 -7.711771450241760029e-01 -6.580284114534483697e-01
6.905124036319799652e-01 -3.212953057819964986e-01 3.892563441034200267e-01
-1.287168221896527361e-02 -6.018461553600235048e-01 -6.917907641609417624e-01
-4.647232639425120659e-01 -4.698609113651486952e-02 7.731963105310235562e-01
-2.841184242289742090e-01 2.053633480701952119e-01 -7.905176554470975114e-01
2.542192287507012427e-01 -1.123417553644011774e-01 8.165181607094069705e-01
3.155928208984822292e-01 -1.675210048580783873e-01 -7.500902208185816766e-01
-4.838925766962751673e-01 3.737923983477134948e-01 -6.418082176567131425e-01
-4.586404312443166931e-01 -4.935808164890513883e-01 -6.473026866216529118e-01
-3.540684214628311843e-01 1.574640849772738493e-01 -7.488795665642028476e-01
7.208221637681956340e-01 4.235600618115493154e-01 5.010257239712945232e-01
6.019054831758664514e-01 -1.279742509138883932e-01 -5.867626794143393498e-01
-3.302943972883386203e-02 5.728245883100671065e-01 7.043536724660212078e-01
-4.441625684056621504e-01 4.322638537236537792e-01 -6.767448922327330418e-01
1.105003331086999718e-01 -7.413520889111285816e-01 -6.182299758780498422e-01
-8.077464133246915479e-01 -6.328724565168568350e-02 -2.674554681331844375e-01
4.885085983000019283e-01 6.853466098593959943e-01 6.342652907738299817e-01
8.293460872757996150e-01 2.901499035513207536e-01 -5.811179398797211570e-01
1.943604625756374660e-01 2.960895022135111021e-01 7.734194793273962976e-01
7.081982561360412598e-01 -2.341219216468524156e-01 -3.742041119027097462e-01
-6.037269852263766889e-01 7.046690609156014418e-01 1.148088012042775274e-01
-6.029220547232899685e-01 5.825306233078576534e-01 2.565306928745752502e-01
-8.836309520842440257e-01 -1.183114005261573648e-01 2.664261109513799131e-01
-7.738645405745812056e-01 -4.447714454229075541e-03 4.400483377429476040e-01
-1.461972600595511790e-02 7.653735574431335120e-01 6.481124393111329374e-01
-4.344340942853495979e-02 -1.439451609831912116e-01 -8.069185557808448150e-01
5.369019313695230222e-01 -4.815934353902858178e-01 5.961086204276130340e-01
5.881118043522446381e-01 -1.047015344837466527e-01 -6.124143257376741811e-01
-9.406966375688300408e-01 -2.919221428436614141e-01 3.062055092178044835e-01
5.891019334352843861e-01 -8.124346223516029086e-01 -5.435688568717312458e-02
-5.301582851731138080e-01 9.070310237730416780e-01 9.156499868203941961e-02
-4.540691592790561115e-01 2.037726374354583980e-01 -6.793921088585958001e-01
-3.582509548890053797e-01 6.433816769531447433e-01 -7.439286520053477458e-01
-6.787362394525635612e-01 -5.472570101413098964e-01 -5.143959810627365403e-01
-2.039231061612458429e-01 -7.762054970978557976e-03 -8.003734354345183322e-01
5.201703047781964795e-01 5.009849962842997106e-01 6.388431463565715784e-01
1.503694419366565782e-01 -7.065320089847090257e-01 -6.160572304268612243e-01
7.386192478334100420e-01 -3.666871009468492537e-01 -1.443982229575799803e-01
4.636411409791817428e-01 -3.045921379982978183e-01 -6.126044700227868400e-01
6.857844246612344596e-01 -4.709596128328809028e-01 3.109252725198395906e-01
1.762355973186876534e-01 -6.348513456849774750e-01 -6.323618619624967740e-01
-5.686358777465465586e-01 1.126918599410761529e-01 -5.792826945859752552e-01
-6.095037138189965953e-01 2.019736464244471508e-01 -5.193985210790869056e-01
5.723688299406382018e-01 5.552934258549850899e-01 6.076768526738729470e-01
7.197000076113020395e-01 -4.817891348434163445e-01 2.041586534353269020e-02
6.590032577471942599e-01 -6.458504653786325544e-01 2.176281795700601152e-01
7.139583546271910386e-01 3.004669919565419178e-01 4.982172998012964205e-01
2.561242329961748165e-01 -4.698155472502886787e-01 -6.613150086454482324e-01
6.587438764835873428e-01 4.787712183467044968e-01 5.544685674818580212e-01
7.108341167076621669e-01 -3.989963381672347320e-01 2.883996291593841632e-01
-8.103067001543100278e-02 -2.348295587235898485e-01 -7.843676697716874813e-01
-8.813893922042574935e-01 -3.647105934404885064e-01 -2.460291198660186640e-01
-5.236625979108355811e-01 -3.950437261665025179e-01 -6.218960707496909990e-01
-5.846562786001122669e-01 6.200854166578511073e-01 2.604787062362209915e-01
-6.109754434730405581e-01 -8.015270793860221343e-02 6.902478854516903573e-01
-6.362587695522377018e-01 6.261191797920647728e-01 -2.745788316231791426e-01
1.391713956928362084e-01 -8.349960694820106610e-01 -5.723158646406532046e-01
-7.041470549129166256e-01 2.579260374699002822e-01 -3.422661732631003262e-01
-6.184983959228893546e-01 7.415013268926621270e-01 -4.712606005958439731e-02
-4.363489292432820577e-01 5.740376205187862624e-01 4.978765412062293172e-01
-2.035730645405422201e-01 7.515048316698992592e-02 -8.115896813417732281e-01
9.102858254035692820e-01 1.616738340080332015e-01 -2.747182116124221030e-01
-2.591942535037626283e-01 4.950439771425356739e-01 -8.209960834723309953e-01
3.547751758391786137e-01 -3.387097653679013720e-01 -6.659172525248833185e-01
-2.615108975069401209e-01 7.634621824450288363e-01 5.417530672970061190e-01
1.054776860264220462e-01 3.948650429950835705e-01 7.622515193668316646e-01
-3.160414773616338491e-01 3.682037748141391842e-01 6.799629972227386743e-01
1.591810066612434627e-01 1.987222434910801416e-01 7.974820275367906497e-01
-5.162976972012579546e-01 -1.096297626215798167e-03 -6.337138448433270455e-01
5.837913024119982808e-01 -8.659825180656019472e-02 5.955455645497462758e-01
5.657406299925984428e-01 4.811092972984054028e-01 6.156573192889887025e-01
-9.315144374042726438e-01 -2.297524617190622453e-01 2.246567632110719748e-01
5.024716219558825747e-01 1.036444586500713701e-02 -7.310096467441435930e-01
-1.992224971410365697e-01 -5.993410955582611360e-02 8.636896500283685052e-01
5.259697178669977546e-01 -5.104767469036618488e-01 6.050669043539781411e-01
-9.011268237252779700e-01 -2.993504468685657671e-01 4.446427100214376815e-01
-1.576914464145450778e-01 3.348025034277286593e-01 7.512722687627598761e-01
6.610300132960725827e-01 -4.038091197657177056e-01 -3.176338826008787142e-01
8.846111617630801893e-01 5.253685445839959695e-02 -1.975331271353772400e-01
-9.228742269547353105e-01 -2.782630573674053642e-01 3.569505839829040794e-01
8.172700901755020064e-01 -5.748253410855418133e-02 2.219200589266944190e-01
3.267189635829301775e-01 3.410205608529154331e-01 7.342077636275765595e-01
-2.116957279209636666e-01 -2.292486085333983736e-01 -7.645980287651693574e-01
2.785141078313077209e-02 -5.669789753797161991e-01 -6.958596991778166485e-01
-8.239355147470114327e-01 1.168134294340171103e-01 6.239964517605399268e-03
2.885795315491724300e-01 -6.683237723991149182e-02 7.973486986323239378e-01
4.644028111085571342e-01 1.514238339127312316e-01 -8.086178125535364858e-01
7.797265257157117713e-01 -1.012690746104095152e-01 -3.479950605622859072e-01
5.637184755343820353e-01 -8.611001608534795126e-01 -7.741202934206491137e-02
7.646496979389990623e-01 2.559126622838414286e-02 3.802311744017984330e-01
4.659223115960910988e-01 1.875981812432464535e-01 -8.218367443059761968e-01
1.138690896325187385e-01 -6.160891361856311033e-01 -6.605460387232084951e-01
-7.673733330695825527e-01 -2.814949200931267104e-01 -4.025822969979466204e-01
-4.935555555468680300e-01 7.810397489948678329e-01 2.931210904521982519e-01
7.493655635208724686e-01 -2.028407669766924271e-01 -3.170385472501012214e-01
-6.335783832121575365e-01 -1.984909242151972342e-01 7.317835934963236033e-01
-3.820138003304621721e-01 6.400644859488863192e-01 5.115695445019887710e-01
4.737273996801905952e-04 -2.230157059012350673e-01 -7.903972625611292990e-01
6.095707010300437378e-01 3.186755788500461040e-01 5.907935305998450737e-01
4.902745175878338024e-01 -3.845858951677342263e-01 6.636571537763723549e-01
1.546652887500450102e-01 -8.664910123873070802e-01 -5.528381996305686830e-01
5.615106304690415939e-01 -7.675875987974536407e-01 4.590803994728758775e-01
4.092009449836817177e-04 -8.126536507312866198e-02 -8.234954536860483731e-01
-4.203209101795358782e-01 4.082825355683932650e-02 7.601624732904377346e-01
-7.171061996497353208e-01 1.326676552744231186e-01 -3.698969324776645307e-01
-7.439574309262266816e-01 -3.845070114026578056e-01 -4.454514066345529044e-01
-1.130907984447504511e-01 -6.391919134221716314e-01 -6.897069123643536637e-01
7.483917198307908913e-01 -3.673170702109340713e-01 -9.176114819201167117e-02
6.753195270005449835e-01 -5.670730429226281677e-01 -8.667185281741329739e-02
-6.328053962810755717e-01 1.238087792773142209e-01 5.543540365586898666e-01
4.950359377628359980e-01 -8.719667062128455548e-02 6.749163632200588792e-01
-5.316152581191008197e-01 -5.785345479116275891e-02 -6.225898577057340511e-01
-9.556696496301748667e-01 -4.084903277048281267e-01 -9.091522956209385775e-02
-5.690062491688934188e-01 1.934621610355495569e-01 5.813612243236909727e-01
-9.011720659756273788e-01 -3.267412916105710274e-01 -1.865321249851432106e-01
9.315636337844310222e-02 -2.050810251381419980e-01 -7.901810802106677967e-01
-7.033460114281567810e-01 2.859658253366398339e-01 3.197227894622138300e-01
-1.618832711140220093e-01 -3.493201058325876573e-01 -7.520205879434429530e-01
9.235781482891733951e-01 3.067477920924417401e-01 1.701711878187774640e-01
-1.973524444075365758e-01 7.871758023077680966e-02 8.228794360108294681e-01
1.795063071447909053e-01 3.417229910182142394e-01 -9.265704380832670006e-01
6.401270239427238051e-01 -5.846214016003694613e-01 -1.859226234754070006e-01
-5.771241200094385793e-01 -3.947712135188375382e-01 -5.885261016014998736e-01
5.542189414949264537e-01 -3.758121599105899713e-01 5.926434864181295836e-01
-5.831201890391939369e-01 -1.061298863592262665e-01 -5.809472396408847938e-01
-9.243708776028096707e-01 -2.150145876371801490e-01 1.657379842164517000e-03
-5.279585340615872147e-01 6.929824430950302094e-01 -5.169447302123091337e-01
1.027265519129782756e-01 -1.171515233708743803e-01 8.645424821985304709e-01
5.773433115789067260e-01 -8.013658875919431601e-01 3.927788810437168321e-01
4.117979926521998513e-01 -3.624032989089062684e-01 7.360834835573855095e-01
3.659151868574880284e-01 7.969090647510142580e-03 7.544293664479645445e-01
6.848500669477691760e-01 1.084661212775015898e-01 -6.380415197224863499e-01
7.763578533679607041e-01 -5.248767881722817691e-02 3.283422727213070602e-01
8.742300313857723770e-01 5.667505837811043223e-02 1.230854097922736284e-01
-8.049446434947710172e-01 1.153429083716965148e-01 -1.421957497969718875e-01
7.315169616413206288e-01 5.265140851217512408e-01 4.968068840688523169e-01
7.353467284709532814e-01 -4.177761877520742018e-01 -5.523275308913123266e-02
6.077296077361474813e-01 -5.015222937962418026e-01 4.805576031070425969e-01
-4.259715162184807835e-01 6.946915858999919147e-01 -6.668516878936319170e-01
-8.158314911835307104e-01 1.409032475850715560e-01 -5.092065552087572493e-03
-3.035435225871757625e-02 -6.391647395173996049e-01 -6.834667644129024389e-01
-5.380901457165521151e-01 3.594440514810592902e-01 -5.826510737261234585e-01
-6.331818388688250643e-01 5.546235807920522898e-02 -5.142555639075783169e-01
9.101039998424107491e-01 3.731415741256669527e-01 2.363042174817139296e-01
-7.233049753415087268e-01 -5.535222154896386748e-02 5.579901624667991111e-01
5.542814485123304102e-01 -8.692840735657968443e-01 -9.699941028476428972e-02
-5.612888478512806367e-01 -5.789134611273041298e-01 -5.901163115372110024e-01
-7.437464037383280102e-01 -2.152519873512299120e-01 6.357027661203583646e-01
1.230641008798081908e-02 -7.157087786193285783e-01 -6.538680615426417653e-01
9.680107073208893409e-01 3.177931688687522516e-01 1.828740410049382176e-02
2.733041292103831621e-01 -9.868632257980350375e-02 -7.880148441176750840e-01
4.444922441716260830e-01 6.182707051747567961e-01 6.583867443564258570e-01
-6.033189851565123885e-01 7.882420498322486591e-01 -1.836029620364356130e-01
-6.283686375054108320e-01 6.006966731658949232e-01 1.707755619105505718e-01
-5.142919162261382349e-01 5.639115744803161467e-01 -5.755521404999927038e-01
1.343314763032584236e-01 -1.129682926005199234e-01 8.562753692869893296e-01
-4.876969124948977996e-02 6.047846308219623213e-01 6.911683500791017121e-01
-9.692097368390093504e-01 -3.372061077239879023e-01 7.358901374499826620e-02
-4.604978669112774203e-01 7.621455921221852170e-02 7.231957976939615840e-01
-1.200402167185481150e-01 1.239671684578504546e-01 8.218858984366628206e-01
5.861627280168468790e-01 -8.055087909932769907e-01 3.585399241281116978e-01
2.616820709329342187e-01 -2.128658625860518627e-01 -7.527509846490673118e-01
4.788765369121827931e-01 -8.797874592554344453e-01 -2.514297640747814033e-01
2.071995179233795947e-01 -2.309331712835686889e-01 8.484614257248807023e-01
4.109935233688821188e-01 7.343129151882289429e-01 6.518911114521555028e-01
-5.238887112626328113e-01 7.777732573869575727e-01 -4.910608764460460129e-01
-6.428857995455553587e-01 6.639274109645462163e-01 -1.655640503548918840e-01
-1.441823415942909414e-01 -1.821815987278448123e-01 -7.866446048909138122e-01
-6.369567900507699942e-01 5.504497178754057529e-01 -3.402748815499670454e-01
-8.971036432156896945e-01 -3.381575697470179942e-01 -2.018385822749711178e-01
-7.147276140772124142e-01 9.261286517766856297e-02 -3.883816297496015535e-01
-1.932250259382757296e-01 9.046576740953821139e-01 5.216706392609653520e-01
-8.759506770707481405e-01 -6.548056077718919510e-02 1.999419416213330525e-01
-3.162946752516047622e-01 3.810965784170843307e-01 -7.807709568577829717e-01
-9.619440183407453882e-01 -4.153289913691374791e-01 -7.611992732307593101e-02
5.197602541103928386e-01 -9.115808787788111101e-01 -1.424344450686918229e-01
-3.823555970549883942e-01 -5.601639683724010110e-01 -6.677148093602365275e-01
-4.937233194752931320e-01 4.841485532843926576e-01 -6.171900882342286065e-01
7.747081907791065758e-01 -1.050709028789362232e-01 3.062666801977000364e-01
-4.118218962423860763e-01 3.338723249773329349e-01 -7.106112058628440975e-01
