-9.913183030563956638e-03 8.933389416383282766e-01 1.734294488338968543e-01
-6.628884489699725657e-01 5.701917204244419946e-01 5.192481761774873084e-01
5.384192799998304135e-01 4.459411881391566190e-01 -6.918938678959991595e-01
2.332855553341707244e-01 -1.542798523692102686e-01 -8.896137426967719586e-01
-2.034200138836356545e-02 5.739146295341847059e-01 -7.242162098996833552e-02
-4.305205242572534008e-01 -3.076785866136651573e-02 -1.764959248368526412e-01
-5.228444817861530591e-01 4.142263701635504614e-01 2.648895906391715571e-01
-3.600656731135110089e-01 -5.023392393114817223e-02 -2.572693035587730326e-01
-7.734699453395079694e-01 -3.013013832989488994e-01 -7.550723725486024884e-02
1.129659721968058195e-01 5.877561805689757168e-01 -1.847204864939236413e-01
3.482258764524798766e-01 7.143618095134708634e-02 -8.154391190335344985e-01
-8.458396080721626298e-01 1.620051495019698973e-01 3.620592035016648724e-01
4.297955443854866164e-01 5.970584784558653491e-01 -4.704911731410620912e-01
-2.829652407147334459e-01 1.561701998123001256e-01 -1.635228652041352815e-01
1.811570785499261871e-01 5.628580603028913165e-01 -2.677438868619574919e-01
2.946459299182735414e-01 6.836630399087214593e-01 -2.761426909359450121e-01
2.802308785344264641e-01 5.509399725869672526e-01 -3.689653009179046927e-01
2.483038209164390164e-01 -9.680267436877632373e-03 -7.878495410496122453e-01
-5.812693292043074056e-01 2.556875488779609129e-01 1.921464431249843841e-01
-2.144676641966214159e-01 3.067950398415438679e-02 -3.272923046695019322e-01
1.903682751242681270e-01 9.941126374856860126e-01 6.868530231917958917e-02
-7.953219103862473327e-01 -1.604124107169675462e-01 5.741063596433290672e-02
-3.484375441552365893e-01 -1.596913701013835674e-01 -3.555838963156544574e-01
-4.862109888990277795e-02 9.043213303482242615e-01 2.180365148556586696e-01
-8.147517108139275266e-02 7.308103148117732484e-02 -4.164545324871403165e-01
-6.734675194843411372e-01 -5.428194961729858603e-01 -3.612414918314574841e-01
-7.241073377087857699e-01 -3.337148700357234765e-01 -1.471171362434954832e-01
-2.241352571472004507e-01 6.761930212142105434e-01 1.979906980818202100e-01
-5.206900570141248519e-01 -2.298446264780942827e-01 -2.522864650964860012e-01
-5.027731024503455659e-01 4.160168044247780084e-01 2.477465764414007177e-01
-6.557230330663065265e-01 2.384540279397442397e-01 2.472651590426280799e-01
-2.159381260149537407e-01 7.162172693572981252e-01 2.224193886314162760e-01
4.383515229701948623e-01 1.097029194331291119e-01 -8.682373704785502078e-01
-3.832996744295878722e-02 1.335868611209239387e-01 -4.079858093143506892e-01
-1.535390821766773328e-01 7.528693753517800014e-01 1.939893356309607686e-01
-1.281898531102748651e-01 7.574945752203322558e-01 1.742293943760208352e-01
2.773728550981224283e-01 7.959098380362524816e-01 -1.703727972998673457e-01
6.662309318528507329e-02 6.268114847479135943e-01 -1.105925248191785976e-01
-2.474996507587858829e-01 -1.172851187832061326e-01 -4.150772624855771920e-01
-2.358809600918796157e-01 4.872608340392594051e-01 5.773693824347795461e-02
2.616379357740839517e-01 -2.232455018263842378e-02 -8.103036239977899902e-01
-4.399805052514651482e-01 -5.182257955921893977e-01 -5.576510563987613356e-01
1.249832955118125033e-01 5.757644585238336221e-01 -2.054339653764532536e-01
-8.067685832421257475e-01 -2.231543949886203443e-03 1.945303950506913904e-01
-2.031780040149090416e-01 1.616048315694337545e-01 -2.330152700652079745e-01
1.879681625205925910e-01 7.190174567863579780e-01 -1.491377986490841634e-01
-8.940597964851006163e-02 -2.533764969859820804e-01 -6.702431563121015179e-01
-3.884053695198925737e-01 5.140647823871403732e-01 2.203314404792382497e-01
2.751965887769703412e-01 -4.479238443658428021e-02 -8.408232107806201672e-01
4.257332338966725582e-01 3.029535928548321433e-01 -7.019815482610030077e-01
-4.342288304411130451e-01 3.068743414100362221e-01 9.701061601984832528e-02
2.195501728982463263e-01 9.961835715190018314e-01 4.333528245613656182e-02
-5.416132031680773729e-01 4.720246161444734967e-01 3.284910993737654716e-01
-5.640264067489434430e-01 5.966200868249046385e-01 4.488954582708195584e-01
4.645223193081001178e-01 1.730861953073982995e-01 -8.417579767457428197e-01
-6.636151666863338017e-01 -2.185696538615817253e-01 -1.109970636763536050e-01
-1.537965486807300608e-01 -8.778631624243914133e-02 -4.781996210327235652e-01
-1.161750878236117862e-01 7.839076987670630103e-01 1.842377131643488375e-01
-2.079640746467832924e-01 -1.389682452998874385e-01 -4.690096420773682273e-01
-1.471044016524655496e-01 8.405982777414982010e-01 2.582072951666433691e-01
-7.553661020999280495e-02 1.570151504793570740e-01 -3.548128240277632628e-01
5.298706459446065331e-01 6.340528134095657631e-01 -5.335149710167990111e-01
1.680041367346093162e-01 5.420104852187144218e-01 -2.722470802752339214e-01
4.089504846544263494e-01 8.648390842951875213e-01 -2.370065289607006798e-01
2.218545807060243735e-01 -1.804474915237068433e-02 -7.700625817821655783e-01
1.666448706558951165e-02 8.530749040510868797e-01 1.166264478106649322e-01
-1.410163885326912725e-01 6.080629578299413529e-01 6.657177897407749734e-02
2.795503300091387588e-01 -3.036347227058588255e-02 -8.333109422045993364e-01
-2.587639583493716033e-01 4.117385519958683404e-01 1.850503640086611709e-02
-4.036872719521075042e-02 4.440846948299635999e-01 -1.577367087920406030e-01
3.314887348846570075e-02 5.665666674589877605e-01 -1.278025268279884552e-01
3.073194992754955113e-01 7.171868102578915494e-01 -2.610563712963597238e-01
-2.789613125215067435e-01 -4.429505082099203239e-01 -6.464555257714958980e-01
-1.833667776470648825e-01 -3.296342325419578945e-01 -6.442840449529954050e-01
-5.785172012621090376e-01 -4.716076879034784564e-01 -3.921525170906377533e-01
-6.705343607203451128e-01 3.331244605343230414e-01 3.366977593456138007e-01
4.967664474892853899e-01 3.096303392972409307e-01 -7.623789524793489480e-01
-6.695113938643701967e-01 1.055114504681834847e-01 1.536869925435287443e-01
5.221679588468328692e-01 -2.102282836636659158e-01 -9.380329618979556250e-02
5.871498190443376064e-01 -2.890350765362204033e-01 -2.169773813616697189e-01
4.872549220677340615e-02 -5.855299655370412859e-01 4.414840988839500990e-02
3.211969038390261044e-02 -1.401344336544382285e-01 4.157811907869531365e-01
2.581084703746109807e-02 2.479373199128899752e-01 7.320322157904767257e-01
-2.205900101089970644e-01 -9.503838146994882108e-02 6.857242168074757505e-01
-4.420216955921992263e-01 -7.360081881341212773e-02 9.077968010652724962e-01
1.114706857529709355e-01 4.502309349340810063e-01 8.145693793904729141e-01
6.879195236762796206e-01 3.340346551022354560e-01 1.881484642120748729e-01
-1.423912079963697841e-01 -7.838394319248498388e-01 6.239366249315152907e-02
3.625515821519093573e-01 4.244060948261522692e-01 5.615484765615973428e-01
4.602421711937129678e-01 -6.203096695398196969e-01 -3.645114122655649380e-01
1.689702210876928290e-01 -3.165410157494709109e-01 1.480273673853345351e-01
4.490446095295465567e-01 -6.352613220920070303e-01 -3.661081661708628365e-01
9.633431310704330952e-02 -1.522502427396255076e-01 3.466622154093034758e-01
-5.382528405212602118e-01 -3.468412534238223821e-01 7.782936613980624418e-01
4.726793698674414679e-01 6.353994243396807740e-01 6.284004237643527890e-01
1.337218772855998383e-01 -4.950325392567197502e-01 3.787556153104282286e-02
-4.072935632190280431e-01 -6.689738447707466173e-02 8.810194557126455051e-01
-2.308442482971800325e-01 -1.717512167706610193e-01 6.338526635790334707e-01
-2.856534583024390450e-01 -8.819095315112444045e-01 1.165316734852791525e-01
7.447695305762487283e-01 5.872671033627631099e-01 3.380929943074023059e-01
6.392554873249249869e-01 -2.339362521002730788e-01 -2.211261413848230051e-01
-1.492541786152895011e-01 -7.589360782298405772e-02 6.350197317361447880e-01
9.780180464901656878e-02 2.125196721666727517e-01 6.370778207053120479e-01
5.946876788463647534e-01 -4.300216421646906040e-02 -2.715548334864046481e-02
-5.353004273272230634e-02 -9.466348684849120731e-01 -1.500608317031074390e-01
4.437637455238386819e-01 -5.065720949602167122e-01 -2.582844819251279844e-01
-1.923501646326299663e-01 9.026748652186007693e-02 8.078127577592674191e-01
-3.072961005835327386e-01 -4.692658664249175771e-01 4.666281208152848192e-01
3.861705843370084046e-01 3.885475232258853162e-01 5.110074517223641699e-01
-2.002673815151286563e-01 -7.961014981730559770e-01 1.061472116051406234e-01
7.523514691811818977e-01 -3.371853774722726182e-01 -4.083787076445876130e-01
7.650315078946802183e-01 4.565330857632626804e-01 2.147693712049553727e-01
7.321665663304506300e-01 6.030405452763989427e-01 3.623733954835642312e-01
6.949822462934084066e-02 2.315384563947656404e-01 6.784843302328015247e-01
1.120020275929325126e-01 4.600948864876795996e-01 8.219676658246042322e-01
-1.686111121007068669e-01 -3.204804021043746592e-02 6.880050767964035474e-01
-6.362601497292849628e-02 -7.943223028454511336e-01 -1.888504651029346282e-02
4.694018713145260979e-01 2.449923831455441681e-01 3.191531651314257201e-01
4.780705778717884158e-01 2.331330239163954821e-01 3.016445546262491728e-01
-4.281708482782122828e-03 1.438562331942808692e-01 6.766286958373844973e-01
-2.995056351387204718e-01 -5.037627648909122069e-01 4.318248721285113390e-01
6.272130963740871756e-01 -2.340888162962848074e-01 -2.101034865831232501e-01
1.735401293505648146e-01 -4.257394979316244665e-01 5.645198005306773653e-02
-1.204781861155282824e-01 -7.950764633397762182e-01 3.312582701743733982e-02
7.139741984816766474e-01 1.987364936299356732e-01 5.581317471581345030e-02
3.987898985398659613e-01 -7.901593043347059364e-01 -4.435001559176133257e-01
4.372808184494365591e-01 -4.302029466410451364e-01 -1.911983485803366301e-01
-7.192344955561497111e-02 3.114534674756397892e-01 8.732864543568809035e-01
-2.287992824195325247e-03 -3.155820994103391008e-01 3.072861253642880097e-01
5.428348808402337911e-01 3.928282666824683411e-01 3.694458258838592135e-01
9.155489650601177365e-01 -1.519718978930428019e-03 -2.909169467144750443e-01
4.255871210518838432e-01 -5.584643432113503003e-01 -2.829706285965179480e-01
-5.716934858060686644e-03 -8.486462690480837123e-01 -1.159301664622498507e-01
-4.520294377584493373e-01 -8.575066550315323111e-02 9.073400433196860959e-01
2.391011978353301537e-01 2.994299988158843906e-02 3.602714183308744489e-01
-9.747873618357519310e-02 3.767375294690011867e-01 9.491564086411453660e-01
5.030286336530767066e-01 2.431306250870147179e-01 2.865439256421313252e-01
3.722036930917016484e-01 5.526081663354205364e-01 6.551626993818061573e-01
3.404201538731399523e-01 -7.166709854314061712e-01 -3.306994482486423914e-01
4.492995330373065199e-01 -2.555745037428581723e-01 -6.263858814934335217e-02
-3.503420599285796966e-01 -3.998177372335064428e-01 5.620156737851128570e-01
5.111299246509145577e-01 -6.714038383052470804e-01 -4.524751477322983551e-01
7.695629034438348226e-01 2.146332719801423150e-01 1.708392324666660120e-02
-1.328506740865337543e-01 -8.646800763623244679e-01 -1.109882699873868638e-02
7.625580600863605119e-01 -8.141480034248235742e-02 -2.132375951228248634e-01
-1.345778574827749263e-01 -8.618578864531729611e-01 -7.242971634627232667e-03
2.308851389895840711e-01 4.168629203834675612e-02 3.772682836184143018e-01
-3.028579642264744298e-01 -3.181460500646935974e-01 5.833991841201305872e-01
1.560927440577163372e-01 1.837066412049435105e-01 5.600851020202942676e-01
4.259041391754530559e-01 -2.172402429624599174e-01 -1.032423797322660000e-02
5.598076054421530223e-01 -5.051613890594438550e-01 -3.645494275707169551e-01
2.249438679011183939e-01 -8.525329128391420097e-01 -3.325051783765896607e-01
5.668297711434591157e-01 4.033815224531780430e-01 3.556810223653302239e-01
9.164656266109605376e-02 -3.002606066910615268e-01 2.326093606055520402e-01
-1.801922778973091832e-01 -8.416626648792394638e-01 5.112495188998929241e-02
6.966499211004157921e-01 -2.834255288761727831e-01 -3.138277875845282838e-01
3.822402185732809987e-01 -7.553739480782458715e-01 -4.003599172792531857e-01
-7.052249272931644664e-02 -4.644381535921927595e-01 2.513664605257395213e-01
1.349114409800299119e-01 -3.015362213239655143e-01 1.915493273119971696e-01
3.587485413330028239e-01 -1.281854345385924632e-01 1.230587691585355581e-01
1.200123962745727052e-01 -9.156417753713544938e-01 -2.858756282914776126e-01
3.637704597628061975e-01 -5.740630884985693516e-01 -2.382392931100690558e-01
6.801111812781690524e-01 -5.246717289227650349e-01 -4.914909623290178997e-01
-1.877310522988110408e-01 2.235213543860068153e-01 9.101256455280984925e-01
5.224287322736677064e-01 4.402436040993814581e-01 4.262575746460909309e-01
8.558072817489652540e-01 3.687242184463960792e-01 6.052356747392911157e-02
-7.936252335185188522e-02 2.070782675995392827e-02 6.476081280519969674e-01
4.927825213232119722e-02 -7.368096626776567959e-01 -7.736938844703336593e-02
4.990502019677119927e-01 9.214263832157358614e-02 1.694528748566426490e-01
2.964659152188517943e-01 4.053870665603550583e-01 6.074947533924263121e-01
2.030901585833867762e-02 -2.333725780770841696e-01 3.521317148793774443e-01
-6.823630283488649195e-02 3.612531676000836356e-01 9.097081615008673072e-01
3.313347724775084768e-01 3.841399722416129481e-01 5.582299864374957732e-01
4.889211561074630064e-01 3.115996281679873636e-01 3.543670342222096648e-01
5.808960839822410183e-01 -2.732351519368172998e-01 -1.985517217203960350e-01
-2.628608871054325391e-01 -3.721984644770852113e-01 5.031480232918892348e-01
1.097737467584181392e-01 -1.530349162523174933e-01 3.335969790734457097e-01
3.394596762977364901e-01 -4.937865466631534139e-01 -1.515288220611200887e-01
-1.637928632993985723e-01 1.156237953786158346e-01 8.016663777725722140e-01
1.141257456587939090e-01 -6.297499106513703149e-01 -5.174740525345071507e-02
6.035927403845410266e-01 3.673995805936275949e-01 2.928771682122903175e-01
4.059695254272985970e-02 -5.346453946738068119e-02 4.772617493862822968e-01
-1.506353144446532233e-01 2.565243569459879081e-01 9.021937981899209591e-01
6.219358997338330086e-01 -8.824099012786629226e-02 -8.855830354598499821e-02
2.726099120970591483e-01 2.527051473167052364e-01 5.074445466085265588e-01
1.025248961823840149e-01 -2.852201452370943802e-01 2.345725825676182319e-01
1.897714337337683480e-02 9.575537376554521529e-02 6.166285608795248896e-01
6.304949553035512633e-01 -3.370193225456105668e-03 -2.859251059688957750e-02
-2.136735086169091191e-01 -3.390145348607221387e-01 4.841706298007634190e-01
-9.872668216126742613e-03 1.508628761414655683e-01 6.874073795495305728e-01
7.870748977036148286e-01 2.071435833903449708e-01 -5.113519667963158273e-03
3.659411720731749473e-01 3.355155908841740697e-02 2.457731850770374094e-01
9.120755037622537698e-01 -7.629040806224912652e-02 -3.475103103255918757e-01
3.399638592542026938e-01 5.959806482360756608e-01 7.196921725968782324e-01
6.724284595777504370e-01 -5.321298068449876739e-01 -4.903465495760062076e-01
-2.009151392299994218e-02 2.959127815662978001e-01 8.128875912107134116e-01
-1.092519997065572734e-01 2.578870000201237134e-01 8.649853676753783693e-01
-1.349399169957481437e-01 2.302942759810616136e-01 8.666873891932435070e-01
-1.702089404198299794e-01 -3.602299409413615705e-01 4.269762678295391800e-01
2.165979084667070675e-01 -6.446709506014594027e-01 -1.585158646273605310e-01
-1.683894046401262501e-01 -7.104616515708853663e-01 1.451475476529413555e-01
2.745156375670955162e-01 -2.202308477183121116e-01 1.273868397624097482e-01
1.038669490813575041e-01 -8.584085763094814192e-01 -2.251538133633086414e-01
5.466910059264482591e-01 -3.117387402119862205e-01 -1.976948811321437571e-01
-2.436427265126581421e-01 -6.176956865530495305e-02 7.336696625414798056e-01
-5.472039340044363431e-01 -4.533941059442114785e-01 7.013475474620299854e-01
1.344131873767436813e-01 -3.054761243988080022e-01 1.888589721643115227e-01
-1.911244026977242383e-01 -2.696913941760579747e-01 5.187529384999451931e-01
7.452170060676164276e-01 -4.256488449205312330e-01 -4.725366170307236380e-01
-1.922993997217059270e-01 -9.453582456149048352e-02 6.599445230053480049e-01
8.052148041711348903e-01 -3.478877685396906116e-01 -4.658620085331482974e-01
2.464344846405958078e-01 -1.604370854903914290e-01 2.012027649356734893e-01
8.630961390900245001e-02 -5.736455222920175956e-01 1.887218282524245894e-02
-5.484929409096438863e-02 -7.318194912246663852e-01 2.298750835510868923e-02
4.555082914133413707e-01 -7.303673425275291065e-01 -4.481638174805699926e-01
-1.768669319429684861e-01 -4.680212316929344141e-01 3.469173844696187836e-01
5.390919362242618806e-01 -2.450192058184118005e-01 -1.372943822375126133e-01
8.085604075882510955e-01 1.516705411898753852e-01 -6.936939952536495813e-02
7.819737788970472225e-01 -3.265428721789511712e-01 -4.272800441785208347e-01
5.558517576079551326e-01 -2.796753775213726145e-01 -1.805257645717314174e-01
4.218687391736236636e-01 1.486361707064175371e-02 1.790665596064762166e-01
-4.676748207137996771e-01 -3.401459749071240046e-01 7.183323419665980092e-01
7.086410190011354082e-01 4.901172496490014963e-01 2.938196628240856145e-01
7.355267430725893618e-01 1.434756819556596008e-01 -8.334982881253427331e-03
2.837725904220166906e-01 -4.973779364860112517e-01 -1.028656372805976382e-01
-1.870021601367275604e-02 -8.452670957184815759e-01 -1.012117791552540891e-01
3.908098704046985561e-01 1.668353205165253594e-01 3.293699076982345431e-01
2.772547232749433127e-02 -3.724727821215075840e-01 2.340040600920650360e-01
8.246830862458331968e-01 -1.735370396321488096e-01 -3.444186251242987162e-01
-2.574628043559992752e-01 -8.038264723214445517e-01 1.528999051545336385e-01
-4.660386656510438486e-01 -3.299311686640264973e-01 7.249888168347984330e-01
-2.777210445849632170e-01 1.253682661954154121e-01 9.148962084098738456e-01
3.122860170424205384e-01 -6.411787339061003621e-01 -2.442775148485754333e-01
1.624735745313063418e-01 -8.236911894876804974e-01 -2.516217059217562002e-01
-1.020814506127055640e-02 -8.303388736680742399e-01 -9.712995757614789616e-02
-1.720136649804981099e-01 -3.127503910853606239e-01 4.666246019958693592e-01
9.281243022908916007e-01 -2.361191877426122715e-02 -3.202260551175747927e-01
-4.229130111422398780e-02 -4.787682187121838351e-01 2.137773756665087566e-01
4.620964102718753685e-01 1.040375491400359897e-01 2.131664902972175424e-01
7.733653970276265222e-01 -3.876581480815275219e-03 -1.612176984958842152e-01
-1.574585045034760100e-01 4.687360240012992257e-02 7.408120198775249854e-01
3.327855090760810097e-01 4.811441503295565969e-01 6.344795075534894746e-01
-3.143163942083122553e-01 -1.267451968224206638e-01 7.471019671859679967e-01
2.828020054798578986e-01 -1.971480670506022825e-01 1.381817330444786163e-01
-2.089351843654032106e-02 -9.250905458877775600e-02 5.029373089426881771e-01
4.512872114896810394e-01 -6.055148818259263876e-01 -3.443898844597751974e-01
3.907442946593567834e-01 -5.774505318460985137e-01 -2.659119205732875524e-01
8.629477372816858338e-01 3.502436302241107025e-01 3.913306756085105365e-02
8.495970260110856653e-01 -1.050637603025588590e-01 -3.127046539519597323e-01
-1.261178773266140862e-01 4.527922605207657797e-02 7.105323695581363674e-01
5.447790760410725630e-01 -3.198675601977599148e-01 -2.024275913568161778e-01
3.214006084680353648e-01 9.873157526170169007e-02 3.391299304382938140e-01
-1.170103488463978408e-01 -2.449784550270510675e-01 4.699312219884376196e-01
-4.743819096442987715e-01 -6.473759370462278673e-01 4.787910480118233170e-01
2.695104152163234068e-01 -6.069549683201335144e-01 -1.773155784896948972e-01
1.489597637863549484e-01 -3.841704927007179027e-01 1.124503890506555609e-01
6.117995434055099047e-01 -1.167327023023740501e-01 -1.019676351824681804e-01
-2.120377587723375479e-01 -6.041280174897054600e-01 2.705967234335699967e-01
-3.355005728845662522e-03 -4.654811772090592381e-01 1.883716892064883630e-01
2.258179303604389010e-01 -3.616434778470070666e-01 5.934063388002872030e-02
8.990484642584023467e-01 1.330312376024370136e-01 -1.680212908083542067e-01
1.434548688507385336e-03 -1.086830595370962549e-01 4.693363605823668849e-01
3.581809720193510072e-01 -6.723264921853392417e-01 -3.116658218155132221e-01
-5.037178928076526674e-01 -3.117132721093378023e-01 7.744314465785993029e-01
-1.551344489296581641e-01 -3.705867103218900005e-01 4.047412908408087318e-01
4.714692934198068675e-01 -4.017318295052659249e-01 -2.000646392123682782e-01
3.401023320344274681e-01 1.248334447387635104e-01 3.427008043746272992e-01
-2.333343698239346842e-01 -3.978210633778914151e-01 4.553274533943869606e-01
2.559050400376132739e-01 -8.101313407404701072e-01 -3.272419948766672193e-01
-1.364960978291309690e-01 1.409112594809340535e-01 7.966314989161169535e-01
3.834234419296586038e-01 2.153293052529132445e-01 3.749952870011849515e-01
8.444511678186731318e-01 2.145685399020053410e-02 -2.067405506941900895e-01
2.754795822083597190e-01 6.171245574846524057e-02 3.520167546679829895e-01
-2.643443050949023654e-01 3.099193832549882940e-02 8.270265043388602688e-01
-2.941312660786065125e-01 -3.842898297889236203e-01 5.224156531491868094e-01
-4.302715496394285410e-01 -9.618893581867454801e-02 8.788546935350012301e-01
5.211568037511453699e-01 -9.525115767763679686e-02 -8.991280068131594265e-04
4.636415180371795675e-01 4.648309435853735794e-01 5.003295092812487521e-01
-2.017096141574535872e-01 9.246791300184373230e-02 8.182345916772545413e-01
6.345235412933023511e-01 5.987799634671315818e-01 4.493296293882983461e-01
-2.429667659214864162e-01 -4.571625132301803118e-01 4.167755106864321490e-01
-2.030975748169504824e-01 -4.609084741925025819e-01 3.768820413504363476e-01
-4.899239988011546698e-01 -6.342488198385125564e-01 5.036747230427812694e-01
6.727319365712396415e-01 -4.234314356258657708e-01 -4.036812908887021933e-01
5.749742803524938717e-01 -3.571074006452592542e-01 -2.601594491804321563e-01
-4.632973228182930003e-01 -6.252398705226941411e-01 4.862390544582445018e-01
5.008399167297787891e-01 -3.267209224085042968e-02 6.795924013591835011e-02
5.659883199346374960e-01 -2.653322722696694336e-01 -1.784338711265486543e-01
8.056187759494172207e-01 5.074073786137783815e-01 2.179012337540013056e-01
5.888580683621533751e-01 2.093701254226007225e-01 1.801081721339556629e-01
-3.926851482480168132e-01 -7.486632078027660731e-01 3.221662975773300075e-01
4.022566908321553725e-01 4.808928580138893683e-01 5.699860642493373986e-01
6.594938610251291911e-01 -3.755118485125622518e-01 -3.530999283224140473e-01
1.287853858643467075e-01 4.381107264198262352e-01 7.888506434296116421e-01
-1.441181697169385649e-02 3.969194767027407478e-01 8.884249509397829092e-01
-4.317473396011157344e-02 -6.130880333566443019e-01 1.071546513690664754e-01
5.386508021140803404e-01 -1.829280730378885222e-01 -8.722041464575386316e-02
2.191496607011815534e-01 4.545508814377072770e-01 7.183728123614947503e-01
3.884876937284110765e-01 -7.223711095407523430e-01 -3.797432230628217109e-01
4.303027424558960035e-01 -3.578246967453881378e-01 -1.268462340032634472e-01
2.523133012760692684e-01 -5.138040430464265729e-01 -8.689047076170838824e-02
-3.871916885249893636e-01 -7.266749604280110519e-01 3.346704012267065487e-01
2.856356608955342713e-01 2.439536440050199262e-01 4.883896153884759173e-01
-4.180145176729285761e-01 -4.615380212146318883e-01 5.752743927540260316e-01
1.623680686435474418e-01 -9.788931056798717834e-02 3.290334118097775762e-01
5.081985568993686586e-01 6.002834476190933577e-01 5.674403056836915260e-01
-1.271474406147237168e-01 -9.010306110356711695e-01 -4.545313120938510032e-02
-5.042945421712433651e-01 -7.175201710274917710e-01 4.503665707698502052e-01
-1.391720883242740237e-01 -1.075768442592330704e-01 6.003462917232654794e-01
-4.224390342634311568e-01 -1.723405602464651021e-01 8.106935711502014641e-01
3.248288169363816036e-01 5.805462614857167525e-01 7.213532475859851800e-01
-2.551720562639662182e-01 -3.942833376356599251e-01 4.783670161379964814e-01
-2.314386691201304191e-01 -5.307236248508209187e-01 3.472664050778375699e-01
2.489993538007008456e-01 -4.030936590794987340e-01 4.731928026916892155e-03
-2.846536601982517234e-01 1.008648848880777105e-01 9.017121625174128186e-01
5.613306903646000379e-01 2.520534272253507901e-01 2.397252161854767638e-01
7.412267957935491092e-01 4.644598331222589069e-03 -1.246589184030635344e-01
7.750403441596654952e-01 -2.848786659185352788e-01 -3.875369221989363178e-01
-1.060739710921842355e-01 -8.814398001439399666e-01 -4.928529403078383414e-02
7.426927034628177937e-01 -2.781284481280296150e-01 -3.522012501244687344e-01
2.104081834687950292e-01 -6.892377383259515877e-01 -1.884358245911338103e-01
2.827406428850787745e-01 -7.772106915455111453e-01 -3.257444241931248263e-01
-7.877381926970909720e-02 -3.869456493650519358e-01 3.209877223178387862e-01
3.704955833296970091e-01 3.115794474979663442e-01 4.639484066662774575e-01
6.591555620340301402e-01 1.735901406719116691e-01 8.643117372289210731e-02
3.912950178940275414e-01 3.987898523538474516e-01 5.144576976395862644e-01
5.416254032357367132e-01 -6.693420140637709181e-01 -4.790481140393532122e-01
-3.500930819670554639e-01 -8.960391168463750500e-01 1.648655999661107485e-01
-1.864924918669907117e-01 1.030836489475079193e-01 8.126431925966831615e-01
5.933120322131266722e-01 2.597728561467548825e-01 2.163025793515591377e-01
2.931394691810125241e-01 -7.622491129949210409e-01 -3.234005371586315403e-01
2.477937973272667516e-01 -2.075431595192755441e-01 1.622653767499043775e-01
5.252834732244322513e-01 -5.039520320204079473e-01 -3.316315581072286078e-01
2.134851138851532881e-01 5.514710315323816392e-01 8.011399939926449054e-01
5.931998373605318342e-01 5.068530567681797105e-01 4.140419665532305560e-01
7.057566038084547300e-01 -1.985121734660480197e-01 -2.543347569194601698e-01
5.499892041126862585e-01 5.831990149878932828e-01 5.150993824352541051e-01
8.905219350631077280e-02 -7.898275947185008361e-01 -1.565865810924949308e-01
-6.971212460331924210e-02 1.399740523874361264e-01 7.340762932283609876e-01
6.031693733833256577e-01 5.424370429926727022e-01 4.332786810069960692e-01
3.997389888247103173e-01 5.110654060002808308e-01 5.964506289572197861e-01
-2.492799460133447997e-01 -6.976657220204341980e-01 2.302433496063784890e-01
-2.480871007237003545e-01 -8.130846587362225986e-01 1.368176379262526221e-01
-2.321460178910236816e-01 3.641833754716946453e-02 8.015689360897797489e-01
6.626433345765057048e-01 5.315505989566224887e-01 3.695303233076659977e-01
5.310323048832499282e-01 3.498693640605045618e-01 3.460064277124723087e-01
-1.997443314527647951e-01 4.946890393308744915e-02 7.820215821220726227e-01
-2.788586393850240458e-02 -6.459668540514235113e-01 6.670624307389259877e-02
-1.785696277697339795e-01 1.983371213030127034e-01 8.815026903535594371e-01
8.979740457074010251e-01 -7.550832966613933717e-02 -3.338344761213516976e-01
7.555801630329640473e-01 -2.732856280407982563e-01 -3.602543160149062618e-01
-2.794760330781318469e-01 1.298568923877932990e-01 9.201107522370485237e-01
-4.180073990195845024e-01 -4.309850492993383408e-01 5.997066451662437236e-01
9.448761324339887135e-01 2.754660983058257462e-01 -9.650132741577165107e-02
6.990338307738853674e-01 1.021231740794682069e-01 -7.639660974143298519e-03
6.623477826743074948e-01 -4.197419761168757479e-01 -3.911200853547214251e-01
3.929584965754619463e-01 -3.830340122948905357e-01 -1.124503563890504876e-01
9.153245201219638305e-02 1.122983812934322256e-01 5.627143931441594971e-01
-9.125227649083957060e-02 -4.053228566509120001e-01 3.178363321433848032e-01
1.740971423420471786e-01 2.944081551660462370e-01 6.319712404424823182e-01
5.035519479595673698e-01 -5.739464340838207335e-01 -3.675074321373039687e-01
-1.701363976058415106e-01 -5.722008148815963535e-01 2.573569735233517397e-01
1.361343571932826513e-01 -7.589347009963037793e-02 3.709056518739231589e-01
-2.857287624966380335e-01 -7.742398837167436820e-01 2.027246173964448173e-01
3.296421414864136173e-02 -8.899890242563823772e-01 -1.847972393403865821e-01
7.645392680882749925e-01 4.302647169595510412e-01 1.942132629511855446e-01
1.393462583005808386e-01 -2.545543983732069249e-01 2.250251235990217979e-01
-8.357272120815135985e-02 -4.351290051130117520e-02 6.001353289013606762e-01
2.684681690784646371e-02 3.538849673383341887e-01 8.158193248469738368e-01
8.815886497961897272e-02 6.540146103100535901e-02 5.283243885158067643e-01
5.745905598123997038e-01 -1.580707440338155467e-01 -1.005980504185210733e-01
-6.391828349818501342e-02 -8.138972236734489663e-01 -3.427223566806609362e-02
-3.544943099047301316e-01 -2.154299408461622656e-01 7.133472839228796047e-01
4.174075498785348448e-01 5.335849326300269313e-01 5.981121885501050617e-01
-2.869569258045671090e-01 1.150054860171322024e-01 9.151545745669623644e-01
5.765232468330752091e-01 -9.802307413531403946e-02 -5.435548071733957431e-02
-1.362185681746761190e-01 2.074132065283669779e-01 8.495685164501083353e-01
9.396446606979246274e-01 2.415408864079538476e-01 -1.187960787769319349e-01
-5.151315344096043525e-01 -4.217411002313434243e-01 6.969847314345284373e-01
-5.054212016916186101e-02 -6.041647742817359834e-01 1.211104085029762745e-01
4.415272538352983389e-01 -7.561989371068024157e-01 -4.558872842906718237e-01
4.189361484389628743e-01 4.452625326962139640e-01 5.260498448444269615e-01
3.319318725381027457e-01 -6.792356068540822411e-01 -2.928999585972817954e-01
9.400981919181130575e-01 3.536222175722875810e-02 -2.841348637664390941e-01
1.785732397609944844e-01 3.982241184531729594e-01 7.108695664253711355e-01
6.136643599768927260e-01 -2.992012623360035817e-01 -2.496471622062336748e-01
3.087477208866189482e-01 -6.779184360053777114e-01 -2.703904900025494440e-01
7.272769509061032256e-01 4.010902858909629609e-01 2.053616858859462491e-01
6.570823086616007780e-01 -3.783483080481135352e-01 -3.531369848652449184e-01
-5.802818609390351934e-03 -2.259102798889492669e-01 3.822660120341906942e-01
-3.409237772882331985e-01 -7.772018332649612837e-01 2.514358919799412617e-01
2.193512563532321324e-01 -4.837863713277454347e-01 -3.237492588645531771e-02
-2.094152107110429650e-01 1.719038242189986077e-01 8.889053056372564487e-01
-4.234257164010791774e-01 -8.556424560460492712e-01 2.650442903264726979e-01
-1.095560332287741634e-01 2.288083821181530197e-01 8.420072090776186124e-01
9.511234271561269660e-01 3.328197055773093882e-01 -5.640667032648195162e-02
-4.512252475434334054e-01 -2.745909074328918287e-01 7.555454701822249541e-01
-1.814668330754387049e-01 1.773320629177272956e-01 8.673823079618631082e-01
-7.877269287755199467e-02 3.502465826074605548e-01 9.106551204713488890e-01
4.228922427724286087e-02 1.029324150386653619e-01 6.007950858638381186e-01
-3.073407436099802048e-01 -5.886444599743143602e-01 3.711803815798652151e-01
7.932186924954183205e-01 -7.425245780236554294e-02 -2.358835796789347794e-01
-3.902889136491415889e-01 -7.560141669378703799e-01 3.140687744834239625e-01
-3.648615663837264100e-01 -4.722335856637296936e-01 5.175285255758116376e-01
2.224586974932306893e-01 -7.602093681273658365e-01 -2.563571180556975526e-01
8.706767829895949440e-01 5.145867950903865347e-03 -2.440580726120780974e-01
-4.028050283673949572e-01 -1.710325247877594879e-01 7.935694631066521065e-01
3.732289317018347430e-01 -5.363204531854540713e-01 -2.168029425840732327e-01
5.648860143087959251e-01 -5.696185342045462230e-01 -4.208075193174153905e-01
3.361969643323870632e-02 -8.146085249417939211e-01 -1.251081859410704822e-01
-6.596876483983044048e-02 -1.996358573094718369e-02 6.026803885120350923e-01
-3.509109242877192503e-01 -8.860689447037845001e-01 1.735974595303385604e-01
6.285884287743760401e-01 3.420161609903175221e-02 3.224991287071527542e-03
-1.951091954706500320e-01 -5.305303837589951943e-01 3.137996898480306940e-01
-4.339183053232320564e-01 -3.733014418221058395e-01 6.605716776909656973e-01
-1.261421841904767638e-01 -7.730263065335394451e-03 6.681534100948910426e-01
-1.065226052475379270e-01 -6.225818899972824783e-01 1.581862566488600463e-01
-2.364347908339943863e-02 3.480065467037078419e-01 8.578437556107878503e-01
9.137626116764114848e-01 2.404750245491959482e-01 -9.569597839552260177e-02
-4.372031627309924673e-01 -4.957334278549484496e-01 5.656802499098555481e-01
-3.580051686191669247e-01 -1.608294221295259174e-01 7.602705188209234466e-01
-1.099636567373703522e-01 2.371959541803699278e-01 8.490935328274645810e-01
5.383292247618144399e-01 -4.870699204986904673e-01 -3.302010767037187877e-01
1.648548054903667681e-01 -6.892426065538223012e-01 -1.462821263520160953e-01
-7.749762026580762908e-02 -8.429337139282750968e-01 -4.493100392946975524e-02
8.628403109180145247e-02 -4.945022486584713661e-01 8.220131502888754216e-02
-3.137720995288285075e-01 -4.753415746724290458e-01 4.677615019059386259e-01
2.098197705570864491e-01 4.964377837075312216e-01 7.605118765235872047e-01
5.868557993430398856e-01 1.222571879817609952e-01 1.122809167486546605e-01
8.147992686443259469e-01 3.739362027934425153e-02 -1.665514902793919227e-01
3.206830540201357493e-01 7.819044571349849371e-02 3.233634690607038453e-01
-4.593260883792459059e-02 -8.568107031769071069e-01 -8.524298008889365230e-02
-1.435066345387833731e-01 -3.929977776431369252e-01 3.760540148916645120e-01
-1.126077431034398363e-01 -8.713810473692404912e-01 -3.519274565334828964e-02
-8.861395432017861451e-02 -9.435356600485184098e-01 -1.151132494064157907e-01
4.104216553317256988e-01 -6.211600452455496857e-01 -3.190849788919866148e-01
-4.475714001099482253e-01 -3.418290524382578965e-01 6.983812677193235174e-01
6.704659986480795419e-01 3.029188563085564723e-01 1.794118759595845491e-01
2.850045878733635241e-01 2.032059495700913321e-01 4.563802067720464373e-01
2.955337716847343810e-01 -6.636931824778780076e-01 -2.467830213413048923e-01
3.421792490243749096e-01 2.126711074598914841e-01 4.110386727596236911e-01
7.368402673952322290e-01 -1.906489880102533174e-01 -2.768116445133739223e-01
6.936653974258757405e-01 1.219045591085648750e-01 1.315139935602869202e-02
4.861005628351037222e-01 -9.248308762360062107e-02 3.375797396434699477e-02
7.600691686414483110e-03 -2.030559191930551843e-01 3.881425118078478675e-01
6.127495859921735510e-01 -7.102591721682961767e-02 -6.628672007535864330e-02
-8.873423867874792592e-02 2.620529224015844538e-01 8.493293628836937614e-01
1.835839653918376335e-01 -8.288896522874719119e-01 -2.753165868630179092e-01
4.135501978007700141e-01 4.578635625771690920e-01 5.411136637885471945e-01
1.502631783853922709e-01 -8.464988735626438610e-01 -2.585650430181302695e-01
2.125045232008124785e-01 -8.259195778311081426e-01 -2.997055401566544597e-01
2.704853097781465543e-01 5.665698329900942243e-01 7.604661823359694095e-01
4.001502576940015043e-02 -8.723186397622304522e-01 -1.771881849023998756e-01
-1.142616405604818114e-01 -2.488171622163348196e-01 4.643168953713963099e-01
-2.225796985193553013e-01 -3.306136814821739479e-03 7.609407593456610774e-01
3.198974884988658451e-01 -6.569633986664914493e-01 -2.639474920471148733e-01
2.278587375665768466e-01 -6.400395704040177935e-02 2.955291178725029111e-01
5.533065732626225586e-01 3.516580020754695433e-04 4.581889808690700616e-02
-5.739502174203640200e-02 -2.334631577586727125e-01 4.239708361144089444e-01
-4.524080129306634612e-01 -7.461001868903264223e-01 3.794872293121416273e-01
1.846996062560007090e-01 -6.314546896926417352e-01 -1.184239490926352473e-01
5.904247958873548585e-01 6.005411703896779141e-01 4.915497865937302757e-01
-4.623414045619087670e-03 -1.020342860811954272e-01 4.802609803003510258e-01
6.903207171713492407e-01 3.929682190046392132e-02 -4.982987649171245065e-02
4.392297626090013174e-01 1.314153475011565209e-01 2.562276082640890795e-01
2.472502768150943164e-01 5.244056665360923297e-01 7.482427032919506393e-01
4.379034063775457675e-01 -3.034810794218215646e-01 -9.041170242514889877e-02
6.459860782259598810e-01 -1.664714406327190699e-01 -1.733909602843477782e-01
5.522010559552998910e-01 -3.519763019216907152e-01 -2.349795744250522955e-01
8.133295516577487838e-01 1.553704686156944514e-01 -7.082351319251344035e-02
1.116183721620967184e-01 -8.897653117479108476e-01 -2.574091632225958826e-01
5.243627260386060085e-01 -5.641849724587038040e-01 -3.789588273678056174e-01
1.391066078754940871e-01 -3.083513154197909945e-01 1.822156036853967431e-01
1.581996146956846649e-01 1.105738401454375436e-01 4.996375142397008196e-01
5.587897828793265687e-01 1.323895862334519558e-01 1.463594919420808660e-01
5.517970850073575795e-01 -5.906470734131471501e-01 -4.255147037681126787e-01
-1.932120376860530786e-01 1.288275465556489863e-01 8.394539662281849113e-01
1.505673273213606854e-02 -9.348796211551468893e-01 -2.041319552457439013e-01
6.798743407757628088e-01 5.415442871246539669e-01 3.615775994917840852e-01
3.666498042772924904e-01 -7.506460217897996667e-01 -3.821498998745554987e-01
6.589025797869894063e-01 6.197416057639563158e-01 4.435348183217911466e-01
5.962893812669788351e-01 3.461427600775896507e-01 2.826331014526082264e-01
-3.758827372853291160e-01 -8.990082695175617422e-01 1.863577818461576996e-01
-2.197204084569072680e-01 1.622994160769719932e-02 7.739212166752871269e-01
2.253773665493424283e-01 -1.078012908301708150e-01 2.627927179889939513e-01
7.070551790944187287e-01 1.416205688329006118e-01 1.653028690439805465e-02
2.063243157358298496e-01 -8.231527633232531282e-02 3.008113163722737071e-01
-4.263234268413796935e-01 -5.014309365624242121e-01 5.510541987562439514e-01
-5.118068015658651104e-01 -5.444012432664303569e-01 5.957939274481960368e-01
7.883659565598069019e-01 5.416044610868122611e-01 2.612216452236384434e-01
4.069084712065046405e-01 -5.231359217389230931e-01 -2.374257352651146791e-01
-3.229005972073877850e-01 -7.450532099983830925e-01 2.604714302380968238e-01
-3.148388512650922566e-01 -3.141463826668362547e-01 5.976862244009217839e-01
-1.734567897557129923e-01 -6.537045325228688641e-01 1.952363079733363815e-01
3.628646156296398417e-01 1.858282080683354431e-01 3.704240890655546292e-01
-1.579627176503089758e-01 2.789544274777021049e-01 9.269164383386776507e-01
-9.974336612701602267e-02 -3.936047298901197422e-01 3.350675965924169164e-01
-2.837554415001341535e-01 3.328865180314621863e-02 8.468277385686608927e-01
7.022436989770468596e-01 -2.186075978039120904e-01 -2.671577353011037603e-01
-2.478603404471628191e-01 -3.805546736641408079e-01 4.825816954519323576e-01
5.764970681489939297e-01 5.302435500804312252e-01 4.482093111998519119e-01
2.156050543953669796e-01 4.609759855068891188e-01 7.267925246963716779e-01
9.043900864390993499e-01 2.517054854351621351e-01 -7.803906138208178966e-02
2.437854218302418219e-01 -8.073798792765467525e-01 -3.138249854119062876e-01
-3.758139605537201278e-01 -3.791672143767865766e-01 6.021067940238419292e-01
-2.219865368534322259e-01 -6.482251116841413197e-01 2.445312976325406396e-01
6.655547757182810331e-01 3.403948956751303156e-01 2.139334836678339624e-01
-3.104211358603631288e-01 -4.991188912578485570e-02 8.049548327934908931e-01
-4.232571412136024169e-01 -7.430790695081932462e-01 3.549259593383639610e-01
-1.092798219739553184e-01 -9.314609737852851401e-01 -8.632957189209611304e-02
-4.197852691483463516e-01 -5.264483108582279636e-01 5.249924261764604694e-01
4.325637643850387959e-01 -3.412125279684474211e-01 -1.156508957730528891e-01
2.193207828227919098e-01 1.147442289678801686e-01 4.464084641305802181e-01
5.634678108894054099e-03 3.174641387619430155e-01 8.063177540849296721e-01
3.146808880087280103e-01 -5.977330156122924176e-01 -2.117423147679493578e-01
3.939594057317370446e-01 2.734495681581704529e-01 4.117342104604329034e-01
2.849345742347115795e-01 -4.165419648236474148e-01 -3.928158185482599762e-02
6.495049184318660851e-01 -3.686268880508871137e-01 -3.383484421681086651e-01
-4.306533604660208181e-01 -5.642906340634777917e-01 5.047808758962976095e-01
5.112761237029486150e-01 -5.287330093962195887e-01 -3.384903022705514353e-01
4.385815999738686827e-02 -4.361821397876659012e-01 1.681138763896786736e-01
4.026559809653061928e-01 -9.317512488378698610e-02 1.104286130100853580e-01
4.822778158747797472e-01 3.836868772253737569e-01 4.181765990016736989e-01
1.503909443760069464e-01 3.952429671736686356e-01 7.345664310397106433e-01
6.442663223449019982e-01 -1.613863398919024306e-01 -1.677319120624436444e-01
4.236002026478335458e-01 -5.161577344916729038e-01 -2.472914362993690329e-01
2.233762633117266083e-01 3.091603874715248002e-01 5.981657194271645661e-01
-3.438423061893537414e-01 -1.873472976927745004e-01 7.259521993516223626e-01
8.193645757027229193e-01 3.701269190319239621e-01 9.537164274787757190e-02
-4.968671915088726521e-02 -4.286277141454775640e-03 6.001521230968906995e-01
7.604994354944817347e-01 3.943030722484092143e-02 -1.146703353410750692e-01
4.679722942838803190e-01 5.300619206909621406e-01 5.484988014923348754e-01
6.979558540671722267e-02 -3.658527488642113190e-01 2.003653322534761638e-01
-2.503073021480795579e-01 7.974216071360464009e-02 8.530304266794546120e-01
7.277725800804406564e-01 4.928678947117757780e-01 2.783144654192222234e-01
-2.214049979574315812e-03 -1.805843244044906537e-01 4.152002858694971432e-01
8.886091747230191462e-01 3.568001430948805619e-01 2.062901838006421171e-02
2.221961483980364471e-01 -3.721589137945001680e-01 5.428129799548826739e-02
1.599595398561381721e-01 -5.271691168677096195e-01 -1.211175083378374616e-02
4.200182161893807886e-01 9.063519031289896111e-02 2.413876214753669924e-01
-1.399790400251083207e-02 2.950197958590991543e-01 8.065339454824661525e-01
-1.260510842349686078e-01 -8.765722261140124205e-01 -2.690388310072031747e-02
3.112691585575452780e-01 -3.509020296281554763e-01 -1.114870029592970532e-02
-5.447904200575590106e-02 -4.811790228221094479e-01 2.231282147744328981e-01
7.419575057711487176e-01 5.784171924966278189e-01 3.336164920223365082e-01
8.039716175721470792e-01 4.897653778928740542e-01 2.053140462226483443e-01
7.496915195388427489e-02 -4.201766862441611017e-01 1.521245694618381106e-01
1.047219323394431023e-01 -2.916565332302515912e-01 2.273909596609716699e-01
-6.858735553530050490e-04 -3.120234958420374863e-02 5.332743135174602411e-01
-1.272259919135194928e-01 -3.216397826393884718e-01 4.180651509076305228e-01
7.572744529571251437e-02 -5.705232930886340315e-01 3.116292345269969927e-02
5.475021480967672272e-01 -6.435994380208673316e-02 -5.711585471197866458e-04
3.070501614036334694e-04 3.702294106095307402e-01 8.534543417601850868e-01
9.726233454753913099e-01 1.794139687230022484e-01 -1.990107025600191537e-01
-3.106395389946947638e-01 -2.928028590549511256e-01 6.108722986504605545e-01
9.445943315374906793e-03 -8.127110982354484037e-01 -1.012187484105524782e-01
5.900305803999008614e-01 -2.593423933946257809e-01 -1.958926868016747369e-01
1.879389515103242064e-02 1.367662999909261823e-01 6.496021419574918854e-01
5.076103032354385425e-01 5.515042137611413375e-01 5.289669679623668630e-01
4.124255313161775960e-01 4.844004086566283673e-01 5.633808964676396691e-01
9.074635926008634002e-01 3.382776744239377464e-01 -1.163572371025974050e-02
9.319703381763325689e-01 2.193751581841127396e-01 -1.294238566158085746e-01
2.514185368108483587e-01 -2.735338547100797379e-01 1.061259278128816458e-01
6.368600474064486372e-01 5.556293215253494955e-01 4.126517806044520675e-01
7.541834821092929797e-01 4.742880096106313892e-01 2.390106123112332726e-01
-2.070620750946595701e-01 1.876547971730761766e-01 8.993265398562101387e-01
2.397335636429863415e-02 -6.981038949233332458e-01 -2.299071799862821217e-02
-3.423966507640455181e-01 -3.616682430386538583e-01 5.851777355200502573e-01
-9.192072554540466067e-02 -9.376977948697936549e-01 -1.073833658157411775e-01
3.050346360690637804e-01 -7.293516497916899821e-01 -3.080948144274061606e-01
-3.681732228861780420e-01 -6.336285831078143638e-02 8.476425607553736974e-01
7.730840002808355704e-01 -2.404617925260976383e-02 -1.770906217022928664e-01
6.076315112208822145e-01 2.743219676607114299e-02 1.720491943947635716e-02
-1.057738611721906336e-01 -5.556949675179301273e-01 2.109951223125059727e-01
9.382197590442650226e-01 7.586281284830884153e-02 -2.500006749434235398e-01
9.763128633359237363e-02 -3.361727261208922318e-02 4.403545672347811135e-01
-5.368845304438003146e-02 -3.114435438304148374e-01 3.581652932844343051e-01
2.331106441881064806e-01 1.728129708256436747e-01 4.800948416013041675e-01
8.475349934400850938e-01 8.090826899011782647e-02 -1.620402426255306283e-01
3.410248195370640389e-01 4.804159553508434710e-01 6.262719264678745512e-01
8.006814063686921168e-01 6.755230549158042219e-02 -1.293625901973299575e-01
7.933783908885156944e-01 7.092207247138568316e-02 -1.199085560097506997e-01
3.543016980031374330e-01 -4.285344919880317849e-01 -1.130703527870986075e-01
1.336223011704307517e-01 -6.537524229736991765e-01 -8.898981719310596061e-02
-9.572413689608333387e-02 -8.993841983656956085e-01 -7.321703890396345782e-02
-1.173371901783922394e-01 3.403459074299032827e-01 9.384254256294529695e-01
-1.714040223728935108e-01 -1.374695962085419887e-01 6.062647489022807701e-01
-1.396632018615478754e-01 -1.753025919617608452e-01 5.466280375743528541e-01
2.809862580779894925e-01 4.717480903015748850e-01 6.749016127336221471e-01
-4.550042528360129235e-01 -5.033011893768768452e-01 5.761010210786376984e-01
8.361765615125783535e-01 4.763061119855711012e-01 1.647439717615800103e-01
-3.509868145109869553e-01 3.021202487282067736e-02 9.065863899984190066e-01
-4.219667746471619796e-01 -3.342487073574916812e-01 6.807487426953081622e-01
-4.489492852761925445e-01 -7.826956474564470412e-01 3.470142014223245308e-01
1.621199355111679896e-01 -6.647971900220265296e-01 -1.241976246341881529e-01
6.401913956953051432e-01 5.165646981335123566e-01 3.783215921550886485e-01
-4.843074230429095239e-01 -3.787185860258019399e-01 7.028714402804212558e-01
-1.274897944365225577e-01 -8.024761989755668790e-01 3.369582174767054433e-02
-2.346008940306938961e-01 1.552043800667805840e-01 8.988558951085209303e-01
-1.546980355628333470e-01 -3.044960204244543944e-01 4.572023105720993685e-01
7.553894300375435522e-02 -9.004128233813116569e-03 4.804876984194801359e-01
2.924809839418415769e-01 -4.763453650351943680e-01 -9.410123964194271051e-02
8.633933007767394807e-01 -4.051033779076671643e-02 -2.738372180038546877e-01
4.118706278642737528e-01 4.027782159362320868e-01 4.986061297832927175e-01
8.604424251049431760e-01 -4.200478641657443696e-02 -2.723017018401440725e-01
-2.289631892307244787e-01 -8.942541902845824175e-01 5.419309404670978603e-02
3.458525398315526189e-01 3.865070207894573118e-01 5.466878137741267851e-01
5.689090054110373940e-01 6.207215239193318856e-01 5.276036246801301122e-01
7.135186860795738051e-01 -4.171344625554414542e-01 -4.363907345005423877e-01
2.606701800571127325e-01 -1.462871393377723483e-01 1.993465910742256153e-01
5.402597376703555110e-01 -1.870971073117217442e-01 -9.204415654601304231e-02
-9.071719683701770509e-02 1.229810425272397922e-01 7.399230975274722066e-01
3.383501146763949197e-01 3.921375230878920704e-01 5.581347191311656353e-01
-4.377351276613006825e-01 -2.820226568545489143e-01 7.371164348379755094e-01
-5.021167359755170922e-01 -5.319068818299803603e-01 5.968202524182357749e-01
3.578609940184166588e-02 -8.355239562779650520e-01 -1.438430176470128774e-01
5.787857195054648685e-01 -3.414892097844925423e-01 -2.511940192701365149e-01
4.080340270763182370e-02 -7.226567157379520934e-01 -5.820557931650129080e-02
7.767052064262789379e-01 2.347628517844971285e-01 2.657537811119182677e-02
8.041457137631120577e-01 -3.130157662917189554e-01 -4.369790490299236274e-01
1.941892479118555170e-01 4.604616574050037214e-01 7.462004826420256531e-01
-4.071848023400228417e-02 2.536962264968213865e-01 7.982085595402821365e-01
6.547397561832545287e-01 -4.769169670191057420e-01 -4.298125742814822292e-01
-2.885706249047463867e-01 -7.879740994989339331e-01 1.943688499890960097e-01
-1.756967019912631656e-01 -8.181397479832830388e-01 6.578010985431084756e-02
8.035464789187163337e-01 2.859555065602577550e-01 4.268319090282736428e-02
6.903526782566274944e-01 3.932271267196069675e-01 2.332438141901430062e-01
8.083742017658678003e-02 -5.283006209756357929e-01 6.020712223381487899e-02
