-4.118139616201558773e-01 2.970997988596729145e-01 7.539868684499297924e-01
-7.339606321665870237e-01 -1.457170168240573827e-01 4.970103061960088331e-01
-5.766024084821375073e-02 -7.355970174840897879e-01 -5.304456005500747251e-01
-1.713264611448138686e-01 -6.958719404361224381e-01 -5.382078355849981843e-01
7.839755280929665282e-02 -4.624224201310400684e-01 -7.755065144123998166e-01
-5.303284211970399342e-01 -3.719018667179184723e-01 6.632751305248774099e-01
-4.842881259573786901e-01 -7.717676651525540166e-01 1.901688984354363565e-01
5.541396869493510069e-01 5.809387589621409775e-01 -5.719751694944756881e-01
-3.460624410026039710e-01 -2.597601974168705086e-01 8.848251033420287959e-01
4.227587830739903962e-01 -6.875349174484191028e-01 -5.679435186463689389e-01
8.834408452392699118e-01 4.013379677906605547e-01 -4.062852592184076211e-02
5.340194235349684515e-01 -3.767487688538563861e-01 -6.737979514500199718e-01
-3.887064782095422943e-01 -4.820273348365499699e-01 -7.098609882068269705e-01
2.883081563959612459e-01 -4.472915317522306866e-01 -7.401552211532488323e-01
-3.960802292481657716e-01 2.658123001676500619e-01 7.721256195771031283e-01
3.921444802561115939e-01 6.489065523126442969e-02 -8.657106639178825391e-01
8.743024833795085549e-01 -1.905851977108550255e-01 -4.668457017154432620e-01
7.236813976592861852e-01 -1.463400600419108299e-01 -5.960111095512330426e-01
2.973259503160572553e-02 5.057005773822579320e-01 7.748991254374436588e-01
-6.174388022730714631e-01 -3.549501019171364957e-01 5.517439978038378712e-01
-1.579290718061717169e-01 -8.530533121671269869e-01 -3.343463024081366752e-01
2.448522551703512518e-01 8.216722044119932900e-01 3.960504515735165376e-01
8.058074784620649078e-01 4.181051319655055831e-01 -2.436601977936591612e-01
-7.018537924184895527e-01 8.236410194974075338e-02 5.813247283574501934e-01
8.514793527119243199e-01 9.600824528003709321e-03 -4.580146016953610122e-01
-6.704652014436580654e-01 -4.950438935189865330e-01 -4.446666711430680152e-01
8.707201734125804560e-01 9.156015643310559671e-02 -4.062064893623093531e-01
-4.380217506875418443e-01 -3.924001812000264544e-01 7.693974053262078172e-01
-2.806669042227743494e-01 7.656412338274436458e-01 5.559031609194029500e-01
-8.803608846015793798e-02 -7.810830339351778617e-01 -4.684632051931684193e-01
8.082166379781788867e-01 2.514489320578000009e-01 -4.077877365328867465e-01
4.120305874352986897e-01 6.311061760473793969e-01 5.639835807253480437e-01
-3.561362833391915061e-01 -5.537649799510628856e-01 -6.344300629789744184e-01
-6.143459616310068538e-01 3.497631498228808145e-01 6.245660251783908823e-01
-6.393069320048647142e-02 -3.879689606477022545e-01 -8.439419716099882951e-01
-9.111382797830603897e-01 -1.078948072905769606e-01 2.639982548501852988e-01
1.250375411206366971e-01 -4.898176595063966077e-01 -7.502017306624839676e-01
1.907445227171882252e-01 -7.287021696512228086e-01 -5.670042091012217345e-01
-5.423071457542928409e-01 5.679121809609081681e-03 7.188624022858529639e-01
-5.036981916243221669e-01 -7.516956656408293469e-01 1.739697737017936729e-01
-6.503263559239003122e-01 -2.845510212978607512e-01 5.440215881218866123e-01
2.246531130755785033e-01 4.451479970694955379e-01 8.254856095410784134e-01
-4.918902857787332827e-01 -7.008766852116163903e-01 4.246254744442191087e-01
-5.380313883717970924e-01 3.386274658935613524e-01 6.729222732516910721e-01
-4.228717629813526502e-01 4.828210805575102182e-01 6.789234142565584440e-01
5.727191931555478677e-01 5.299321882074148338e-01 -5.826550728468166129e-01
4.273914662608702814e-02 -7.567605800424539453e-01 -5.306496698804532564e-01
1.379713375237820450e-01 -5.617516833386139163e-01 -6.980923412593437183e-01
-3.847586984401411003e-01 1.485901991774957187e-01 8.111835772416867707e-01
7.722632526306150158e-01 3.443839527317063554e-01 -3.965225483922623084e-01
-5.288599534032761840e-01 -1.600523724691294281e-01 7.220591280041721571e-01
1.250763751629297149e-01 5.243761798111110650e-01 7.614085380178098328e-01
6.933529346027051954e-01 6.022313276203008492e-01 2.441685484007113938e-01
-8.130830749566719806e-01 -1.376539707938187473e-01 3.944027259710581879e-01
-3.329471903451778486e-02 -6.771967286079231263e-01 -5.962324996115907494e-01
-6.761603321004141520e-01 -3.357743336930187339e-01 4.746081680715042439e-01
2.194015487235612405e-01 -3.540638526473376957e-01 -8.104255306823939797e-01
-5.709243276098487918e-01 -5.588643208882695390e-01 4.542152608311218476e-01
5.051956459217333828e-01 6.894253309164669608e-01 -5.531206315461216771e-01
3.553913535762152076e-01 3.206774487121032829e-02 -8.851611136886166076e-01
5.635920806151087925e-01 5.499146032062337541e-01 5.769223946817843007e-01
3.574530690911225522e-02 -8.860976244590424988e-01 -3.903554393845488635e-01
1.723508178516285072e-01 4.899839014820698280e-01 7.890966079701351443e-01
-4.976376996089005300e-01 2.215720822719949856e-01 7.253493337910685845e-01
4.620282799040676402e-01 5.325678535710495209e-01 6.708723958125637488e-01
-5.931382257244959266e-01 -4.518775796521112831e-01 -6.270291519696206128e-01
-3.078434622281897223e-02 -7.466013236940539644e-01 -5.256543749281220590e-01
5.531459354859759037e-01 5.752290694311589236e-01 -5.787574258613765732e-01
-1.568646878845277870e-01 -9.123051646095642342e-01 -2.399683091067583984e-01
-3.362802026920422294e-01 -9.112126322938498557e-01 8.438203251752712797e-02
5.986104919137014146e-01 3.032652250286905701e-02 -7.030697377569427031e-01
-7.183425894541169976e-01 -4.470866438732479797e-01 2.692624371576555209e-01
-1.984171152693311457e-01 -2.949831228385536019e-01 -9.228763124489741676e-01
3.215955298799214046e-01 -5.960602005568593764e-01 -6.459168141909562566e-01
-4.612939109555536793e-02 -8.748958363258763082e-01 -3.699848334290837815e-01
-5.839032229519437456e-01 -6.706193767407051531e-01 1.415233066872644170e-02
7.836769284749499631e-01 5.340812705482013145e-01 3.154700380312606273e-02
-6.104640045744935684e-01 3.608638435430291391e-01 6.244540832869981406e-01
-4.221594561282234620e-02 -7.585053914982565759e-01 -5.097354365306004942e-01
2.856469731176612958e-01 -7.624847508241086036e-01 -5.369215865846678204e-01
-3.316494510431178822e-01 2.460766958501259538e-01 8.115036949425259438e-01
7.865152029735527073e-01 -1.998396991364511099e-01 -5.430245172407890397e-01
7.202517199709199680e-01 5.008985841359931968e-01 4.901405936666786700e-01
-5.624885304843109113e-01 -1.343313083641093364e-01 6.922730146260613893e-01
-5.666836969588552320e-01 -4.454427610722703768e-01 -6.590500554192051386e-01
1.401760293947747205e-01 6.344166264075541406e-01 6.590716293314436980e-01
-7.037828573755591233e-01 -4.954453861358746880e-01 -3.744459999552047225e-01
-5.597581045978416991e-01 7.685263718261679811e-02 7.019575044134290787e-01
8.046531042446863902e-01 -1.538552428645453551e-01 -5.276164301966620451e-01
5.093706952531165122e-01 5.549753462768801660e-01 -6.649744234079547622e-01
-7.051983963508919873e-01 -4.372995658734163404e-01 -5.266794399862148035e-01
-5.552666406806386901e-01 -6.227932806104188312e-01 3.950203994179307121e-01
-4.500870936766558916e-01 -6.861207431404787727e-01 -3.426048691686299774e-01
-5.032788355588234674e-01 -4.699220847184293892e-01 6.504597297710096315e-01
5.247633836408019947e-01 7.520274559089840105e-01 1.904508059895804739e-01
-3.612176780356478600e-01 -7.886882555689837815e-02 8.665803880734969100e-01
1.932875870141716468e-01 -4.508889759485622956e-02 -9.561821166439105069e-01
-2.776600224831183850e-01 -7.677414765108048211e-01 -3.756880565266197403e-01
-5.699384441868227125e-01 -5.591506028420766272e-01 -4.511673070609688030e-01
-2.260528561024294780e-01 4.261048121611543671e-01 7.762889959904667458e-01
4.398101997843942290e-01 8.051830968155069268e-01 2.162818461322399965e-01
3.747852096115243670e-02 9.345378896388023549e-01 3.573668886506064513e-01
8.644298889769188587e-01 4.439446761505995709e-01 4.186309740243292915e-02
-3.667986914444480023e-02 -3.875804838104316419e-01 -8.418918536097589334e-01
-5.808842230110110583e-01 -6.278870828023649375e-01 -2.519989750118839522e-01
4.999275077198668260e-01 4.889705896821158748e-01 7.089218155009030520e-01
-8.532723159213903008e-01 -3.915497832270948830e-01 -1.373785066338595595e-01
-4.973281062187138724e-01 -6.711768184046521535e-01 -3.044536312776591758e-01
-1.932542612334871845e-01 4.813297387575015129e-01 7.551245409403449793e-01
-3.874237323407871414e-01 5.220520613086842426e-02 8.298479926773183468e-01
-6.289395819173032587e-01 -4.521681544643672557e-01 4.576187984799880981e-01
2.168893018332193057e-01 -5.123609099735433325e-01 -7.196177250882145326e-01
-3.573345222390203468e-01 -8.890321606643892816e-01 6.410260658568263381e-02
6.662644839335991886e-02 9.239327301013530169e-01 3.573535193970622248e-01
-1.959336904717206007e-01 1.716037457321795134e-01 9.029173307684612571e-01
-5.349496855740520918e-01 -4.271060445057286992e-01 6.294120300745468244e-01
-5.229176092837742873e-01 -7.170966906559452791e-01 -8.137755690359599337e-02
-8.757515251669986123e-01 -2.091609749925666673e-01 2.357997751441479883e-01
-9.246178800710243006e-01 -4.225384433078395452e-02 2.880615972251057144e-01
4.310605301877775686e-01 7.664977457355006685e-01 3.175924580336147995e-01
5.997513403270502419e-01 6.421917792941774783e-01 -4.001924257083284697e-01
4.198175906559262205e-01 4.281748728908851276e-01 8.115164031897539321e-01
-1.064565080173835408e-03 -6.622980194621157501e-01 -6.151009321062815838e-01
6.706740702283700006e-01 -1.659835767433902320e-01 -6.359470468311327895e-01
5.881223977088846366e-01 7.334179074828643952e-01 2.195376441032573928e-02
-3.920179504957838068e-01 1.314126710807200782e-01 8.108512369242234508e-01
-5.871476853373850391e-01 1.539036495552725536e-01 6.747596698699964701e-01
5.799210553889612152e-01 6.899933676293309448e-01 2.531812187120272006e-01
9.684759908558369934e-02 -8.384509908013111357e-01 -4.588645173784439146e-01
5.540839536678560107e-01 7.156743652843664538e-01 -3.879838564519857425e-01
-2.377179958713358243e-01 -6.215363808535853130e-01 -6.014839862244455437e-01
3.650937699255912827e-01 -4.582931581293527290e-01 -7.103482141096559843e-01
7.093247069115250492e-01 1.047081057656569364e-01 -5.908555537670042712e-01
5.417978179881365319e-01 5.003929151465303926e-01 -6.504264735896724270e-01
7.575113861238338409e-01 5.582799426057764025e-01 1.673551927252381333e-01
6.615952587555119502e-01 6.079627209460873871e-01 3.152869011005197675e-01
-3.111083700291945586e-01 1.294126625081630511e-01 8.587532191235311974e-01
7.412239381332438315e-01 4.256440073371418054e-01 -3.756252635186390076e-01
-7.077584734613867612e-01 -1.257355607525376118e-01 5.365007601325471054e-01
2.213300480358723343e-01 -4.383763106433735124e-01 -7.633395395870685718e-01
3.398783171579414231e-01 6.853409012197589911e-01 5.312072140499923822e-01
-8.271890511707162830e-01 -9.739538430894577326e-02 3.960746433227003704e-01
7.967574801980114030e-01 -3.271727514739464771e-01 -5.254691774538479132e-01
3.094386656124146207e-01 6.954669874935190954e-01 5.342727582961198651e-01
1.537564386135626404e-01 5.168860215016219950e-01 7.665870022228311598e-01
9.899191953357019957e-02 9.284092946970230464e-01 3.345421341572227258e-01
-8.510782409650183844e-01 -3.926866875814844504e-01 -2.486320642559957661e-01
5.059933746230375062e-01 5.195687650811307012e-01 6.642118533128938962e-01
-7.578846484539427664e-01 -4.910868162070161635e-01 -1.275227298229744399e-01
-5.585190918176803354e-01 -4.896380517320541581e-01 5.494728618766986372e-01
2.351123487112623256e-01 -5.040896508246407448e-01 -7.209825425536839916e-01
8.403156788994080584e-01 3.328838450934297200e-01 -2.807474263562103611e-01
-8.104700147202953397e-01 2.956322175831881394e-01 4.908241362647499106e-01
3.298028983315968166e-01 -4.691313132414469678e-01 -7.161231055925093569e-01
8.103571393992570204e-01 2.326840891112995913e-01 -4.165038439468260467e-01
-7.347945571183711611e-01 -4.301855984380473785e-01 -4.952476382947425537e-01
7.990690779997803306e-01 4.999135324147481740e-01 3.023163658817111243e-01
6.511247138009866875e-01 -2.367407210943136553e-01 -6.405377754565863002e-01
-3.620279067960470165e-01 3.765644784109440368e-01 7.487119971724487399e-01
1.282180656648440331e-01 8.723178170569704237e-01 3.940502365987160194e-01
6.364405228471211595e-01 5.494479033304302540e-01 -4.469443251909832049e-01
2.131106179746422857e-01 3.925594954634422096e-01 8.704454475650755807e-01
5.165404836567408786e-01 8.120293409852469280e-01 -1.567830580994572787e-01
-6.876896943415192753e-01 3.246635611055408988e-01 5.809978354559065528e-01
6.970358483273177141e-02 5.262604110082199638e-01 7.604092161098958691e-01
2.867556699980227664e-01 6.125149108414843502e-01 6.463313212947308095e-01
2.851780007807190320e-01 -7.398064494038326666e-01 -5.540068539859281938e-01
-5.119442267238801803e-01 -6.637414414328818291e-01 -2.973327393381138828e-01
4.092556016861817469e-01 3.776728048313815478e-01 -8.522919030548185004e-01
3.040352796343424036e-01 -2.729612063350915219e-01 -8.183129854811279635e-01
4.788437784455699120e-01 7.685232749099318861e-01 2.400521246442664514e-01
6.126745174757871615e-01 -7.886810612967094791e-02 -6.875793056265937508e-01
-7.684424821578915710e-01 -2.958423680500285036e-01 3.508736743056126151e-01
-6.206579804205535345e-01 -6.327754741534978855e-01 -1.323680809697328799e-02
7.860515519491723113e-02 -2.394612327003100560e-01 -9.134853402107002696e-01
-1.326610693986937373e-01 -7.628369787052160511e-01 -4.722617412816375593e-01
5.187537775188475475e-01 7.773533836947613684e-01 -3.525647669963093422e-01
5.614068975526519401e-01 5.243973579361010939e-01 -6.050488112428804577e-01
-2.170781775729640484e-01 -3.171993931756225127e-01 -9.053838844442557710e-01
8.269940371090163111e-01 -3.132080672877034233e-03 -4.880519643011833053e-01
8.877074513279386014e-01 3.773522341581185824e-01 -9.023904894921203068e-02
7.004608613331261280e-01 5.456179241614457220e-01 -3.014341522028952114e-01
-1.093223698738855082e-01 -9.438476223360019457e-01 -2.290838942565608105e-01
5.703566942829214614e-01 7.111823355707815875e-01 -3.449797094497261685e-01
1.498128100966971410e-01 -2.519798069265345442e-01 -8.851211076228173713e-01
-2.643115934991140947e-01 -8.158579623802164615e-01 -3.058491204142569364e-01
5.007590568825187605e-01 -5.086586074466222795e-01 -6.372295991009462313e-01
-2.091039778829248408e-02 5.908835049528634586e-01 7.065317604864489454e-01
2.163873949630934768e-01 -7.044313784671476508e-01 -5.854119638142259996e-01
3.568832184441476235e-02 1.963649332227129229e-01 9.768590742667304649e-01
-3.516140532900305371e-01 2.930510869007588171e-01 7.853079123214095070e-01
-4.932233151433469964e-01 -7.617540613836470964e-01 4.765994455196981977e-02
4.543895424993427828e-02 -6.834123869099690829e-01 -6.003945441091494972e-01
-1.951942259412285385e-01 -8.041313059353357717e-01 -3.816147267241304930e-01
-5.777529965453896965e-01 -5.049167379855272753e-01 -5.488513235750942520e-01
-6.190057019075855260e-01 4.879128878495033739e-01 5.853336407293572297e-01
-8.465537907088156455e-01 -1.313209008698803248e-01 3.491108545210873104e-01
5.794432834861770187e-01 6.780110754707920906e-01 -3.902382549508923715e-01
1.794161789584984845e-01 -2.539985813288217487e-01 -8.742013895323790251e-01
-4.600746393418631563e-01 -7.886778840875493524e-01 2.779039594741130603e-01
6.637043218455089821e-01 6.350486290739718598e-01 -2.045107510209301371e-01
1.173178466891665467e-01 5.578100695627826733e-01 7.327566089883686962e-01
-3.876958169586987579e-01 2.023304521320395122e-01 7.954414086782833904e-01
-5.748545537663293237e-01 -6.802580031246659997e-01 7.158525979602452238e-02
3.293766900833592359e-01 4.864225550910900586e-01 7.719241659709326076e-01
-4.799114443135691910e-01 2.268158328222612263e-01 7.351446804573998905e-01
6.883339500910889974e-01 -9.447902802661521660e-02 -6.265145508578352507e-01
-7.440403104878612339e-01 1.529911449663211853e-01 5.468879504131785030e-01
9.097084906707073593e-01 -1.102423118641250172e-01 -4.222259069331961157e-01
-3.157565483967775810e-01 1.708911142279871953e-01 8.440375748015889190e-01
7.903834900328430280e-01 4.343591575011417905e-01 -2.562534219918267131e-01
1.988531380306599594e-01 3.480777159022048206e-01 9.054662993875552957e-01
8.641414681518569951e-01 4.282182652544109791e-01 -3.348261817481361369e-02
5.443290013908148595e-01 -3.793745556566661681e-01 -6.677354091407695647e-01
8.364178108906028530e-01 3.733446291763649616e-01 -2.374024696799464096e-01
-6.382203264801815656e-01 3.088384332618829275e-01 6.172760262582145385e-01
-6.522287765092935063e-02 -8.762330311813099071e-01 -3.585666782957743770e-01
1.687592382069253924e-02 3.717326396127351162e-01 8.675632219842550619e-01
2.324770371528168678e-01 -4.102243417942909032e-01 -7.763134818554979777e-01
-4.258495396239645459e-01 -5.534828171039695155e-01 -5.956702070641762825e-01
2.986294219267803252e-01 3.780227917492440248e-01 8.801152830872724930e-01
8.501738732429550138e-01 2.812707967972573053e-01 -3.149769738274006414e-01
1.930385630796239704e-01 7.364093350741134358e-01 5.351318023677550384e-01
-3.504510465151092768e-01 -4.050740961615988400e-01 -8.091183477465522245e-01
-5.871216038910848090e-02 6.060470066082795926e-01 6.929378059292964354e-01
9.203925524403316905e-01 2.266457400653614507e-01 -2.380452684451084822e-01
-3.861539266214906174e-01 -2.034177788633415862e-01 8.512690650870567977e-01
2.778143436891735707e-01 -2.376891355041860499e-01 -8.440094019583269658e-01
-5.484087234862644600e-01 -5.514490254086447107e-01 -4.934163576958764397e-01
2.678357546809401746e-01 -2.789440509037267868e-02 -9.231314666632679522e-01
-1.170832004714214281e-01 -7.842045285060331716e-01 -4.524183938936471305e-01
-6.533011281392160363e-01 -2.180257731354224016e-01 5.698883612710260449e-01
6.690069694516551646e-01 -4.415195608565389979e-02 -6.432863071624741469e-01
6.499129700534579390e-01 1.461657446429959761e-01 -6.450628943969475282e-01
1.080392046916621301e-01 -1.308137171880041083e-01 -9.582477318852025139e-01
4.351877592944719542e-01 6.557104280143809527e-01 5.111224589351024417e-01
-9.286557574154591377e-01 -2.298924776924426150e-01 9.054621169057779084e-02
-1.885195985282379569e-02 -6.748812606789673652e-01 -6.007884558748518566e-01
8.399931911266232953e-01 7.233457384590238903e-02 -4.521714011466193006e-01
-3.031310664623985685e-01 -6.111024892837105815e-01 -5.860750988503364844e-01
1.532986755214652552e-01 6.633465752993741305e-01 6.275084682289985283e-01
4.697737220934753988e-01 -5.738508641924312537e-01 -6.177378415656568089e-01
9.402545375070496536e-02 -3.908269116226438245e-01 -8.205607385559589018e-01
-7.655768247188011744e-01 2.703016826950871976e-01 5.281795454274577084e-01
2.291882489090620867e-01 8.886300293076242474e-01 3.039795546000964022e-01
4.884214499400829634e-01 1.701939673556446958e-02 -7.902081058326915208e-01
2.751386219014445023e-01 -6.823369811502931759e-01 -5.967048620376683710e-01
6.139933906208907555e-01 6.408971725736046787e-01 3.227126232153219587e-01
8.961559254715519840e-01 3.616252386508441163e-01 -9.898103571766458941e-02
-8.328150772459046447e-01 2.583959944491930338e-01 4.719315050069460282e-01
2.813743998074786853e-02 -7.434091402959920325e-01 -5.413402689036652671e-01
6.030916003689800187e-01 4.881267362548501465e-01 -5.647229761303736995e-01
-6.053470443864362727e-01 -5.930835798984942508e-01 -3.036026001335697111e-01
2.322543011785726530e-01 1.061851984935143350e-01 -9.786225908389670769e-01
-7.173872297504685358e-01 -5.321299205247111141e-02 5.459133422827175952e-01
1.428622717844799106e-01 5.136142683618371008e-01 7.699702489850484000e-01
-2.531750400527278330e-02 1.571931570024256708e-01 9.777041657540060937e-01
8.990472653703212025e-01 3.124275996489319640e-01 -1.787213239344524751e-01
-2.860463147208500700e-01 -8.369378945455893115e-01 -2.420850068722285309e-01
2.482092333641601756e-01 -2.405726251287833295e-01 -8.548822161531807184e-01
6.807116047885705123e-01 5.053096888831288824e-01 5.364126247188109042e-01
4.817984626232499346e-01 8.481902301488845053e-01 -1.531655886640887754e-01
6.704194156814453631e-01 5.073488405932117251e-01 5.450024823541506080e-01
5.343412159502148873e-01 7.175966369948606483e-01 2.703125819625848414e-01
-5.627777426337531308e-01 3.817933499470759218e-01 6.471316075259818668e-01
9.497890437287106469e-01 2.462251922086552691e-01 -1.550032468840228106e-01
3.500127630634101705e-01 1.516028849559569458e-01 -9.068759482709483066e-01
4.103470336410632302e-01 -3.540221485286972336e-01 -7.398794708249634144e-01
-1.125465102429922121e-01 6.703227313551493038e-01 6.405534112242208256e-01
8.559135166459586053e-01 4.587185206443867291e-01 8.384970767310885587e-02
-3.247226083116191986e-01 4.749336566090958667e-01 7.193100987129649182e-01
5.475040997799480724e-01 5.059829667905684225e-01 6.575840455449679656e-01
3.040485351492447363e-01 -5.116875039221649990e-01 -7.000607344714790958e-01
-6.156802252180281210e-01 -6.382222280157087146e-01 4.610451275599957571e-03
-1.860391436648804464e-01 1.176617198928679997e-01 9.274862429781666195e-01
-1.623213298682562311e-01 -4.034506850553549184e-01 -8.341268844854875519e-01
-6.958797567341827861e-01 -5.356509575126442435e-01 1.240825232106091552e-01
4.186757902762686112e-01 -5.972804876182477019e-01 -6.210890229963652587e-01
-7.802731497993997678e-01 -4.633704433514502785e-01 -2.163078717566012110e-01
-1.344839009063276414e-01 5.566026737169469385e-01 7.201754678295712031e-01
-6.374406099210957466e-01 2.219509777081925261e-01 6.303393379292244747e-01
-3.420912943009816187e-01 7.601841794357024895e-01 5.511058478027400787e-01
-8.148912151655867131e-01 4.266599364063525940e-02 4.619395661801420916e-01
-1.745119250803069955e-01 -9.356934278022708273e-01 -1.796829976051174949e-01
-6.035976859502467651e-01 -2.713506428847848873e-01 6.113301611811907676e-01
8.479405363962787545e-01 -2.162668463756229620e-01 -4.912258752865863998e-01
-5.569804327491125751e-01 -6.688063230483605182e-01 2.800035011648413508e-01
-3.831745173451011621e-01 -8.483398627789637825e-01 -2.386342545028678416e-02
5.887451554625126177e-02 6.722700724386017068e-01 6.341390841689090729e-01
4.494046867734522999e-01 1.626953991917862719e-01 -8.296489331383190002e-01
-5.050818609040920171e-01 -6.801334385605993793e-01 -2.666155912949190188e-01
-6.079104876304197713e-01 -6.206066672811954010e-01 2.216318564870314867e-01
-6.124330100082280293e-01 -2.261441875044717664e-01 6.168225808944046706e-01
-4.951321757169779292e-01 -6.175204959346577427e-01 -4.265445210229233952e-01
-9.748436647373602548e-02 -8.491579044983983415e-01 -3.775882459824490556e-01
-4.882118344165270463e-01 -7.232610916418191760e-01 3.857792777965975417e-01
1.506144968960189678e-01 4.278316926657406150e-01 8.410388462472041526e-01
-2.928481803865276567e-01 3.279923029754839431e-02 8.941977395113253069e-01
4.678847946619691389e-01 6.836121991866866976e-01 4.353834280230917675e-01
-4.883639953993234029e-01 -7.659355994316550120e-01 4.213902612794966779e-02
-4.191359816758702395e-01 -1.432977948805486956e-01 8.236272873594943089e-01
8.192571289100473997e-02 7.316007942347569903e-01 5.725115665813403920e-01
-9.013976533102595334e-02 -3.804642220288884658e-01 -8.513741958967132595e-01
-6.935425306839209103e-01 3.606089782592057924e-01 5.712226696615834154e-01
7.173262187795518274e-01 5.778814637382666541e-01 -1.652870662545130598e-01
3.463167941470630673e-01 8.153527243424142368e-01 3.209106139996766305e-01
1.296593470923176339e-01 6.441970617948664657e-01 6.512019202258391148e-01
-6.392263398810107411e-01 -5.022087473915923805e-01 -4.779959460395056814e-01
-4.926842143513067707e-01 -4.386627401326149145e-01 -7.162661780558253755e-01
5.765926007354502669e-01 5.851141522055069988e-01 -5.266442158832264075e-01
1.143446555596932951e-01 6.510697431844110206e-01 6.469188668787664298e-01
-9.269074198030275991e-01 -2.949962210285052011e-01 -6.399907553931188930e-02
-6.769693354262585894e-01 -4.094314950874459735e-01 4.098956753437090206e-01
-8.524205702405455165e-01 -3.730234228157190968e-01 -5.072805108181945716e-03
5.042160117330835023e-01 5.152514489791975016e-01 6.712345268349760863e-01
-2.390988677399110973e-01 -7.300810641830980385e-01 -4.603803307960309121e-01
5.554430176701331545e-01 -5.209933191088491622e-01 -6.096657682562152125e-01
1.872006520609234836e-01 -8.120887091991049189e-01 -4.959616401593502366e-01
-5.787602970724500251e-01 -1.406430138757160664e-01 6.748907982784562165e-01
-6.285987248352370438e-01 -4.792519371483241475e-01 -5.406920868241700262e-01
2.410342290834999457e-01 -7.965301222595146946e-01 -5.112822304553563679e-01
3.505481043161707277e-01 6.472270194967656431e-01 5.768518651756687765e-01
-5.425432244185431907e-01 3.388857704053977460e-01 6.702526655801818167e-01
-2.470485856654451862e-01 3.626777554421708460e-01 8.006033104143269741e-01
-1.094302539523902135e-01 6.523410052032584394e-01 6.545158604073988418e-01
-1.638140205939834504e-01 4.525340178081723730e-01 7.791920514084124116e-01
-7.296683613159702375e-01 -4.321056520579304450e-01 -4.994411143113332008e-01
3.451577510595576492e-01 -4.522046640111966886e-01 -7.200073499275114752e-01
-7.130719727727116153e-01 -5.076449553747159893e-01 -3.036899125496117513e-01
-6.101989354372822083e-01 -6.297666647160857778e-01 -1.396152209270051792e-01
4.080988156521077603e-01 -1.259136747746861067e-02 -8.422349137635819494e-01
1.921565570851876958e-01 6.805808186141800720e-01 5.993420114001498655e-01
-1.983781460214232295e-01 1.571183459966975782e-01 9.072717691216710678e-01
-2.290553761162283097e-01 -9.389064087938748804e-01 -9.953071121151708944e-02
-7.254032318451777428e-01 -4.450174889884630502e-01 -4.739737625592059800e-01
-2.530917162375471152e-01 1.041399618868480981e-01 8.978738224563804771e-01
-1.020777161625115587e-01 6.386975486648104328e-01 6.653470484945180896e-01
-5.780013987201801373e-02 -3.232507895204392301e-01 -8.901209293497227559e-01
1.467136194744761701e-01 -2.968960980957821572e-01 -8.626350786777797763e-01
-5.251536260709082499e-02 2.551392885633861907e-01 9.193229663488500236e-01
-5.022250752842583044e-01 -2.600113192821031927e-01 7.321596401747774152e-01
4.642621257125225109e-01 -6.062454626228790389e-01 -6.028638531404203471e-01
-8.448892902281287531e-01 -3.422255308495022463e-01 1.122312256012134302e-01
-1.539139130787464671e-01 3.152495186819274098e-01 8.561020226996036708e-01
-7.149179459063141895e-01 -3.528075588305225607e-01 3.947657937105611969e-01
8.628196543050030698e-01 3.358204155597737661e-01 -2.291926230995607050e-01
4.399309312841155895e-01 8.834729438964695758e-01 -7.802204555406574982e-02
3.581903932186974449e-01 5.634034454394035718e-01 6.782483900785311048e-01
6.820019328003463777e-01 -3.083758897656507236e-01 -6.071834217930933697e-01
-4.630026400005868292e-01 -2.549972596177688122e-01 7.740620933357393874e-01
6.580836144786169628e-01 5.964153490172096062e-01 -3.241550085638282841e-01
-6.401978180428428145e-01 7.998481012073020702e-02 6.358560860153052996e-01
1.865794430126766490e-01 -4.940276003309299058e-01 -7.371183294727697843e-01
5.114797343126155083e-01 1.268911936585400135e-01 -7.770298193957312360e-01
-4.416389532973954979e-01 -7.500975908112543777e-01 -2.003705103928475895e-01
8.446021525044621336e-01 1.265981657494047105e-02 -4.649321920116632478e-01
8.641408825596290644e-01 1.096766266802203238e-01 -4.067324074055914673e-01
-6.738883838796069226e-01 -8.215477008575197693e-02 5.864811555646924912e-01
-3.837139688041060065e-02 2.357825316736146815e-01 9.338296753362040903e-01
-4.096015267772320501e-01 -8.467987466474155012e-01 1.037753396208423717e-01
5.302662433000785436e-01 6.154923566090972908e-01 4.949810227992590406e-01
3.405365172725529632e-01 7.847811902443520005e-01 3.800577123757840625e-01
-1.874222071034235826e-02 -4.876831781081975015e-01 -7.646764883509982180e-01
-4.370460247155174560e-01 4.467456188829692088e-01 6.879362667236234019e-01
3.012127627853805056e-01 2.736267663881951362e-02 -9.183104765693679283e-01
-2.681644491157771926e-01 1.406107141419285778e-01 8.785791948730985457e-01
3.958345799704565682e-01 9.192697544417013367e-01 -5.451561936542201336e-02
6.435197613246942394e-01 5.121677978110346086e-01 5.662647198129772130e-01
-1.439562668700367087e-01 -7.321881405296404299e-01 -5.052393124700340632e-01
-8.310839657767494781e-01 -4.021528780115666835e-01 -1.913085108778378798e-02
7.655380852124381574e-01 4.753566601712180262e-01 4.757487855915210062e-01
-2.390562688762754295e-01 8.578804613190225137e-01 4.878665016044426150e-01
4.405218055121133958e-01 4.058609976404685682e-01 -8.140916157462063651e-01
2.827846441330269522e-01 3.747286000039750653e-01 8.839116580507800913e-01
5.283849955287507338e-01 7.786914370756219395e-01 -3.047728423653504048e-01
5.416086732015931160e-01 7.819153874117620306e-01 -2.198345602518380834e-02
-2.661172769479523970e-01 -3.311905705679838996e-01 -8.921289064957078629e-01
4.424224638751562133e-01 -4.392969826065561412e-01 -6.907643128079054007e-01
1.712508227932347527e-01 3.763096204522388688e-01 8.822405992499294802e-01
6.468532823208691385e-01 2.756588189219331686e-01 -6.148734470559922283e-01
4.479667135177432813e-02 -6.271769796764545823e-01 -6.499024324002717901e-01
-8.663980186599010702e-01 -3.791276603914020549e-01 -2.141960076405467761e-01
2.565905325753885524e-01 -5.510504761921879435e-01 -6.873618472419038561e-01
-1.886674008128405300e-01 -6.012833633362895114e-01 -6.406050175287681947e-01
-7.188210636319420921e-01 -5.147078057733742718e-01 9.263440170005085572e-02
4.687841268171578091e-01 3.938431423557328670e-01 -7.859315508084822044e-01
7.688592134523581922e-01 5.476421185469120267e-01 1.661036996504966501e-01
-6.723924071565228200e-01 3.517097876654311506e-01 5.869070728941317983e-01
-4.642841489059069127e-01 -5.210277362551645197e-01 -6.177344227080763250e-01
1.127746573232749766e-01 7.740903057672215981e-01 5.191274272497127251e-01
4.635944538185665653e-01 7.844440738850563255e-01 2.266649176004039701e-01
4.622100039701106944e-01 -1.929822410370061747e-01 -7.680394291716028388e-01
-6.840723226561686854e-01 -5.104482662371504498e-01 -3.745124490329226896e-01
6.045982717684318386e-01 5.713268053814910541e-01 4.970340855318812756e-01
5.789888195933949877e-01 6.955959570995327024e-01 -3.539891282423242025e-01
-4.461624885790551054e-01 -5.301677473608269464e-01 -6.162963538909634886e-01
7.788790912053931148e-01 -1.831796520893904101e-01 -5.497252356902786463e-01
-2.551057828312890963e-01 9.878274241329408623e-02 8.984069527315848847e-01
-2.472874106945386896e-01 5.893296686414871699e-01 6.781377174212002146e-01
-3.099710896970478968e-01 -4.348254100819261558e-01 -7.873273398054182470e-01
-5.249513964763238283e-01 -3.164766872036425260e-01 6.911321514794055432e-01
1.634291379667354993e-01 -7.265255133597329218e-01 -5.687532636630739935e-01
-2.390319769120810914e-02 5.797951301224226750e-01 7.150342446095013793e-01
-4.620556241028239697e-01 -7.110417687099213069e-01 4.882637218153496605e-01
8.707234625543814888e-01 2.551077551688396561e-01 -3.020257518075266101e-01
-3.216595415703875083e-01 7.611129075901642560e-01 5.536802388466196545e-01
-3.830714591660915880e-01 -6.448332632183043645e-01 -4.878205931922699468e-01
-3.730587055124245932e-01 -7.182257177228651424e-01 -3.715735287025409561e-01
-6.952942031028682690e-01 -5.419070153789058431e-01 9.881076047779793758e-02
-7.010410589552016347e-01 -4.997202515179069993e-01 2.141007282546587009e-01
1.862427899366093376e-01 7.921949634517256866e-01 4.694119666708833627e-01
6.979733473276326927e-02 4.611751940551410689e-01 8.113028555515379159e-01
-6.752807704919434606e-01 -4.271768662536187255e-01 3.941963211833767744e-01
-2.276556894320011515e-01 -4.698532825620174713e-01 -7.677544528369290022e-01
-7.063381126027675760e-01 -4.512613211014525061e-01 2.930364983027524128e-01
7.970714802284684097e-01 5.204094013943698638e-01 4.512249279999380747e-02
5.951100562816017403e-01 -1.944274259937894822e-01 -6.854533773170924382e-01
-5.316937799272383192e-01 -5.482696146774336254e-01 5.444716515058568573e-01
7.418419366331449050e-01 3.108646432931762571e-01 -4.700752269907221281e-01
-7.693524774645978948e-01 2.340623380199899628e-01 5.261194662272147271e-01
8.102399206969866929e-01 3.434314146167906645e-01 -3.285442050770414069e-01
-4.337110193029420913e-01 -8.222861314700606883e-01 2.527139521208629502e-01
5.693145700428903222e-01 7.176203609326589072e-01 1.888328630376920891e-01
2.055758988040578272e-01 4.735833008966762181e-01 8.015840672430777358e-01
7.787866553746187748e-01 4.864708393130999231e-01 -1.906265644005574744e-01
-9.119426994923179874e-01 -1.278658678225179646e-01 2.465294274152678433e-01
-6.494800441160342164e-01 -1.578323272285253043e-01 5.945977328564991948e-01
8.257926052196137290e-01 4.314112080494039159e-01 -1.649768619941811287e-01
1.834984940394635000e-02 3.836950831310502741e-01 8.599775156780773422e-01
-3.224978139031117047e-02 -4.563135324885059241e-01 -7.898227889680708991e-01
-1.165138917326476453e-01 -8.484898400020157716e-01 -3.677719088562016458e-01
-4.682191172500468346e-01 -4.924886077163196374e-01 -6.562578621847569016e-01
-5.507832267663111958e-01 1.161320940454500621e-02 7.117072984649391865e-01
-1.461520233849180617e-01 -5.167150276907587214e-01 -7.343052096989177713e-01
-2.814635471307250225e-01 1.350003726196518372e-01 8.733048814213404398e-01
6.332436580778906254e-01 4.871310462677998915e-02 -6.721414385947482861e-01
-4.304202389566065268e-01 2.629910139607840106e-02 8.039947016079792563e-01
4.158936884664977129e-01 9.123827835825306654e-01 -1.350720004720404044e-01
-2.085392823347468894e-01 -6.341709315344417064e-01 -5.973402092674966468e-01
2.222886633186987038e-01 -7.530875601506195061e-01 -5.468488442416297168e-01
1.800808185138049744e-01 5.120355237734819376e-01 7.691248081381699686e-01
6.204397560381512688e-01 6.552929433533043468e-01 2.649084592630661095e-01
-9.282241102454298343e-01 -2.821266003815638967e-01 -2.515404800995368201e-02
-2.499280277375099668e-01 1.920929237921568666e-01 8.701993869680815230e-01
6.187075120693097396e-01 6.154424471900039606e-01 3.805934593444145753e-01
-6.020096593909408655e-01 -6.027939234460754081e-01 -2.808203766329144813e-01
8.856227823925117981e-01 3.782674440083368950e-01 -9.492038165651259241e-02
4.915581173551972216e-01 -4.959897847385744130e-01 -6.464369485700766083e-01
7.426387228252767647e-01 5.704463076068843064e-01 1.815993206603782884e-01
7.751368065973493482e-02 -6.408656598062413279e-01 -6.391369860904709821e-01
-6.635805251348317890e-01 -1.013432038334414892e-01 5.933416224600970290e-01
-4.563758526480262145e-01 -3.514820400169656467e-01 7.602368099813060498e-01
-8.398144049354647755e-01 -4.007627895561705067e-01 -7.432554662625963371e-02
3.748026674067460040e-01 1.290001344144806328e-01 -8.861441148077622287e-01
3.537334151081013012e-01 5.032117989755627852e-01 7.480422100937890173e-01
5.650626959841823505e-01 7.006955991507599624e-01 -3.865138988036986301e-01
-4.640700637242846094e-01 -6.226151980086538362e-01 -4.518131299141338597e-01
-5.383759904583351741e-01 -4.639761249604151816e-01 6.014758921190728191e-01
-2.348366736539345412e-01 7.120012250687641764e-01 5.992985759155079473e-01
7.657215515072151035e-01 5.470118123010516697e-01 -3.465083344556999650e-02
6.663836458757074199e-01 4.275153764861915895e-01 -5.074204335215930506e-01
3.948893367078707417e-01 1.729680085650979193e-01 -8.743096945979464962e-01
2.681597368088738942e-01 9.120551869880988427e-01 2.245290374513903842e-01
-4.136219711003126798e-01 -8.006605598828870907e-01 -1.099664707762828403e-01
-7.625115962323306129e-02 6.817644971508469709e-01 6.326134818883319966e-01
-7.253590993001485243e-01 4.237892621783128505e-02 5.551006011317369815e-01
-4.848251095113462750e-01 -5.659103124104686300e-01 6.119383471489138193e-01
8.053394785547772772e-01 3.617128727203858252e-01 -3.186558088076961726e-01
-7.477166184326594633e-01 -5.018008228144623661e-01 -1.093842934841540576e-01
3.647117019110217018e-01 -3.439465521861079789e-01 -7.632606596950528566e-01
-3.005923084574128601e-01 3.579696872981935063e-01 7.821447076733122339e-01
-5.767357836268236504e-01 2.277565063100618625e-01 6.724629154759249605e-01
-6.863583472035580391e-01 -5.057177018784672073e-01 -3.836531325866908704e-01
6.133531398546843150e-01 3.224706701663427322e-01 -6.389004684896673059e-01
2.522371791474755653e-01 -6.105919414418542468e-01 -6.493638014558317240e-01
-4.718272791970090085e-01 -7.300704658132548541e-01 4.236316661513087611e-01
-5.599082853656741632e-01 -5.428080215228747729e-01 4.961089809982067722e-01
3.397914885359212267e-01 -6.944433816576098817e-01 -5.794272761792570448e-01
-2.159658650462853990e-01 5.818405498161935974e-01 6.892847943784708997e-01
-4.308043976761589677e-01 -5.964182934810153824e-01 -5.269406409014394388e-01
-4.683224371360883986e-01 -7.213652502760773411e-01 4.523519294688247983e-01
-8.364353553476949754e-01 -1.339657246038122862e-01 3.625749643373075704e-01
-3.780394793646402740e-01 3.677118778664961174e-01 7.451711509490313023e-01
-6.252843120022862911e-01 2.707715229161571924e-01 6.323732460831231750e-01
8.440739649494790608e-01 2.727764287634394380e-01 -3.333365255952539519e-01
-6.002605466379040688e-01 2.874244471995281436e-01 6.462858524606591715e-01
-2.275108751805643426e-01 -6.466876483343798609e-01 -5.752161211230930604e-01
-4.691656441528253563e-01 -7.896574144594991074e-01 1.386347827721172987e-01
-5.521316660040562763e-01 -6.021630823655138576e-01 4.370121982355747448e-01
4.814927520955331747e-02 5.910921599712684049e-01 7.069198097046128781e-01
2.393895069508773510e-01 -1.281585141147961460e-01 -9.041984702517246175e-01
-5.807861926421817866e-01 -6.644717128167222375e-01 -8.712991351784264704e-02
-7.400262687863912170e-01 -4.773556696629438489e-01 -3.364995909406048868e-01
-7.325332335501300030e-01 -5.089189706937913282e-01 3.596709855349777135e-02
-8.617223711905154238e-01 -1.888323877039994603e-01 2.813172984831014412e-01
8.261214165520106567e-01 4.811099719907161454e-01 2.741293469249292403e-01
-3.618908595224452629e-01 1.057846963388135858e-01 8.351748912157954674e-01
7.299850643851414356e-01 4.462479972532136241e-01 -3.751449542734799358e-01
-5.731584242879260715e-01 -5.250106218734535979e-01 4.893117202252508791e-01
-5.729249043522122165e-01 -6.523610676127751251e-01 2.663792255395147079e-01
4.456470144741456196e-01 -6.852962109153678538e-01 -5.639564338502455199e-01
3.205312623104203951e-01 -6.695556320281179641e-01 -5.991146241440353792e-01
-6.289594980237785959e-01 1.519399814565544071e-01 6.429589247478112446e-01
2.238393793279995492e-01 9.536382329715192840e-01 1.949134447047694840e-01
7.509722904705306012e-01 -3.182157924291560414e-01 -5.591520689174865888e-01
-7.190823808545065976e-01 -1.064205972922553228e-01 5.293333120805384651e-01
-7.841413327052174642e-01 3.202874716783914999e-01 5.106207860711844404e-01
-8.267727353795288892e-01 2.407469855068994080e-01 4.767093644988757428e-01
-5.825123214939746941e-01 -6.178921151764122932e-01 3.247596948085501034e-01
-7.507150077495591267e-01 -4.958032346140832658e-01 -2.690964171669337976e-02
-7.788858651821592427e-02 -8.894768375087568346e-01 -3.334550308773977512e-01
-3.613453981186058317e-01 7.015298498832444052e-01 5.847043413985323346e-01
8.919204474469182298e-01 4.221259607349326926e-01 1.216592194695889223e-01
-8.269479267751637108e-01 -3.755847585978009523e-02 4.228324722412900583e-01
-5.438146651544680799e-01 -5.995199715377353966e-01 4.603252650865478635e-01
-5.176962527286993465e-01 6.124214540327114209e-01 5.844494911689382954e-01
-7.854629852429946268e-01 2.235523958767342001e-01 5.124184398842047683e-01
-4.091993533333436739e-01 -8.194942353889230757e-01 -5.394097360938310964e-02
5.905056569702338276e-01 7.582546560536515545e-02 -7.092101236061519876e-01
-5.641901996901564909e-01 -6.906588492357582654e-01 2.259575077607706844e-02
-3.466014174478970755e-01 -8.183481943072876685e-01 -1.972933315782188224e-01
3.807906601880086672e-01 -7.314893267058908410e-01 -5.481450789056931949e-01
-2.766359806675231514e-01 -5.232987452104502779e-01 -7.011772753441534167e-01
1.148284005323760119e-02 -3.607235024068083939e-01 -8.546243741799117721e-01
8.979540791779586639e-01 3.144103063207357579e-02 -3.960784150523077307e-01
-1.518238213550834881e-01 5.742213768503325044e-02 9.652183644461651557e-01
4.769777126131973799e-01 7.855701012033883268e-01 1.975301039290126570e-01
-6.167825653649741113e-01 -3.967574382815776679e-01 5.252916281250964436e-01
7.821504104024451509e-01 3.318365426383447225e-01 -3.900963035265078149e-01
3.496817620568154483e-01 6.729107356849151067e-01 5.427063337093862572e-01
1.099069064311928995e-01 -5.448616457790604606e-02 -9.906432035675881709e-01
5.010514484610365527e-01 1.609170086967344204e-01 -7.854302666449243242e-01
4.880489222249947412e-01 6.155377721814228043e-01 -6.559932747418040222e-01
2.764133160995729810e-01 9.573939582962671668e-01 1.178550469612189289e-01
9.672647047613682769e-01 2.927759312917146417e-01 -2.826160553763371747e-02
4.129449894355405881e-01 -1.796050204726529209e-01 -7.993608959134327341e-01
2.004686341102792924e-01 -3.355034887431065926e-01 -8.259805278610741208e-01
9.133738155343009701e-01 3.489791905995316967e-01 -7.279684931784698165e-02
3.445180391365284533e-01 8.017253924109996044e-01 3.472491596332430985e-01
4.570728989094284822e-01 4.572317431315843783e-01 7.669851583185085531e-01
6.228157911039835376e-02 -7.597275803844253383e-01 -5.308796943359611609e-01
4.869171459442824257e-01 5.250391418243078451e-02 -7.944960971382986070e-01
-8.810350284895949180e-01 -1.967694006768067050e-01 2.384863696498882579e-01
5.055741724123019587e-01 6.543877599875889128e-01 4.496209379948130636e-01
-3.091142059584580104e-01 8.805066034732028646e-02 8.710209215958187867e-01
5.581282139123916464e-01 -5.422311582213556330e-02 -7.310839386829461883e-01
7.664457754874021145e-01 5.299653177840490947e-01 2.918951765275590859e-01
3.210290985462826430e-01 -1.251722879465298754e-01 -8.650499524294058551e-01
5.625484801671789548e-01 3.573605383012458669e-01 -6.883465107059564270e-01
3.226754274752068885e-01 -6.450804666736050796e-01 -6.148007746688894937e-01
5.370432682399838287e-01 5.484144006914906111e-01 -6.265602539014750727e-01
-3.688507581883729292e-01 8.640972519781228711e-02 8.351841995644311289e-01
5.341821700697187980e-01 7.753970562541971923e-01 -2.886993935146414114e-01
-9.427553531362320438e-01 -1.990177739036549931e-01 1.047066417478959427e-01
8.950583243260487043e-01 3.942511158335073040e-01 -1.446096055974087705e-02
-5.794267254719633886e-01 -5.209401779821561940e-01 4.813930657868677465e-01
-2.619226224732380537e-01 3.793330864498786759e-01 7.873654302295171048e-01
-2.585018169727364978e-01 7.686079841918039834e-01 5.560547178029220383e-01
-6.503070428086473731e-01 1.744641907066227585e-02 6.242818771643938724e-01
-8.569216627855185120e-01 -3.877887368602384033e-01 -2.358331682294027010e-01
8.256512109795978160e-01 1.333358325359133845e-01 -4.465463250522928584e-01
4.453748592406493456e-01 8.119371200712687253e-01 1.881542474910203322e-01
-5.099231058794942983e-01 2.390546741264963915e-01 7.138757683736999260e-01
-6.929136139717310128e-01 -4.609517171183374895e-02 5.737006649275073755e-01
-5.635243256931904421e-01 1.261986670828943169e-01 6.951484808686179129e-01
-5.808660500850238995e-01 -1.925169942036691617e-01 6.622666586985392900e-01
3.484294569177441292e-01 6.190484708182850682e-01 6.142665776534244060e-01
5.076364617960139602e-01 5.152285245838812422e-01 6.692827994517668300e-01
3.956405310814914977e-01 7.727612460978212638e-01 3.472647061927747192e-01
-4.855893712754818514e-01 -6.048725545065047893e-01 -4.617839769273032191e-01
-6.733364015385053802e-01 -4.508013265063146591e-01 3.701352629105562064e-01
-1.775114344095774996e-02 -8.471772192325440765e-01 -4.165524838510156203e-01
-4.276575354293285502e-01 -7.702104575180560575e-01 -1.721106581295287208e-01
4.424214609967058176e-01 5.975156078030888773e-01 5.929278420626206136e-01
-6.159517709838233969e-03 7.365193319608394074e-01 5.816332517396792801e-01
-2.207306715519575385e-02 7.196640600950311439e-01 5.985074982343696615e-01
1.657301337423759402e-01 9.699199125412049094e-01 2.239028098309950865e-01
-3.554097062074955127e-01 -7.070832367716608502e-01 -4.088095230991280471e-01
8.776546261285759210e-01 2.198927321797445600e-01 -3.198055316510416968e-01
-2.118853749108291218e-01 -4.639902344186735417e-01 -7.757672853075546771e-01
2.184866731218756963e-01 7.485594412570640843e-01 5.098424440190278961e-01
1.062932903409672669e-01 4.213505534553141363e-01 8.439032796884859966e-01
7.256634806661330650e-01 1.909679101582406613e-01 -5.490870949850389371e-01
-6.173717529894252598e-01 -5.793221304951515771e-01 3.009153458401362391e-01
3.527058546873888534e-01 4.864612770188616042e-01 7.663682789746181223e-01
-6.069797803027573435e-01 -4.957580643681789856e-01 -5.338234908792310884e-01
8.608049835146606155e-01 4.441117680969319248e-01 3.110116259864719179e-01
6.458751166281397893e-01 6.338907042959416316e-01 -2.789964129875099896e-01
5.159024480121770367e-02 -7.497520771129875250e-01 -5.389250745766739348e-01
5.573195824675043486e-01 2.984950842726230569e-02 -7.374586177673466691e-01
-1.338491930603999402e-01 4.199086530789258309e-01 8.056096831876026210e-01
-6.219059032735650971e-01 -6.099712841012626674e-01 -1.901281306048382413e-01
9.339771702373151907e-01 2.475614285463275110e-01 -1.876594020240295868e-01
-3.489858832243584175e-01 2.306049425530082853e-01 8.078597892610366316e-01
6.879045372938326075e-01 6.116386649066060111e-01 -1.780876940694710031e-01
-6.049891515766836481e-01 -6.439421229104779210e-01 1.201353113017818858e-01
6.709074685114020664e-02 -8.475979819326118214e-01 -4.426436234293325556e-01
-3.826134773560547764e-01 4.235941845202217393e-01 7.206165828370380000e-01
5.266873132720345518e-01 7.521088686320904770e-01 1.853810027918389725e-01
4.873663649803703368e-01 8.357747012984882984e-01 -2.622556339498112177e-01
-7.848592470194439841e-01 -3.459096915733826383e-01 2.619334473985103773e-01
-2.850158121988187188e-01 -9.342855195735336737e-01 1.891137718102610128e-03
-4.347087677275343065e-01 -8.251563946367709290e-01 1.839463240787339304e-01
5.126598737719560983e-01 7.905109540937316215e-01 8.360733891795155137e-02
1.778352671938266127e-01 9.855699757193966404e-01 1.848051162087067656e-01
-3.920669633590070924e-01 4.049597084602028496e-01 7.242620408885955818e-01
-5.370334547102292161e-02 -2.192321419412576466e-01 -9.579522092341059558e-01
-4.829149699788408689e-01 -5.243102652423671239e-01 -5.997491105883224760e-01
4.919767185085107686e-01 4.627503984214559329e-01 7.462398827531305789e-01
4.588561240319464357e-02 6.524833591283689671e-01 6.535127883478311084e-01
-9.182516257550623617e-01 5.399323967118510592e-02 3.442161164662123629e-01
4.674983010394483940e-01 6.442845162977803852e-01 5.033848151878159705e-01
-2.539308065431656880e-01 5.986712801852130950e-01 6.709733729955056347e-01
5.455387266080592018e-02 8.579780530997149768e-01 4.426794118128266065e-01
-5.709026447965082074e-01 -6.215958098281848532e-01 -2.956625789666870174e-01
-4.791020090091853700e-01 3.066458475244082660e-01 7.150302197167397456e-01
6.794178598169230421e-01 5.993821472027847097e-01 2.981945140633547875e-01
-7.066695061791485877e-01 -4.990766715985185398e-01 1.964783637837823338e-01
-9.827942631176569445e-04 -5.044113935779359625e-01 -7.508734675473510700e-01
5.818794072035474718e-01 -5.125684196044529850e-01 -6.016119112491334908e-01
1.183884277895944775e-02 -6.090035059374714344e-01 -6.642022911218519177e-01
-5.162444009438941217e-01 -4.537246369346268349e-01 6.410979820383791994e-01
9.649072180708748725e-01 3.082826638967978150e-01 2.443291854678545164e-03
5.108607848338576618e-01 -1.248905604042802042e-02 -7.704899387020655022e-01
-6.125818026567823038e-01 -6.414354516255115213e-01 8.134606346807928684e-03
8.242922810859628635e-01 4.623607044551977241e-01 3.745169138863374547e-01
3.660685485915027293e-01 -6.006361613614499273e-01 -6.329857871093117483e-01
