4.001750987376645474e-01 5.101432957931111706e-02 6.454633574612409497e-01
1.241207679765187477e-01 4.425773173456509779e-01 3.544535620884184390e-01
2.283652246429200561e-01 5.929526800815633214e-01 3.572389888105591549e-01
-4.830315462155074790e-01 2.754393571851538325e-01 8.371631187013156561e-02
-3.243182894578240938e-01 -3.145462154324903392e-01 3.820611897191876216e-01
-3.647217350919526591e-01 6.835629917013698043e-01 1.598930406287832947e-03
-3.132901993526382989e-01 -2.166373812340434690e-01 3.529069722247308305e-01
-1.260321683186851338e-01 6.620239224756881979e-01 1.393664496378934914e-01
5.145299293142292507e-01 1.096946890748647652e-01 6.866871387188769882e-01
2.172631550519500965e-01 1.370988331013596739e-01 5.149018759215884256e-01
-6.144152843681457282e-02 -1.617607290235015538e-01 4.704000301496181757e-01
-3.447529880446379980e-01 -5.736491722625960410e-01 4.639806452092591349e-01
-6.452115461708428645e-01 6.574809334856650533e-01 -1.418381304735189530e-01
-5.830922560455901182e-01 6.643260213044259732e-01 -1.104553548158696968e-01
2.903785790366217867e-01 7.130545598600065427e-01 3.478900848455608319e-01
-1.156714328047750706e-01 -2.083088141237162960e-01 4.575737543658099371e-01
3.363657128118208717e-01 7.826730341784358114e-01 3.479406222912580504e-01
1.383196255839614086e-01 9.685051964456422580e-01 1.733120063554431101e-01
7.218157372817826656e-02 9.805066431733742149e-01 1.329715431379669410e-01
-3.564690360897017629e-01 -7.060305532508958093e-01 5.051402232079335031e-01
1.123218760902374713e-01 6.190335664965571638e-01 2.846549959312089095e-01
3.032020375438947979e-01 2.823355501412572188e-01 5.095603222193139104e-01
1.701052856688818338e-01 2.157695795540114925e-01 4.609583684570447981e-01
-8.168416949598121812e-01 -4.653121761656491828e-01 1.678912543003829305e-01
-7.663696798707121394e-01 -2.276649299542766181e-01 1.100407872974001056e-01
-4.693560292300044678e-01 5.184560955486259282e-01 3.891672833304206120e-03
-5.554983447332502156e-01 -5.881601568131074043e-01 3.543831155408532774e-01
2.630164991746846703e-01 -5.095590106729255275e-01 7.720617235943101342e-01
-8.861864975840351155e-01 3.470486098174646594e-01 -1.616296181410820931e-01
-8.476171379503016261e-04 -6.765835174319618783e-01 6.882986628935120477e-01
-3.733581453963118468e-01 1.276807235511654426e-01 1.965283048382521214e-01
5.234353483959016673e-01 5.700256440000797120e-01 5.262197046278995760e-01
2.041134687825439317e-02 -2.800112376944278725e-01 5.574588200330743426e-01
-2.004152634979007863e-01 -3.050242905972916016e-02 3.475517116391158567e-01
-5.978578476341227521e-01 7.789026839403541125e-01 -1.596472588060068309e-01
-2.395421320687452504e-01 7.752301938121305414e-01 3.687319910021120278e-02
1.768624403596881500e-01 3.845491427606273493e-01 4.040256103788081865e-01
4.693673799062979546e-01 5.174727196388929640e-01 5.156381684452095993e-01
-2.513731458639675287e-01 -6.282061117541747342e-01 5.344447386118649224e-01
-2.098638596782339549e-01 -7.226448578670929823e-01 5.909738070390174736e-01
-6.515451490051532568e-01 5.957792676101317797e-01 -1.231295707291729657e-01
-3.580065107478079267e-01 2.584537255055383564e-01 1.579269226235056334e-01
5.077247432021109175e-01 3.102693757770461080e-01 6.109473536040860298e-01
-7.963016515326143407e-01 -5.004715207736339273e-03 1.377051368321934033e-02
-1.887448120800974682e-01 -5.700024529209544166e-01 5.476603993407169746e-01
-7.576704528472718581e-01 -3.596804950634768100e-02 4.593571464917541036e-02
1.458663700637178803e-02 4.512634780129260448e-01 2.916626068039226416e-01
1.519456107087525376e-01 4.719768021876549202e-01 3.590535976632701076e-01
-4.550472605510052504e-01 -4.210335562838077306e-01 3.490861261724563791e-01
5.119594442690892366e-01 6.048060676406820102e-01 5.074772044393149883e-01
2.910459025152921653e-01 -7.804810007408791162e-02 6.323627208995817872e-01
-5.517878443959663981e-01 7.736645649183910844e-01 -1.326682902445266155e-01
-3.007239861369602751e-01 -5.326543241628259873e-01 4.732440579894440225e-01
-3.473737323634510932e-01 -1.894809984365308231e-01 3.245864196324219630e-01
-1.232810070021890872e-02 -2.482470305065956062e-01 5.282156817151938411e-01
2.042016545142487371e-01 4.157143579609672845e-01 4.077269598667399020e-01
-1.783676417759787469e-01 4.916775291750895560e-01 1.720319615007679104e-01
-1.814043631442892601e-01 4.185563680859533120e-01 1.966376699032706121e-01
-3.528799402825576470e-01 -2.476283097131812272e-01 3.424692465491521176e-01
-7.358190408067499799e-01 5.807904215755509414e-01 -1.636569543929759230e-01
5.640073151902482707e-01 7.130378541530751901e-02 7.274285413703955872e-01
-3.759016687644783916e-01 -5.766550153398063844e-02 2.617061388048465553e-01
-6.732006932058751669e-01 6.278775218019659599e-02 5.648653351533233780e-02
-8.159325298087405365e-01 -5.248419362220209106e-01 1.897654975871520544e-01
-4.459840368012507605e-01 2.475702912500720443e-01 1.139075118759911298e-01
1.397971449890980378e-01 -7.067132927810614029e-02 5.473169088815734717e-01
3.601643745418056652e-01 3.815529245793142232e-01 5.049600115600267891e-01
1.669324725857442016e-02 -4.482374596092605912e-01 6.158484585415080481e-01
-8.057634910059104094e-02 -6.365894228986667125e-01 6.305013190864713346e-01
3.218565441806843230e-01 3.121942215771779106e-01 5.089996772020578542e-01
-6.599474963082292422e-01 -1.258875720137748455e-01 1.314656116780091033e-01
-5.975530437375248249e-02 9.332528064695271297e-01 7.806588364964636706e-02
-7.171320333460184937e-01 6.335979883337741203e-01 -1.724415420410789213e-01
-3.888884929559184300e-01 7.498543343158341479e-01 -3.537376567095875529e-02
5.615243081692464777e-01 2.911792200990939716e-01 6.471118854111257424e-01
-9.093130095172351490e-01 3.456704133389380540e-01 -1.737334184348617305e-01
-7.229314110137797789e-01 -1.117780075664701889e-01 9.208635512829979608e-02
-2.277256513970511362e-02 8.491900029605814471e-02 4.028757117738674398e-01
-7.517752981229401943e-01 -2.146948959658967759e-01 1.133335113187043247e-01
-2.412372640924565215e-01 -2.013616159506355086e-01 3.866736390581340110e-01
2.241036148478410539e-01 3.575822157748210772e-01 4.394460818127612911e-01
3.224900864350815355e-01 6.228572039691773199e-01 3.977762628335478889e-01
3.241910840065901356e-01 2.191477003961562753e-01 5.436873206364507549e-01
1.564617408754964967e-01 7.452003398836913872e-01 2.633909678599637982e-01
-4.185849562467536256e-01 8.173111136557267287e-01 -7.577745260633393654e-02
6.764608642496534874e-02 -4.387337888997724922e-01 6.401932492211879211e-01
-4.969447676502856126e-01 8.013953296806060056e-01 -1.127500996064162292e-01
-3.757763200380674906e-01 -6.428607238936714374e-01 4.719358791552248356e-01
1.832065832761848104e-02 7.872751891298367388e-01 1.730247552275331335e-01
2.067587515132371379e-01 -1.159127638111483519e-02 5.625784897674209750e-01
-3.485313779205705398e-01 -4.648575803392971384e-01 4.228518927717871967e-01
3.443212255003499922e-01 4.408046002770499849e-01 4.750499711590338570e-01
-5.845503173526767071e-01 -6.698156291580252553e-02 1.513851885789876395e-01
-1.717244338018649452e-01 8.169618896689297971e-01 5.883148178724635635e-02
-7.774858952251442190e-01 3.877505463823006648e-01 -1.170295207717322317e-01
3.269802800611964488e-01 -3.469661546356685999e-01 7.485155582278039121e-01
-4.911529744024363264e-01 -5.745388665401918171e-01 3.845450637474137623e-01
-1.741439986049036492e-01 1.895635694528571835e-01 2.828312357650914488e-01
2.840654986475663057e-01 3.433335033320438212e-01 4.772289828311223059e-01
-4.504908974205071304e-01 5.937207783769277158e-01 -1.286091241561259334e-02
-2.499497359515721051e-01 -6.402938281364994877e-02 3.326071058020104720e-01
2.011103089354452922e-01 -5.034472949851757084e-01 7.361418561567136809e-01
-1.594509328210336196e-01 -1.613229913040691021e-01 4.168497216194468891e-01
4.813926864835231800e-01 -1.328113569741220558e-02 7.127991565907177973e-01
-3.460860472883346417e-01 1.807920171199100534e-01 1.923115850390945680e-01
-2.021402753315379441e-01 1.802922098739860590e-01 2.709091834705980029e-01
4.394596644636465377e-01 4.365423966198167527e-01 5.284097309834977496e-01
5.018283728973795821e-01 4.575317829346058351e-01 5.548487345703601026e-01
-1.459599254055423956e-01 -3.934008117514515845e-01 5.075455133098362159e-01
4.933856439486505319e-01 1.069104558707755920e-01 6.761681571899336163e-01
4.937969066636343496e-01 -9.509396742591642859e-02 7.489381527296381513e-01
-2.498418242290974811e-01 -6.890398074470825973e-01 5.571262004479530239e-01
1.583656398223719577e-02 -1.104952032150473967e-01 4.940882128565442510e-01
-3.617111888526717833e-01 -2.355695663365082182e-01 3.333275378282886114e-01
2.111410304874141997e-01 1.151491472724428533e-01 5.194494952910460039e-01
-5.230779890472598836e-01 1.427221914923959833e-01 1.095627808224402672e-01
1.009211706255462859e-01 -2.229561286760029515e-01 5.808283542536483157e-01
-5.906209461576047287e-02 2.668226351998970181e-01 3.177789285795079577e-01
-2.477786986821147175e-01 -3.870494441406212016e-01 4.497961897976942569e-01
-3.864070097819839456e-01 7.032296422541458591e-01 -1.727756588327459056e-02
-6.543900800697534104e-01 -2.538004752700535049e-01 1.804305798730402866e-01
-1.647449109075765916e-01 -2.414076947793911687e-01 4.427265527623827079e-01
4.797355764510595755e-01 -3.217515123378247854e-02 7.186818212283958562e-01
-2.987633980154094301e-02 -3.557340240479204274e-01 5.572576921898182434e-01
-7.892517380435623009e-01 -3.752919418346421093e-02 2.929166491625105964e-02
-4.454296810283574909e-02 -9.688208338289266627e-03 4.249920680178339016e-01
4.477099634428003960e-01 5.318803029405678728e-01 4.986655400869298149e-01
-2.851427247569779944e-01 8.343354285133646187e-01 -9.195370431659872362e-03
1.763890316622680407e-02 -1.232907111553540463e-02 4.598156305285888701e-01
-7.117756961332084575e-01 6.733131770051656861e-01 -1.837864773902135873e-01
-5.442372577849153847e-01 4.862049006828734199e-01 -2.531938382119220884e-02
-6.020316926180620948e-02 8.105602078801321664e-01 1.218845523319967011e-01
-1.202952121706850480e-01 -3.032278678779198877e-01 4.891431608733542991e-01
-2.861956123647639294e-01 -2.264174219952163128e-02 2.979976831631365730e-01
5.578841066821030870e-01 -4.120720160924138536e-02 7.644988957146269248e-01
7.944351065038102178e-03 -2.487719058619168311e-01 5.394481116402805032e-01
-4.228994743762984343e-02 4.741222365934634198e-01 2.524683705114785237e-01
-5.094019137317550294e-01 -3.840321850528548575e-01 3.061867321950705878e-01
5.852269028097503156e-01 2.260282055343908469e-01 6.834221902409072236e-01
4.437351760994416860e-01 7.392685458874561633e-01 4.220207304675639426e-01
-6.043140049599688979e-01 3.603524298472298715e-01 -1.285025141202824142e-02
-7.409757668302907607e-01 -1.001578687439497600e-01 7.808308933325715240e-02
-3.157595098711662995e-01 -3.154209910206545731e-01 3.870379601089811716e-01
2.855404017811186829e-02 9.602828599130265250e-03 4.578855135325607950e-01
4.628304456933842737e-01 1.521999302871467341e-01 6.432576079745843112e-01
-3.888627919410299061e-01 -4.098333775509555021e-01 3.811194647130790036e-01
1.331156283309435362e-01 -5.875849551187929398e-01 7.293164330632244674e-01
-2.766533831349443084e-01 3.813933415329212040e-01 1.580947319498858805e-01
-4.677294661528526576e-01 4.048958414433143083e-01 4.556073520053856990e-02
3.251521653904276277e-01 -4.303484311955437791e-01 7.774647652585440216e-01
-5.409621822510549682e-01 -4.681524220036353268e-01 3.192036200091223908e-01
7.355099801741145360e-02 -8.914563914698771241e-02 5.178623318524842034e-01
9.076187701979653022e-02 3.678137446356182783e-01 3.631303412906581873e-01
-9.099183631436001951e-01 3.484911673427123491e-01 -1.750762189426642856e-01
-2.895069253137707577e-01 3.728960883936778825e-01 1.541440623150164280e-01
-5.583587150358920725e-01 6.761285858324673770e-01 -1.012197932817659324e-01
-6.070382589234081250e-01 -5.727128165241660573e-01 3.207578318003399542e-01
4.310051379972181240e-01 9.731857291098860996e-02 6.456295355153188753e-01
-9.755117306133433142e-02 9.495646925744831435e-02 3.585334112746351165e-01
-3.442762916910498405e-01 1.736216032056044911e-01 1.958726095462021699e-01
-1.289356544491166573e-02 -4.234794996249410803e-01 5.908389549311535704e-01
-5.116576234415922686e-01 -4.256749184472874981e-01 3.199130529527167144e-01
6.191929878622305372e-01 3.540849551952953700e-01 6.559369900451836877e-01
1.664686279025075766e-01 -1.432148462998754923e-01 5.878994638497133662e-01
2.178659780898627996e-01 9.219751975626523377e-01 2.333572369419533998e-01
-6.168635319823704416e-02 -5.018507141807649896e-01 5.924033424600543274e-01
-1.993164497447919292e-01 7.837542020704273416e-01 5.572592626280423872e-02
-4.158711471554129013e-01 6.728720277939558292e-01 -2.242655513299696493e-02
-6.290426511613105010e-02 8.912991228646530706e-01 9.141725500487608846e-02
-4.039623838804884404e-01 1.034429632530830118e-01 1.885603903615486743e-01
-2.458757856045499512e-01 5.018167358595078120e-01 1.316138932053449728e-01
-9.624036096219197312e-01 -1.185282729040445654e-01 -3.594795970496379028e-02
-8.163506617968565582e-01 -5.267688228578062404e-01 1.902297133672121443e-01
-3.854013647854079294e-01 2.045429934513502135e-01 1.623638707670568559e-01
2.815913996105758876e-01 8.097932440445406721e-01 3.083612343291171065e-01
3.046590992119050378e-01 1.669827324017585102e-01 5.517808086802334921e-01
3.995049986789778879e-03 4.048426353962029101e-01 3.025637121833229526e-01
-3.119239750052428539e-02 6.964167171040712701e-01 1.786813135261709484e-01
5.726701221906506101e-01 5.093020781411017328e-01 5.748492783748911927e-01
2.262580015142547085e-01 -1.038603497184619612e-02 5.727683607617690686e-01
-2.991168164704415822e-01 -3.171211508059846307e-01 3.967150677855454388e-01
5.970401729080706404e-02 5.119864859497879062e-01 2.944339573221985140e-01
-6.285267052350087535e-01 -2.515661470411197920e-01 1.937178924752991360e-01
-4.957584641385606034e-02 -1.077543443413990845e-02 4.226407362331493500e-01
-7.438464444153475297e-01 5.631341068014557999e-02 2.032560607416196083e-02
-3.797403737035917048e-01 6.010502083879146751e-01 2.305000413524585165e-02
-9.757248947271724981e-01 -1.519299282610266089e-01 -3.120951368857848712e-02
-3.974662338741831724e-01 5.687108476549973535e-01 2.500744400848106327e-02
-4.818100116535724564e-01 8.674523987193581975e-01 -1.282281665372683455e-01
-3.327993780892709030e-01 -2.465283853132178848e-01 3.530136246230290431e-01
-5.655695898681373235e-01 -4.641664713047742863e-01 3.043666354475808578e-01
-4.815006073452697266e-01 9.413161453982871185e-02 1.496634700395041984e-01
2.350479574838477692e-01 1.339124537747302390e-01 5.257349231672253653e-01
1.966619203790597181e-01 3.692838165064634692e-01 4.202941224928958830e-01
-9.548954564280360824e-01 9.699916643196827837e-02 -1.092601805222447320e-01
-4.286632585199836587e-01 -3.095131370410182381e-01 3.234090949851905483e-01
-3.186679693173665173e-01 2.909160268516359227e-01 1.676993861390759233e-01
-8.782347516656825448e-01 2.287404964275006058e-01 -1.148096512525627055e-01
4.276763526000579851e-01 -2.653941011958281249e-01 7.740772798364504714e-01
-6.157342664729793524e-01 3.245859642119692801e-01 -6.226899180367385239e-03
-3.905582782207958070e-01 5.340919944553670362e-01 4.120341378227937446e-02
-4.441535873079766605e-01 8.012542402607191611e-03 2.009371899552252205e-01
3.711190916264822115e-01 8.526495610960137528e-01 3.417426997971293456e-01
-2.159564766018577109e-01 -4.284262360071505737e-02 3.435169827167558476e-01
-6.149226638967546510e-01 5.284053695521322425e-01 -7.898252331391815428e-02
-7.585438691801318356e-01 -1.022129885529185628e-01 6.925047715298363049e-02
-1.764381434988146202e-01 5.118488030363439467e-01 1.658389848310036219e-01
-6.982333708305747955e-01 3.185485159333996674e-01 -4.900214242770196960e-02
4.889135395720846655e-01 5.468800920768669416e-01 5.157253492176823162e-01
-3.447315434719099847e-01 5.229661107483909444e-01 7.016433155914096609e-02
-1.895277877236349884e-01 7.857335675669033237e-02 3.143104979985265612e-01
-2.430857014397362994e-04 -2.604244320237508181e-01 5.391725758052768880e-01
3.442889847054410590e-01 -3.090541457626247990e-01 7.443295544046490964e-01
2.784589882071387135e-01 -5.061665261046708331e-01 7.792560656464917468e-01
1.458156042634925487e-01 3.988886129610358933e-01 3.819623195304762131e-01
3.779620362610352502e-01 1.667803138696810350e-01 5.917871335346159833e-01
-5.221581548436682318e-01 4.401880089069236668e-01 3.234835710758304783e-03
-9.713922448452602110e-01 -7.282652943386015709e-02 -5.725763627125078636e-02
1.624888108177003077e-01 8.402002900520773032e-01 2.325569870400485961e-01
-5.805539595432869238e-01 -3.441307273393831023e-01 2.530950239441864813e-01
2.201801466780828886e-01 1.277257696269488291e-02 5.611403316057059776e-01
-2.297557824187503872e-01 -3.670729838262505873e-01 4.524404733718181970e-01
-1.478073589475480953e-01 9.195569471292821540e-01 3.501589923448302638e-02
-6.773381226374615149e-01 2.345462424411453306e-01 -7.451148561021113566e-03
-1.186982448998867984e-01 -2.887297704024673339e-01 4.848064402002034701e-01
2.037015753464094248e-01 7.647084783006969921e-01 2.821200957579029223e-01
3.918766151598729874e-01 6.495736567091665858e-02 6.359351789667524457e-01
3.613086149846903572e-01 -3.942330357327926693e-01 7.841917661898679670e-01
-5.765232664497652593e-01 2.096919213729817322e-01 5.639624065610015363e-02
-3.810501123499082654e-02 3.467996911126918769e-01 3.004736299870578997e-01
-1.375875991025475309e-01 -3.323639251776824288e-01 4.901863422969958139e-01
4.335139472949414707e-01 3.019132331398760583e-01 5.735200900213178743e-01
-2.021918563800877700e-01 9.698097732534201043e-01 -1.265875479075695767e-02
-1.998930761768378528e-01 -2.514574371514572970e-01 4.271878691793418725e-01
-4.679745479567283539e-02 8.892032612367131161e-01 1.009445354118020804e-01
-1.063735506556720417e-01 -3.781238142919590151e-01 5.236247570952924368e-01
-1.410716809226466861e-01 -3.246580163634389671e-02 3.805857371542594181e-01
-3.605922731523448221e-01 7.986356441065771694e-01 -3.747754001285240333e-02
-6.041469279747128107e-01 2.577166623587092142e-01 2.410040261526364205e-02
4.382514138890259980e-01 3.154213078824140148e-01 5.712497831977868534e-01
-8.870366147950276003e-01 -3.067470799189909725e-01 7.270523267787575017e-02
-6.995240961542964486e-01 -5.063182895749577250e-01 2.465295315048344205e-01
-5.397270077265468868e-02 -6.552872509889426378e-02 4.399090152553840616e-01
2.242128923057007395e-01 3.127266150968099900e-02 5.566933272172025493e-01
-8.200982560734396687e-01 1.903446503156647762e-01 -6.934920444389032490e-02
1.185417548707499436e-01 -2.145265400808303025e-01 5.874002911051231512e-01
-7.899289728872358474e-01 -5.317804576271549788e-01 2.064234280148327938e-01
4.374561538248198378e-01 3.899887147973827850e-01 5.440371149379206184e-01
-6.217166604283694831e-01 -1.317658269000493987e-01 1.544038877328809123e-01
-3.841487983716936339e-01 -6.526951084435429484e-01 4.709065871350784915e-01
-5.097982088901267250e-01 4.870623158159701482e-01 -6.865764242417755035e-03
4.874140712069606196e-01 4.889347791994942960e-01 5.357184051268749636e-01
2.210625749537954987e-01 7.759112957716655101e-01 2.875546662321991631e-01
1.970147391412173030e-02 -5.918335450852403312e-01 6.690570002833828855e-01
-1.488921321568178746e-01 1.555678820749938074e-01 3.087967173574823754e-01
-4.345020075927915615e-01 -1.540076326754073188e-01 2.643815189447835112e-01
5.876923188815509347e-01 4.340975184984502966e-01 6.100412514108422002e-01
3.301642266236278211e-01 1.383692759125232652e-01 5.759513373161831984e-01
-5.049227704867759181e-02 6.419506022784999821e-01 1.877276587919967932e-01
-3.548963688266223437e-01 6.918119143121779224e-01 3.989107639132350759e-03
1.307842123315500482e-01 -5.117931415680644358e-01 7.008271832103357690e-01
-9.624736285636945610e-01 -5.400307109683970264e-02 -5.915907235551511739e-02
2.980695128277529027e-01 7.348292798618434318e-01 3.442599495725270908e-01
5.149774649221345868e-01 2.175381519332393876e-01 6.482010682091159381e-01
-1.976952080179522619e-01 -4.824036340623835684e-01 5.113250369132946727e-01
9.476468575016272489e-02 5.514395612111961942e-01 2.993653411284270538e-01
-6.203829516323270399e-01 -5.449549039238681392e-01 3.035192596434082568e-01
-3.504329247855094143e-01 6.041290557523609772e-01 3.791027068031840863e-02
-4.921380038115277800e-01 -1.993845675398697170e-01 2.492790926492489678e-01
4.058575553083987320e-01 3.530948312483781493e-01 5.400726975526832785e-01
-8.305139240672878564e-01 -2.141588389697825778e-01 7.024613761772470488e-02
4.836304992492795884e-01 7.468474618438711299e-02 6.824270304900934558e-01
-1.711767057676286119e-01 9.649899536281271450e-02 3.178700707670720771e-01
-1.538373414353471913e-01 -1.259870869852605137e-02 3.664964414606109444e-01
4.245675716392207644e-01 2.205481765815631989e-01 5.978669989940214036e-01
-4.119683960528294775e-01 -3.014896729134571296e-01 3.296225731525006530e-01
1.628872793967165722e-01 1.856794659282026139e-01 4.678324544445726096e-01
3.453391016625944610e-01 -1.846507708105250001e-01 7.002245858069281459e-01
-5.126791089031232929e-01 6.261935306288455294e-01 -5.840147033456834225e-02
2.906870949220006772e-01 8.222726711951808820e-01 3.088346016271585337e-01
7.081442950784088038e-03 -5.770866211144667357e-01 6.568858488194507794e-01
1.742899765468031992e-01 8.890010427016020733e-01 2.214601319932517354e-01
-9.464310300359426997e-02 7.238349399346406532e-01 1.342682157210592919e-01
-7.362705554349904258e-01 3.400640672962786937e-01 -7.745075216895366821e-02
3.480756993821927381e-01 -3.431163564546495515e-01 7.586252418580666790e-01
-4.537697713711922320e-01 8.283540248738134881e-01 -9.891111737934318859e-02
-3.629228093036139802e-01 -4.741674229517339745e-01 4.183552447351122638e-01
6.224318724266219433e-02 -2.811598269746861667e-01 5.806602672397015441e-01
-2.606324280419636263e-01 -5.955377167170933239e-01 5.176682932212659516e-01
-3.484945964349979719e-01 4.698098496750225950e-01 8.720434789514459883e-02
2.373501339653654729e-01 5.064389070637907997e-01 3.932034802211941127e-01
4.499061157947430167e-02 -2.970366556786564471e-01 5.769633434494643165e-01
-3.807554780592242172e-01 6.770842331720207108e-01 -4.809137076721144849e-03
2.091413653317050481e-01 -3.792993341845997679e-01 6.959316580116506890e-01
-5.320698094490853292e-01 -3.150103119480553993e-01 2.690499624236687981e-01
-6.579740150848245595e-01 -5.021068597402286171e-01 2.676525368537046035e-01
-8.984519337988005061e-01 2.921660381130766759e-01 -1.486015194667011929e-01
-9.898871290911468446e-01 6.562623654449223354e-02 -1.170558037795150774e-01
4.796759975287520072e-01 1.785959231888253618e-01 6.429550425235391886e-01
-7.818626537807163990e-01 -5.579472104398630616e-01 2.202150385493342188e-01
-5.620552356464300625e-02 -4.229492398265510267e-01 5.670532370936141042e-01
-5.964643662768129850e-01 4.560959890074423595e-01 -4.295839445269092338e-02
-9.868498420192115331e-03 -3.835925812976398452e-01 5.781623277874290423e-01
4.620504245089971374e-01 6.814872634728819101e-01 4.527494464892004578e-01
-9.524041779847149114e-02 4.309997518507761027e-01 2.391088612112764189e-01
-4.132064615836576471e-01 2.453046078642544259e-01 1.325776015549316178e-01
7.528522993006363934e-03 -6.572596459111115230e-01 6.859219855591692783e-01
6.131140067742706368e-01 3.990343385508125507e-01 6.364826166747425962e-01
-2.026424648695610287e-01 4.139066287681941736e-01 1.867375396834262125e-01
-6.202295449311183706e-01 3.091584126150895839e-01 -3.135311555639013099e-03
2.244399769385087631e-02 -5.851622241265418412e-01 6.681551846840420028e-01
2.113531004136018354e-01 6.426273461586409219e-01 3.301315158546219708e-01
-3.336536816683838280e-01 1.136325699876530593e-01 2.232034367655442442e-01
-7.665663894820231583e-01 -5.797374546415735852e-02 4.899234463648001470e-02
-4.784424450245223781e-01 2.052669599262785805e-01 1.114173890821202190e-01
-3.194738624757209600e-01 -5.757606556110412832e-01 4.785103867267202493e-01
1.477408952883699222e-01 -2.870770513861178354e-03 5.272952192606730204e-01
3.942106847511280265e-01 2.839346594563880166e-01 5.585652971985511916e-01
-2.687279549642894727e-01 1.109631221120148947e-01 2.595320497496289014e-01
-1.382283485478586205e-01 -4.537409239194656885e-01 5.334274602025079748e-01
2.525050785628605299e-01 8.062407423234262127e-02 5.543826141471847047e-01
5.117409089801170513e-02 -4.631445532540796883e-02 4.902899608514185714e-01
8.919841070607020805e-02 7.893492065426839510e-02 4.660238002658508849e-01
-5.912637382685592691e-01 -5.544219565034060881e-01 3.227825954400915798e-01
-5.387912183036391855e-01 -4.361099188335615939e-01 3.088788673439057941e-01
-9.839627720776654707e-01 -9.036673128986011383e-02 -5.780652764696325024e-02
5.590650583131165918e-01 3.009544702739321287e-01 6.422615563168458941e-01
-5.971335309084766646e-02 6.598789588640096015e-01 1.762656245564947211e-01
-6.795901989697428203e-01 3.368905378779076809e-01 -4.543298224795606216e-02
-5.964516197721907859e-02 7.060749529565399918e-01 1.597123828832981984e-01
-8.475486826729122791e-02 2.601331430835919778e-01 3.061845405290039013e-01
-4.705329884864875578e-01 5.947284604309825973e-01 -2.414123813121735879e-02
-3.681529382789773819e-01 4.341440415661386165e-01 8.930364818059929877e-02
-8.442051536979401360e-01 4.546157879003496355e-02 -3.045011696677625904e-02
-5.041131031919414696e-01 -5.344181669616729913e-01 3.630761386358004050e-01
-1.323289011181738306e-01 7.169216009812999779e-01 1.162207142889618572e-01
9.357637753004729997e-02 -6.281777654869529215e-01 7.223545418177904631e-01
-8.210202320695959566e-01 -2.563621698781012315e-01 9.057456998788078473e-02
-4.257694606531414738e-01 -6.148421636692071868e-01 4.346385309519776308e-01
1.085655089083238656e-01 8.229302122345669712e-01 2.093831152781325255e-01
4.843491793927967581e-01 5.307985743439445070e-01 5.190141620125745536e-01
-2.345306277855168375e-01 -4.049320086050204326e-01 4.634355860521753301e-01
4.624737500085949193e-01 6.662223099399509907e-02 6.737968510045319048e-01
-9.687439135634560161e-01 1.320932806274575932e-01 -1.294078448555141814e-01
-1.327973697403459462e-02 -2.271972278307294590e-01 5.201376275865525756e-01
-2.600459253728371611e-01 -3.897425108914712721e-01 4.440804699978009862e-01
7.651986627666094998e-02 -3.561865865743504833e-01 6.153822472451714320e-01
-1.590658302869466800e-01 -5.305787380256985486e-01 5.496705173331403183e-01
-5.083445462319136077e-01 6.312699041552397583e-01 -5.786318818415282783e-02
-7.457823546660369285e-01 -6.274203479209504442e-02 6.202741176258100286e-02
-2.617491784191897097e-01 3.944214080911498388e-01 1.615353986084338556e-01
4.145855225733415805e-01 1.758417928213718562e-01 6.084844511322341498e-01
-4.067911966145917879e-01 2.105451515568972920e-01 1.485556604734475372e-01
5.023470943996926064e-01 -4.032882723818472653e-02 7.339282516564803460e-01
2.285503643649087757e-01 4.047216025133957840e-01 4.249393695732832099e-01
3.099563629376653751e-01 -3.805911174185426793e-01 7.513170982498821315e-01
3.410463030521254102e-01 8.810067693577738890e-01 3.151758486939951198e-01
-3.924722922196955399e-01 -3.518055494005551953e-01 3.583135350806650465e-01
4.993994070915774852e-01 2.765051164972266995e-01 6.185376914066054166e-01
6.700170613093082983e-02 6.972235010647582776e-01 2.318852959512009704e-01
-2.960718764262708080e-01 1.734471010789957399e-02 2.782569837015432812e-01
-7.028352225144317567e-01 4.270466129202274974e-01 -9.047409354246900570e-02
-9.688358180598024560e-01 7.112621496605537469e-03 -8.457354541191354491e-02
1.727774747497604069e-01 1.016488909289254561e-01 5.033983311835462660e-01
-6.994950238610149196e-01 -4.070528375821038658e-01 2.108961178542706483e-01
4.790154979303739013e-01 -2.600761682485402005e-03 7.076684748898633970e-01
-3.877044009320022022e-01 3.222487739937725526e-01 1.188374975875833711e-01
1.922233362281550173e-02 2.422460798644859026e-01 3.692525428007261135e-01
2.693437059108665446e-02 6.407011809972937844e-01 2.303564899798109245e-01
-2.615049357889286386e-01 6.019477051350774488e-01 8.713943290980429024e-02
2.504142422716620353e-01 -1.921677643701229510e-01 6.512114478592814226e-01
-9.001000522252667890e-01 3.661080131388315118e-01 -1.760541922366571921e-01
-8.587039849633389954e-01 -1.956862427529705573e-01 4.825481574448572952e-02
-3.595486306241584828e-01 -3.023219838572904772e-01 3.584784753108009037e-01
8.229212615818426446e-02 6.380849717565123536e-01 2.614535889131012758e-01
2.991924835788375425e-01 2.838098648783858868e-01 5.068465448284763530e-01
-7.548977615600155344e-01 -1.510137987860138420e-01 8.876264599266286970e-02
-6.444855852968843501e-02 4.797109548933631840e-01 2.383898271019273540e-01
-3.305767051000472745e-01 3.927730856980543028e-01 1.246318243364727130e-01
-7.926900091112168978e-01 1.782651889930453870e-01 -5.007976523635634947e-02
-6.012427531995496732e-01 7.230417773878898835e-01 -1.414299164183140667e-01
4.952698518004771677e-01 2.208156094819230340e-03 7.147964164917159913e-01
-1.234846842205157558e-01 -1.359133741281804975e-01 4.273178772666642589e-01
-1.403163999130111750e-01 5.079212885602348848e-01 1.869277090984988177e-01
-6.698636363326104792e-01 -4.633268622605598019e-01 2.472482848355892215e-01
-3.903759918652635053e-01 6.858834691824710061e-01 -1.321022949657485804e-02
-8.478514935270559105e-01 1.347129744667054096e-01 -6.448945132914339629e-02
-1.400144795260489239e-01 9.386504343939306994e-01 3.240421388026622912e-02
6.026181744419198960e-01 2.558751205654474781e-01 6.821775880671715475e-01
1.139816061192106822e-01 8.237730870206607658e-01 2.120309692657495748e-01
-7.533213724081929685e-01 2.650502272729671760e-01 -5.979985829663127250e-02
3.610519077241343688e-01 -6.517057342414417365e-02 6.658755514238959838e-01
6.468952237238831393e-02 5.499898791502676465e-01 2.835017597494504105e-01
-1.920843808450237999e-01 -1.513158650366448477e-01 3.954779606154794069e-01
-5.772841095940968170e-01 -6.834012324196603316e-01 3.767187439656155545e-01
-5.432849654205268441e-01 -2.595796201008153115e-01 2.430333702226944448e-01
1.955008427627950851e-01 -1.081749748539515277e-01 5.911316110811911662e-01
-6.737896977730646331e-01 7.287853551112511985e-01 -1.830143945153033525e-01
-4.974468252665930068e-01 -4.891738889288644865e-01 3.504591620100773186e-01
-3.234131562071102528e-01 3.901080126203120280e-01 1.294914579284791312e-01
2.243887468004471253e-02 9.091282365048503067e-01 1.315071118468608413e-01
-6.598055872165666802e-01 6.945337075694790752e-01 -1.630953850191682597e-01
-5.043091608675615012e-01 7.143997520042175697e-01 -8.551927379118801076e-02
1.069371029388875294e-01 5.656547423094004934e-01 3.008914683530383716e-01
-5.950677440420605313e-01 4.004835940517321169e-01 -2.222544187418054248e-02
-9.557995489789088139e-02 4.078065104791672169e-01 2.472532901793935423e-01
4.293399752791629553e-01 3.765706295528469805e-01 5.444344649403155545e-01
-7.768175324572298424e-01 -5.150056053128382327e-01 2.075418559093765436e-01
-1.801033583328242038e-01 -2.832486906253529613e-01 4.493860276252308883e-01
1.451795800921663326e-01 8.309542924898110083e-01 2.264478652599484221e-01
3.287876159230235240e-01 3.074710037679650454e-01 5.144718055312903493e-01
-7.649367149739089156e-01 -1.980120445128814854e-01 1.001721755836905980e-01
-9.763038448315532192e-02 -4.998048302071675941e-01 5.720871823714868132e-01
-7.420790429405696997e-01 -5.947144156016908045e-01 2.550923922546257105e-01
-3.349760022410936955e-01 1.049809264373881834e-01 2.255901382505978159e-01
2.256600198637688515e-01 6.943521044691182142e-01 3.193496339473352874e-01
-8.803135034940224868e-01 1.300160115989083542e-01 -8.048713021296334535e-02
3.620303053282007966e-01 -3.145892880674580061e-01 7.559824262596493982e-01
-6.849272213198637216e-01 2.304721471866860438e-01 -1.012237027082412560e-02
4.234327316133593144e-01 4.347209619150513848e-01 5.203327864450715268e-01
-6.348145357547821943e-01 -5.560296373630325695e-01 2.996345635127359852e-01
-5.159416531770433245e-01 8.105119019972302219e-01 -1.263731729748914234e-01
-1.562917466432993951e-01 8.289557209170630436e-01 6.293147807709716102e-02
-6.050724517974529482e-01 -1.569721700808431319e-01 1.725236082916784819e-01
-8.886215240370080037e-01 -4.680377549282228183e-02 -2.151175592566903841e-02
-1.244223322201660070e-01 5.326190426494171737e-01 1.867166879354044684e-01
-5.787406939233403769e-01 -2.288036200885733007e-01 2.126653644629588058e-01
-2.223124895424463121e-01 -3.984644477030922505e-01 4.677690277018760612e-01
-5.131434513283087417e-01 1.826661194892400530e-01 1.006297888003750418e-01
-7.897078873368662544e-01 -4.738459025827920224e-01 1.857378041786024447e-01
-7.370673146743953463e-01 5.946213570247258495e-01 -1.693040939538305312e-01
1.955478826162393158e-01 -1.353545113186148674e-01 6.009182377826595145e-01
2.318640383830261054e-01 -1.116200956162267111e-01 6.121786301591769508e-01
4.926911390531350798e-02 1.332900766335581022e-01 4.247507108555900190e-01
-6.935089932795733825e-01 5.479887476641007171e-02 4.829212261531901085e-02
-1.624907177201253272e-01 -5.516440414662964198e-01 5.553699162041264570e-01
-8.590965721754811879e-01 -1.861223623309618824e-01 4.460626275605023006e-02
-3.150900416515104996e-01 8.769638892520336126e-01 -4.081910971528611431e-02
6.539090743627008762e-02 -6.084195627639197301e-01 6.999040203914564939e-01
-3.818154393944364067e-01 5.163274781140089198e-01 5.234607616175117328e-02
-1.159806836153208093e-01 9.853193666288371233e-01 2.873699545501034319e-02
-4.171942937809510199e-01 8.954705917624824485e-01 -1.030893065715121210e-01
-7.340784202473331632e-01 1.865679865380623359e-01 -2.113140664191744816e-02
-1.234162966614959752e-03 -3.709457995960939447e-02 4.584280996949394726e-01
4.322104985667666460e-02 -3.928047017133400043e-02 4.834312218469495326e-01
-9.243751485142320812e-01 -3.532764666834247724e-01 6.907424341689366587e-02
-2.320328966922557412e-01 -5.522276969945699721e-01 5.176946626646310445e-01
-4.114011721368329710e-02 -3.000950437090454392e-01 5.311398094780810375e-01
-7.894332192582372842e-01 -2.805086977833241152e-02 2.578884303804374403e-02
3.323659297851119798e-01 -4.627505692711293972e-01 7.930312420705548648e-01
5.574739910833866885e-01 1.447963508174326674e-01 6.974759258694511743e-01
2.891641326712530713e-01 2.140703811588901828e-01 5.264289225995424371e-01
-2.229430947921325068e-01 1.974068974807212107e-01 2.534299147330303370e-01
-2.841203789757916764e-01 6.062795786044532509e-01 7.326338996843657914e-02
-1.550745454832830883e-01 5.693278546236635318e-01 1.568348649419543939e-01
-1.817051003119199148e-01 6.222139592100146555e-01 1.233341829625047154e-01
-3.102105046356865570e-01 3.287542645345370440e-01 1.587179388142860859e-01
-9.093748325079201722e-01 -3.837590771482684571e-01 8.819328037683556165e-02
4.571479147449727595e-03 -9.417432079594571792e-02 4.820899461022543631e-01
-6.670254908605917077e-01 6.018406062897385667e-01 -1.337396903452010011e-01
2.313017787246336443e-01 8.860489727466489551e-01 2.535789325066812316e-01
3.434016003989840971e-01 6.825927779089582259e-01 3.877154727123254818e-01
-4.436124364238817064e-01 4.043250031664596955e-01 5.890410296103373855e-02
-2.248217977992558389e-02 -4.517426785821209712e-01 5.957654842155378772e-01
-9.611030160295807034e-01 4.310214477038341874e-02 -9.328584132443504262e-02
-9.250043378007287709e-01 2.199393219598210769e-01 -1.371277967965957023e-01
4.743039977875791458e-01 1.413817497077165530e-01 6.533932544753490168e-01
-6.456388918056744641e-01 -2.434724212252186992e-01 1.814888919394770372e-01
-1.711284582422760159e-01 1.824819926243137838e-02 3.459986024441950581e-01
-6.971555991433954491e-02 -7.118522130164722794e-01 6.634471724026992367e-01
1.235760415778042881e-01 1.193433268831884386e-01 4.702399935700891098e-01
-5.018858200929245950e-01 7.438675362705490235e-01 -9.478187770221239983e-02
-4.454906116604976929e-01 -1.700474693754952527e-02 2.091932837577681059e-01
1.818179757092663329e-01 7.586659938133213377e-01 2.723684914843221838e-01
3.379382810406541537e-01 6.346935424023985028e-01 4.019412676711768273e-01
6.134446373245678874e-01 3.177156940167721877e-01 6.658667415968925196e-01
-8.121098800652523098e-01 -2.022160113232953915e-01 7.598317269930530971e-02
-1.349768658288876266e-01 -6.756484062070162722e-01 6.148925330218794061e-01
4.303517829171461528e-01 3.043269402644998567e-01 5.709305850959004447e-01
2.724040373609822874e-01 9.495302927155849226e-02 5.600771107725254216e-01
1.778103966890858256e-01 3.779267741631093247e-01 4.069203281341552958e-01
-7.336980821727585589e-01 -5.637475351769939691e-02 6.632394012995475319e-02
3.346112934452675214e-01 3.598165081623094230e-01 4.988455340287701323e-01
3.097756634928010011e-01 -4.098497711770880958e-01 7.617263326403703738e-01
-1.319308957855601094e-01 -6.881984201496099685e-01 6.210589950898728340e-01
-1.918105574782510703e-01 -2.892868815785561432e-01 4.451767331355053758e-01
9.310944951274065240e-02 2.536385557733242258e-01 4.054130336126431366e-01
-2.580708556404872622e-01 -3.037100759053456764e-02 3.160951711528447450e-01
-9.544153553409134849e-01 -5.027223493966054280e-02 -5.610898112885666367e-02
5.248679912313959361e-01 4.034288116885628717e-01 5.868301769444504989e-01
8.073452197275929332e-02 -3.517316055392075702e-01 6.160783680329384726e-01
-5.895492381651972619e-02 6.663200835634006114e-02 3.897318727226882218e-01
1.299260701455233133e-02 -1.921625096447837355e-01 5.218681160037884625e-01
-1.817929670241060780e-01 5.288880495887483130e-02 3.277483432937897123e-01
2.436530569784656208e-01 6.065991181099880114e-01 3.606665702682704810e-01
-4.531785728271153224e-01 3.255301733197127345e-01 8.199033477405391623e-02
4.174114418017799144e-01 -3.502990229666151922e-01 7.989771569870224299e-01
-8.572942538660665024e-01 3.040631520833400048e-01 -1.304524481634169453e-01
-2.568523882095378186e-01 -4.923572755498476644e-02 3.235338584584388499e-01
4.117407755527249802e-01 2.558580936093560187e-01 5.781984089951197614e-01
-4.422314200915066773e-01 5.869322847174719415e-01 -5.923397971308220003e-03
1.389535073200065529e-01 8.477871280821265287e-01 2.170108698597580654e-01
1.510843674406953671e-03 5.080267587523020767e-01 2.641538119932113071e-01
-8.567374963885678874e-01 9.139416597077684723e-02 -5.377322088120545934e-02
-6.284037862635646343e-01 -2.617276255735919155e-01 1.974341525734456260e-01
-3.603527055171062421e-01 7.842154389090135735e-01 -3.216829396146816955e-02
-1.326839772719879129e-01 -6.529327632086600053e-01 6.079837618408231448e-01
-3.663549737386219141e-01 3.802211223640744597e-01 1.096484998636437086e-01
-3.180569931093685798e-01 -5.413271780644287601e-01 4.669161501270367998e-01
-1.410540600769693564e-01 -3.070661516406136826e-01 4.792126978607368359e-01
-2.012570133150075880e-01 -6.146020651117229013e-03 3.383460179650810140e-01
-7.987482139615427190e-01 1.248379815879909482e-01 -3.419278588717392792e-02
-2.069814920194332497e-01 -1.598529060258606083e-01 3.904282940799667090e-01
-4.385158658490054262e-01 -1.470023541218296948e-03 2.074139600647096071e-01
-7.710941579093681664e-02 9.451213751111888772e-01 6.434942723512854235e-02
1.354670622536995606e-01 -5.136187751414762470e-01 7.040339249240106234e-01
-9.774288676123474295e-02 -6.317761649414003200e-01 6.194208254847892725e-01
2.578829400407406380e-01 2.383427366222252430e-01 5.006707580357544485e-01
-5.544582407398432888e-01 -6.673354810998700648e-01 3.833840124027728669e-01
1.823498143269756400e-01 2.111736210029153266e-03 5.443599336893759633e-01
5.741702467187865810e-01 4.532654143639423538e-01 5.957909843217240597e-01
-9.473253816370192926e-01 1.746431364372393880e-01 -1.330205085453631808e-01
1.652488463218250714e-01 7.588569717176907314e-02 5.085492689894288709e-01
2.836584796826007171e-01 -7.229637202400801543e-02 6.262726143658554623e-01
-1.146793352319348397e-01 -1.766160721807759904e-01 4.467323943318232127e-01
4.096067821147564847e-01 -1.238036357546885291e-01 7.133839691831185270e-01
-1.495604827451120500e-01 -4.639007279329195044e-02 3.809618779962548052e-01
3.576354284004859552e-01 5.245558831725973814e-01 4.522255799630246487e-01
2.926685714766527058e-01 -4.736636404069010653e-01 7.753243181351787694e-01
-5.402476415330716847e-02 -1.519810048084339060e-01 4.709283029461731607e-01
-4.601905093723785423e-01 5.182580645445861167e-01 8.955940720103085576e-03
-3.075925131806134250e-01 7.978045249700677077e-01 -8.306099162468036368e-03
3.471247549428034540e-02 -2.720027747115089101e-02 4.744575949610184140e-01
-8.322330135073869872e-01 -4.360351474835161834e-01 -9.627128758511586948e-02
5.801471769855776062e-01 -3.712508999573213009e-01 6.037500912536294395e-01
-6.709980471282334102e-01 -1.557400213366777475e-01 -7.225910556447807664e-01
1.769161799602564367e-01 9.643917457194741694e-01 1.835564692367366857e-01
7.854009420298135868e-01 8.358067817530875909e-02 4.554867039226364600e-01
-8.126151799185007407e-01 -3.242771273264642984e-01 -3.226523528067069546e-01
-2.173156805474793229e-01 -9.018746208017777155e-01 2.963021565686890790e-02
-2.961389234812775717e-01 -8.236658264527469964e-01 3.027764235650706182e-01
2.509646620242854675e-01 9.106372262592207223e-01 1.155657162008693999e-02
-2.394773632998105639e-01 8.838500642846957023e-01 -2.564660649740382881e-01
-5.964171980470952539e-01 -5.871800963252287175e-01 -5.383862433979350604e-01
4.172122023472489838e-01 -4.429656334205522850e-01 7.316693414301703724e-01
-7.118725900286051456e-01 -4.248202980483576363e-01 -4.679620428608457505e-01
4.465342661807369384e-01 8.058361337046153761e-01 -1.262646760899326093e-01
7.611973907622916480e-01 -2.350400118204788447e-01 4.380083962462220093e-01
7.034451049298882097e-01 4.473837890693059260e-01 4.097568158925145587e-01
4.339076832516621240e-01 8.156782789629769548e-01 2.862827996617887671e-01
-1.137965220106817582e-01 -9.237771197103797904e-01 5.436562986803410158e-02
1.197336650914541528e-01 -9.608977206059429177e-01 2.081277865894786208e-02
2.504844480766369452e-01 7.809240403967548927e-01 -5.734489109218888769e-01
-3.142761785668310992e-01 9.042153556544820781e-01 -1.805435559730821926e-01
8.265658575534041708e-01 3.735210929015795878e-01 1.736251490308186041e-01
1.483043648908898560e-01 -8.055846657426158908e-01 3.957496667548012215e-01
5.025708911613739893e-01 -5.187788800333216210e-01 5.535747200599949736e-01
-7.409962811310389919e-01 -7.177658951001993082e-02 -5.979180960353647212e-01
-9.263367794998595972e-01 -1.718443692466037898e-01 -1.809797829629013477e-01
-2.502114348528460819e-01 7.289388151596352117e-01 -5.512141801064025515e-01
-8.160332547830657923e-02 9.362566725462450057e-01 -1.596689906688549543e-01
-2.921338908898689080e-01 7.578923800665813282e-01 -4.719611385762483846e-01
3.398916293176282855e-01 8.618831799513985148e-01 -7.645045424431641534e-02
3.857087911567038674e-01 -5.486397063470467295e-01 6.410578591282813932e-01
-6.066358361841014402e-01 -6.997295077126526319e-01 9.693255080682255595e-03
1.812837828326649692e-01 -9.519171437912785638e-01 4.325608672815936528e-02
-7.842746914709008976e-01 -5.155342962289449771e-01 -5.845159043472813315e-02
-7.880726551680982128e-01 2.193645802264147099e-02 -5.111042881151570683e-01
-2.836280840589999394e-02 -9.228170599554578191e-01 1.084248385899550665e-01
-4.469431030185228026e-01 -7.729276102873411380e-01 3.181298324799109456e-01
6.642000903484045482e-01 -2.306351130112802017e-01 5.855997596317303877e-01
9.183456408896534251e-01 -2.984155513226148249e-01 1.671041406084008418e-01
1.946406506767549838e-01 9.281230959499267019e-01 -8.119866072219678044e-03
-3.510282196735704519e-01 -8.721442245503596702e-01 -2.841583848561867742e-01
3.191383197761262225e-01 7.817046830256926260e-01 -5.335486857028887142e-01
4.979030678888901607e-02 -8.536185998262214580e-01 3.145116410288589237e-01
7.166339762485108844e-01 1.171654441169073524e-01 5.832132505443721193e-01
-4.058153471900705633e-01 -8.318876628910557569e-01 -6.329406593686548455e-02
-3.299681843919533564e-01 5.876825716384606046e-01 -7.062533058769699945e-01
8.990822685091502953e-01 2.473537018915830388e-01 1.309178641581117408e-01
1.577538942186063053e-01 -7.518708441397649045e-01 5.004488607330603855e-01
-8.996481661799323737e-01 -1.421450976208409739e-02 -3.014520220953469942e-01
-1.082912706238151057e-01 -8.741110148255752943e-01 2.417395309508056089e-01
1.202601215330801471e-01 -8.545015999995507761e-01 2.966521371782456229e-01
6.673568519109662756e-01 -3.757181026304844407e-01 4.857946841406355354e-01
-3.236260189037676871e-01 9.479647653724472267e-01 -8.316702817935407721e-02
-5.800285057016604240e-01 -7.181629018479284143e-01 2.348481384498148083e-01
2.299056478385143321e-01 -7.879219943153186190e-01 3.903272575769421437e-01
2.612965413007738436e-01 -5.981088294486611723e-01 6.887017731044484670e-01
1.488626682569166026e-01 -9.336891081591635055e-01 9.456537400891459888e-02
4.836994175547887354e-01 7.790337613277773521e-01 2.388134943906447816e-01
-2.877979933391541789e-01 6.785179344542051627e-01 -6.075386103842765895e-01
-3.518192264305943229e-01 5.780815915405225214e-01 -6.988577471261815388e-01
7.177502207455404015e-01 2.556609258709563459e-01 5.408028855851140237e-01
-5.958167888413413715e-01 -7.079826098158652492e-01 2.590088536163058230e-01
8.410394304069072069e-01 4.413374945715372588e-01 8.185332217836431210e-03
3.668887266853735896e-01 8.320561134657815661e-01 -2.162088245526108121e-01
-6.545850995076243350e-01 -4.225018805107007003e-01 -6.189366463495432624e-01
7.202253538540666078e-01 5.360740253417806134e-01 1.935692435499518360e-01
7.378003047730666841e-01 2.394844073146524741e-02 5.466030704487794267e-01
-6.027574009492860929e-01 7.382959511170370526e-01 -2.452088199552948378e-01
-6.043865696981325364e-01 -5.681318449656944658e-01 -5.516214300082190602e-01
6.216547034999357901e-01 -4.445346313296904411e-02 7.327012066971860804e-01
7.538364682738799560e-01 4.497130632037318332e-01 2.637825537386705999e-01
9.259685768740829603e-01 -1.155932131408496794e-01 2.001354978013463182e-01
-8.435094375303531233e-01 -3.916734334766577841e-01 -1.469736092559762453e-01
1.949760258829567050e-01 9.104345079287636811e-01 -1.009542434541421396e-01
4.048187160304277388e-01 7.750311509422834755e-01 -4.714872930761765946e-01
5.715558307927577353e-01 -5.087953687221733468e-01 4.862774333609124477e-01
3.857758695587297504e-02 7.957375661896503027e-01 -5.445679910816318969e-01
8.489827971115692096e-01 -3.816413649831352783e-01 2.295781432748835171e-01
6.033257738045931795e-01 6.800732643712794623e-01 1.651955919604262690e-01
-6.456424682665083958e-01 4.398529234049149417e-01 -5.231489039851856537e-01
3.534741462522469346e-01 -5.881084040675225166e-01 6.202876935960364158e-01
-9.073140719536924026e-01 -1.043608493118113913e-02 -2.871672445341393876e-01
5.555610315382294440e-01 -5.356954965578877292e-01 4.760609566367506873e-01
-3.451524888809430758e-01 -8.733727477385426763e-01 -2.042877834745553678e-01
-6.932832339211868478e-01 2.821653794097425672e-01 -5.734883781086855814e-01
8.056014606870415262e-01 7.472503502241754393e-03 4.228560848133073313e-01
-3.383872050337558002e-01 6.313773511020996931e-01 -6.368537827312685806e-01
-4.597485904922153921e-01 -7.832396194035521342e-01 -4.018890829499149331e-01
-8.185537486827708653e-01 -5.204879082862332584e-01 1.076803783586463559e-01
-9.514246136589183944e-01 -2.328941758564871123e-01 -6.771987695367948090e-02
-2.897555042816387094e-01 -8.359988960158826199e-01 2.535281871596881120e-01
-9.055925472152905886e-01 3.928316899480587265e-01 -2.005983259939955188e-01
7.422062194714869054e-01 -1.869886201096163936e-01 4.885099429553097505e-01
-7.392061274232253343e-02 7.335380941626041817e-01 -6.469262660839794066e-01
7.729637668317169696e-01 2.377678835040015759e-01 4.298654900132760082e-01
4.530187875524789853e-01 -4.530953488337329804e-01 6.803848850059313058e-01
