-7.498320878696933534e-01 -5.613210847780978341e-01 6.615396434675226145e-02
-3.446316659552156603e-01 -2.324256080337410157e-01 -7.133812425415205771e-01
4.524065485581429957e-01 -4.813530788101906543e-02 -4.519141049759587414e-01
1.874783556341195643e-03 -5.830573320467166698e-02 -9.643797275432273164e-01
2.672337085874380014e-01 -3.069978876623079556e-01 3.254774980540803830e-01
3.381650110274824206e-01 -3.050855859408199144e-01 4.049528021610687700e-01
7.327379824071921233e-01 5.211393816566721937e-04 -2.972546719220835465e-01
-1.495308767790858862e-01 -3.535012909673234671e-01 -4.671025148061702312e-03
5.432809301960475068e-01 -1.045434118979214752e-03 -5.232703872728780015e-01
2.461363470166356426e-01 -9.075936454817265520e-02 -5.392474843902366199e-01
2.571625269546294890e-01 -1.408490937655457187e-01 -3.314208966283124780e-01
-2.784920426405811944e-01 -1.891755768203246535e-01 -8.001423196032035889e-01
-6.885875464246802302e-01 -4.480806586051163665e-01 -2.981258567697179229e-01
7.229246214301038309e-01 -1.155686507616734970e-01 1.410844532767093207e-01
-6.282108678628838261e-01 -5.710326586038536600e-01 2.528204987802591952e-01
-4.646362334629243196e-01 -6.154869512538500009e-01 6.256633440597577644e-01
4.560730076360320906e-01 -1.292216749145101984e-01 -1.328545541182082901e-01
6.057803997998298939e-01 -1.666565719441634452e-01 1.957691421114965413e-01
-5.825386930965553711e-01 -3.373272613659983876e-01 -5.978702247453004937e-01
-5.147438330791818117e-01 -2.790628573150804592e-01 -7.408506057752219931e-01
3.810893609636724633e-01 -3.808791967298847392e-01 7.515721545885870603e-01
-3.863636614779719647e-01 -3.642149580463008296e-01 -2.532386614804056357e-01
-3.739244428817903310e-01 -4.382707802425385712e-01 4.929347241519840134e-02
5.196169283339749922e-01 -6.967074412753317125e-02 -2.860334963253133300e-01
-2.267665803499650246e-01 -4.942864647776168963e-01 4.468765411985259339e-01
2.175639390174333443e-01 -2.858818060325712396e-01 1.827117502456501452e-01
-4.046046259731401196e-01 -3.335564350780417797e-01 -3.945218859216825247e-01
6.244315130759812149e-01 -1.795623250521634004e-02 -3.582533321227308609e-01
-2.682080136584168994e-01 -2.363072891817603605e-01 -6.047002852663674322e-01
2.788414169989185676e-01 -1.375852487499726606e-01 -3.175251374313727837e-01
-2.019007361590487160e-01 -4.579388921882865393e-01 3.363308216937936357e-01
3.896648726740401525e-01 -3.724400058964765226e-01 7.293383726956909063e-01
-6.632180797967669461e-01 -5.714929410219068417e-01 2.117207733700191830e-01
-4.657575516745389166e-01 -4.774324519811706802e-01 8.871845610197537368e-02
-1.328875857645606950e-01 -2.841313813605564897e-01 -2.533972052390032204e-01
-2.131051378053056278e-01 -2.329602959216385272e-01 -5.501812599481726851e-01
7.974576958479505651e-01 -1.440280355385056832e-01 3.427965769473056423e-01
3.581767113798519087e-01 -4.047107466854416025e-02 -5.970825151135381592e-01
5.462401010344352104e-01 -2.641566797443164472e-01 5.010734469262785318e-01
5.300340750837567033e-02 -3.153027451308929585e-01 9.525410358025965252e-02
-6.965810524186148989e-01 -4.660302478383331337e-01 -2.382842739553721334e-01
-4.443317636599423970e-02 -4.143546280730586728e-01 3.601538004090568124e-01
-2.388787192484110311e-01 -2.912869515884480842e-01 -3.554814891389553311e-01
-8.255823722130006814e-01 -4.960425311366036261e-01 -2.798862714186526879e-01
5.767549708405679265e-01 -7.818859737986705305e-02 -1.829925945305105606e-01
-4.532954237993586655e-01 -2.874482131354513803e-01 -6.330433306758266321e-01
-4.661635044501880598e-01 -3.358723931214761538e-01 -4.609496120376935790e-01
3.967010683459800124e-01 -1.190357735618688406e-01 -2.451031336235898750e-01
-3.160616028588565385e-01 -4.122562284837110735e-01 1.925662026160417789e-02
-5.310089118203221714e-01 -3.033429024287006004e-01 -6.665835687402295040e-01
-5.919901214676604601e-02 -5.001497327116614100e-01 6.749001555760386628e-01
-4.657826933915999723e-02 -1.077969616329948199e-01 -8.317396162250552116e-01
2.366864484997250606e-01 -1.841346227273265579e-01 -1.885822849958621039e-01
-2.551210767928240308e-01 -2.429834159714088782e-01 -5.627687277220702056e-01
1.634567393736194862e-01 -3.881664364532445566e-01 5.132330044056135909e-01
8.952431640939063906e-02 -4.367117374880680192e-01 6.109901332148086617e-01
5.868828340258159804e-01 -9.114984605068228440e-02 -1.203034104531332527e-01
4.316632763653403537e-01 5.635973910923281621e-02 -8.827055668012118161e-01
-7.617788124518590775e-01 -4.805667814274563465e-01 -2.617610569552796251e-01
-1.937353307953035841e-01 -2.436585023794086979e-01 -4.849495822303078185e-01
2.384490668942832181e-01 -1.122906796844021365e-01 -4.651357466714764466e-01
1.995102262579374619e-01 -9.170332434718420078e-02 -5.927044901507765307e-01
3.692760496358979405e-01 -3.510791862177509159e-01 6.214936135842029641e-01
5.735559297490038233e-01 -2.976521388434823501e-01 6.644794372779880831e-01
-2.925818224207742957e-01 -2.226656970532481239e-01 -6.874807080747032950e-01
3.957441151567448467e-01 -1.457888449329347302e-01 -1.424890738818432312e-01
-1.778090410737745083e-02 -8.585664680422840089e-02 -8.815772647621484825e-01
6.352256429056764298e-02 -2.469490336581527390e-01 -1.570321485111919879e-01
-3.296181846930921200e-01 -3.520202344749784884e-01 -2.310314303438435746e-01
-2.199152389965305376e-01 -5.672623471974189702e-01 7.383737442888286262e-01
-5.194126252594878368e-01 -4.077806160000393421e-01 -2.472199815755634078e-01
-2.017518873190493056e-01 -5.197403759924196232e-01 5.762670081733370919e-01
5.927237118560219065e-01 -3.146542471064028845e-02 -3.446889498543714292e-01
-6.969497864508058527e-01 -5.372738287738295648e-01 3.764770048282915088e-02
-3.953734922375874428e-01 -3.617759220498481532e-01 -2.737381373052487077e-01
4.124861128740854865e-01 -3.854165184481155859e-01 8.076367094082672615e-01
-5.950463497623348363e-01 -5.617669760007271140e-01 2.575030089722843973e-01
-1.308729253357193180e-02 -2.269593115160532248e-01 -3.284310520112659337e-01
4.805378333618244291e-01 -1.006332105129072035e-01 -2.137907082115971247e-01
-4.046339933694078073e-01 -3.929865797780000003e-01 -1.640034396456455656e-01
-9.695281580042139358e-02 -3.467188493391962223e-01 3.342744928987906317e-02
5.264878008862956538e-01 -2.146694971428229903e-01 2.848945139428177287e-01
-8.145600937871013691e-01 -5.532424310011709867e-01 -4.448113326211373952e-02
5.377033917931117735e-01 -2.894662782919333321e-01 5.888021409383425997e-01
1.140955318822367004e-01 -3.264694524647507312e-01 2.134149416527981458e-01
4.505526175190973648e-01 -1.095108180318244973e-01 -2.160839409683099344e-01
-2.535008008436763771e-01 -4.408386710527791297e-01 2.067795834413583556e-01
-7.597963488002527077e-01 -4.457486441641523300e-01 -3.944065903941325058e-01
1.875745672000858899e-01 -2.254452998743038117e-01 -8.848505176846947762e-02
7.402255251762370758e-01 -6.152808315761237878e-02 -4.736718461576464034e-02
-6.183299721307651264e-01 -3.966419122477621850e-01 -4.116097209403835611e-01
-5.345244008541554237e-01 -4.037486574066593836e-01 -2.813742185282223640e-01
-7.163108468032236553e-01 -6.169953418267799528e-01 3.232027005656276097e-01
6.571702396259917478e-01 3.372593652180462531e-02 -5.186437513289906542e-01
-7.424707489283013939e-02 -2.351236492240455223e-01 -3.716815538503699945e-01
-4.836090972667277943e-01 -5.420274303180061537e-01 3.174405136093653712e-01
-4.443576800021981077e-01 -3.574771647325804547e-01 -3.504225729901446207e-01
-3.180036484097047422e-01 -4.169959713692524272e-01 3.526497800523729909e-02
4.756157349852512817e-01 -2.260437568529563290e-01 2.666995430495411878e-01
-1.743055288302252648e-01 -3.454211324640913405e-01 -6.636736803331017009e-02
-4.236565728644567930e-01 -5.657182168779967268e-01 4.827914410846662618e-01
1.492333208771821906e-01 -2.618897064333000069e-01 5.928374910344130083e-03
-4.089000174720436864e-01 -4.910941926610888908e-01 2.113710168147290291e-01
-1.285526515536069836e-01 -9.881724434334827889e-02 -9.669978759331955276e-01
-1.364548537513641524e-01 -4.706266058164433885e-01 4.657258227445169041e-01
-6.200017339290379015e-01 -4.780254783880850677e-01 -9.793676248577101728e-02
-6.672259178998840579e-01 -3.910400669778271165e-01 -4.932412802966429366e-01
1.854105481051981086e-01 -5.061309577985716526e-03 -9.460978715619453583e-01
-3.085952505164787363e-01 -5.910169551177447689e-01 7.218909554159724795e-01
7.334352020175080034e-01 -1.821099052237926674e-01 4.121017663305764356e-01
8.394643527054064247e-01 1.248054660729265054e-02 -2.129057867411438543e-01
-2.681633853505006049e-01 -4.519559295444335878e-01 2.319457831315387131e-01
-2.021027187390354030e-01 -3.875968776493353141e-01 6.319724829866378568e-02
6.060667225307168060e-01 -1.980643418657712373e-01 3.179637940250212291e-01
2.674585954708579849e-01 -2.365721856017833358e-01 5.254219932752629552e-02
3.474935532820130901e-01 -2.108407038338762085e-01 5.076530063595288689e-02
-5.837971324252194671e-01 -3.243420981457786345e-01 -6.497867542796640361e-01
-2.159906547549867439e-01 -4.815928769110935925e-01 4.108337738228002300e-01
7.079408762677708022e-01 -2.005154569819612154e-01 4.522729551352955846e-01
5.335885807876803930e-03 -3.104351586627238091e-01 1.797591443726081345e-02
2.403500951638760930e-01 -6.852277022809925844e-02 -6.326009567857007188e-01
-2.952579953743565966e-01 -2.371534663757562944e-01 -6.345550109090773994e-01
8.504130354384313861e-01 -9.963665614893119082e-02 2.354564126063560803e-01
8.767133636987440859e-01 -9.777062472181259623e-02 2.604363385169856659e-01
-2.138856886029098237e-01 -2.745288005030959155e-01 -3.898758290031206775e-01
-3.195143998539701768e-01 -2.573449180983053974e-01 -5.859390608750915108e-01
5.574240194430820639e-01 -5.314180095361632772e-02 -3.038408625910449246e-01
2.925573391349683416e-01 -4.329597420703260036e-02 -6.665101250717477832e-01
5.909014104959727787e-01 -1.290266664723451265e-02 -4.189340613237211852e-01
-3.387509645033339178e-01 -4.968562373570261648e-01 3.196600353995991406e-01
1.802296274486265282e-01 -3.000693241134129163e-01 1.920149233609516615e-01
8.866971059352374285e-01 -5.102190244565828203e-02 9.130898235478224212e-02
8.389925629352014136e-01 -1.154241285265233119e-01 2.827120558906562886e-01
3.764654322070083992e-01 -3.984646163375770711e-01 8.141288492313349945e-01
-4.708712712778872489e-01 -5.114636435728721064e-01 2.144751732658066457e-01
9.447868650581722205e-01 -4.023639917789834791e-02 1.206299734738926349e-01
-2.375235737011739956e-01 -5.460007183847057632e-01 6.343200069536559793e-01
-5.278038129544969648e-01 -4.083628429476695021e-01 -2.552408484359803831e-01
-4.247450209161612311e-01 -4.400417783697110341e-01 -6.093497452589503871e-03
-7.873091593779976138e-01 -5.973042419516708668e-01 1.598366631200707766e-01
-4.461697514623212957e-01 -3.639181576326577239e-01 -3.276551299989616806e-01
-2.786469374815203626e-01 -5.660757510883441812e-01 6.618215617996082711e-01
1.667796888582456505e-01 -1.641083114152397382e-01 -3.519115482939632056e-01
-6.657715393992775788e-01 -5.357327683733118517e-01 6.986398730170348403e-02
9.057543218379531247e-01 4.624820472355329476e-02 -2.626965868750562039e-01
-4.603234536484588912e-01 -5.982766493266804542e-01 5.641807170555892537e-01
3.254981268088719126e-01 -2.816305550812087111e-01 2.984434308866921737e-01
-1.673955274685221539e-01 -5.118925055533587454e-01 5.879098634380913735e-01
1.047768153780846423e-01 -4.935278132364805947e-01 8.500884605939130756e-01
7.016355794980793092e-01 6.879499779627333556e-02 -6.002193572674828781e-01
2.781698817102152832e-01 2.488322547284037636e-02 -9.486310560067398034e-01
-1.009379297913718110e-01 -2.560739033360531214e-01 -3.231041989376224333e-01
-1.481361497364380719e-01 -3.151462973228093545e-01 -1.517575086923269312e-01
9.611883375121905715e-01 1.444416272196375091e-02 -7.140631270485206517e-02
2.077548597267933062e-01 -3.839674665637677897e-01 5.512105612028498358e-01
1.324581090859242860e-01 -4.811706002165921370e-01 8.360604416483100598e-01
-3.037407497619905028e-01 -2.558770574673332465e-01 -5.723101012207512106e-01
-6.657866143738709608e-02 -4.887633365351198300e-01 6.216871651990274472e-01
-1.763566412577674547e-02 -3.766630045629065227e-01 2.467603216307775738e-01
-5.222092329270714428e-01 -2.849969542548977941e-01 -7.269751971093786347e-01
5.042774023671781763e-02 -1.415434776193869593e-01 -5.819861754267713350e-01
1.867764797805350763e-01 -2.275268993984484456e-01 -8.138734709171277504e-02
5.335570172778697495e-01 3.233087488075817029e-02 -6.646632842660468166e-01
4.140287971999581096e-01 -1.126066306347401902e-01 -2.488172520261600074e-01
3.657908823770758544e-01 1.257255336355403950e-02 -7.935332748099935829e-01
-4.990322362805330036e-01 -6.072472379617321891e-01 5.515614491321408908e-01
1.709674164123332341e-01 -3.173378190662437537e-01 2.476600374667906335e-01
-2.180952282532071240e-02 -3.767644851739593292e-01 2.420408494007767475e-01
2.315522674504623402e-01 -4.082516595748646865e-02 -7.508292851427614822e-01
2.846614169630572455e-01 -4.300100158693938301e-02 -6.773272946987797249e-01
1.463916270234373596e-01 -9.067727588742194311e-02 -6.617575509138369227e-01
-4.909012692465523631e-01 -6.079226741740954010e-01 5.641425365397523262e-01
7.330796256793414845e-01 -2.352044976380159302e-01 6.176423316413459652e-01
8.597394175843782183e-01 -1.080199839899559783e-01 2.794040753476790817e-01
-1.704037318202948278e-02 -1.842756594415768112e-01 -4.988615110710709066e-01
-4.795886409789202887e-01 -4.621215265839691555e-01 1.237727918974084254e-02
-5.150088202924981706e-01 -3.223749528370366546e-01 -5.731494675354742441e-01
-7.603786026018325428e-01 -4.265522605624347263e-01 -4.695906886413590553e-01
-7.811999057518952405e-01 -5.520902756491480323e-01 -8.083148487518768480e-03
-7.244873378901074412e-01 -6.110873726243807313e-01 2.902666571907179804e-01
5.051088290630111333e-01 2.799568913658041780e-02 -6.826955480635983342e-01
6.655380317245218613e-01 -2.360868586050761664e-01 5.383239959589706247e-01
1.787614007644938996e-01 -3.838198447075790165e-01 5.151196288480562879e-01
8.619237585470873597e-01 -4.892388197552842433e-02 5.282145668692847518e-02
-7.749884552487716904e-01 -4.416182152961845020e-01 -4.290412435663163437e-01
-3.269665992380901276e-01 -1.810347642665050827e-01 -8.911073764369117356e-01
2.163988216531563258e-01 -1.257048223678082222e-01 -4.401091761632887067e-01
-2.700200204471522314e-01 -2.661102600846438904e-01 -4.913018656042555943e-01
5.731809216560740383e-01 -2.266789086977638035e-01 3.886851504086606401e-01
-7.051744138808840878e-01 -5.396293269805823023e-01 3.671013909359488459e-02
1.323731519155435243e-01 -2.928988474012098053e-01 1.055713817901646201e-01
5.564504279155391142e-01 -3.896205845589970074e-02 -3.600427145555099573e-01
6.498871121768583503e-01 -2.620977739506303861e-01 6.200581752319095363e-01
-3.435155449761086999e-01 -3.052900026409858247e-01 -4.293424411986325184e-01
6.016136358453308963e-01 -2.266448722178909525e-01 4.233844173138762712e-01
-7.359945242842327318e-01 -4.274935217948933608e-01 -4.360675880486701850e-01
-4.893345552268899001e-01 -3.938502503156802170e-01 -2.644147635938141061e-01
-1.520950673506412942e-01 -1.064904264729027022e-01 -9.660708695994053574e-01
2.099169486345826563e-01 -1.337451466791055865e-01 -4.168579663212363950e-01
-6.242968678723852527e-01 -5.822119089830072314e-01 3.009843130716438608e-01
2.963568525401106268e-01 -2.012449017777840632e-01 -4.910551197067278967e-02
6.318947732957294061e-01 8.172221290425740747e-02 -7.358049528882791845e-01
-1.130940488110418196e-01 -2.875184741543578282e-01 -2.160093119932741390e-01
6.254290928762967772e-01 -2.569416133822642334e-01 5.700931338626591405e-01
4.562980253915530637e-01 -3.276930054805370363e-01 6.373745200512807019e-01
4.133789763076271828e-02 -1.783990337767959733e-01 -4.501434883894252503e-01
2.302021314159515275e-01 -4.386888459529303952e-01 7.909965928622384457e-01
8.056497803076372033e-02 -1.430971352231971139e-01 -5.390394628114247855e-01
4.393299262345803924e-01 -2.158259103413651403e-01 1.826085465830628307e-01
9.035644900455804818e-01 5.475616804855766443e-04 -8.808729053220694383e-02
-3.400223121618264899e-01 -3.140683445472041146e-01 -3.910082145032917067e-01
-4.954894464429022288e-02 -3.984298768495346810e-01 2.921079824678586290e-01
1.482571619237801896e-01 -2.964213074497100697e-01 1.386950811586014354e-01
-5.078505676861115870e-01 -4.830470685173614553e-01 5.893413407204133730e-02
-6.274955612667252325e-01 -3.658788716507940242e-01 -5.421806844149231752e-01
-1.419306554078252590e-02 -4.081134825611680284e-01 3.729872309431676580e-01
2.614982741047151560e-01 -1.396824159101994201e-01 -3.306354502721723931e-01
-6.720602437835036802e-02 -5.087314121355117624e-01 6.983831469206971398e-01
-6.119286136181604357e-02 -5.292188798156383100e-01 7.852290005094502146e-01
6.934695692351855456e-01 -6.231717278608978755e-02 -1.015840503649183824e-01
9.958787503415807152e-02 -4.500150869911398455e-01 6.749276938267420034e-01
2.989130749739036738e-02 -8.880000739378494934e-02 -8.117582083957957106e-01
4.706604917571253766e-01 -8.059871085854018735e-02 -3.036130955596649250e-01
6.387638939891315815e-01 -7.580069844711910532e-02 -1.162926330039294881e-01
2.432526669992610691e-01 6.607378462552888909e-03 -9.205064941098296538e-01
-2.824717832583817367e-01 -4.936984062481893365e-01 3.763539250785995494e-01
1.486719931183954069e-01 -2.460288629939061944e-01 -5.629013070168920746e-02
7.575013188206431991e-01 -1.927336029079807778e-01 4.827975765931271090e-01
-1.102244725508699646e-01 -4.642114647353905998e-01 4.729721588057306247e-01
-1.382171482003434759e-01 -1.561791091011837662e-01 -7.563066052472511291e-01
3.447242265136348238e-01 -4.499641537241783756e-02 -5.960067008666487531e-01
-4.776445817707159480e-01 -4.925896370512137246e-01 1.329573976382679712e-01
-5.718585772331902239e-01 -5.577096822959523026e-01 2.701690949002089615e-01
6.143021236466417179e-01 -2.130928146714892168e-01 3.863542581890850869e-01
-2.744303379720326452e-01 -2.605495530920150515e-01 -5.182770073830050839e-01
5.869165928450622571e-01 1.652171123683478585e-02 -5.379651215794265529e-01
-2.965730737575623110e-01 -3.471705945159715423e-01 -2.093635201084576292e-01
7.573412205490802629e-01 -1.076427411286437347e-01 1.524983575404708913e-01
-4.029613902844476070e-01 -2.880274019500516647e-01 -5.691350394735330553e-01
-2.067654028929548637e-01 -2.924899897905098300e-01 -3.114741940480904026e-01
1.441876760278546204e-03 -5.845882433793436750e-02 -9.643161525280038449e-01
-3.522368148265419552e-01 -5.255673458029814782e-01 4.145216983886848561e-01
-1.820503492780527754e-01 -1.952236394210159487e-01 -6.585340923696461068e-01
8.008690430131552018e-01 7.291860973019455294e-02 -4.946512762085119030e-01
-6.277728741335131257e-02 -4.182896070403216982e-01 3.529468998816597813e-01
4.777307739537240971e-01 -2.988752981650483458e-03 -5.960332253012323722e-01
9.331312599199501068e-02 -4.203703579777083310e-01 5.522365339282939711e-01
-5.003174248312376032e-02 -1.487353115379339563e-01 -6.771532650606907344e-01
9.380160041647879199e-01 -3.738714909339859588e-02 1.012819406322615495e-01
-6.490627643878711661e-02 -5.400357733046672326e-01 8.226431662218832708e-01
2.466939392598836434e-01 -2.226323128382139485e-02 -8.042895990859803002e-01
1.408145896119592511e-01 -1.978952061761752312e-01 -2.526464057254936280e-01
2.214265964222139615e-01 -2.080418159662174860e-01 -1.145302502628248731e-01
-8.781125768053449354e-02 -1.636977055821627891e-01 -6.653894173034231585e-01
1.535095807711301663e-01 -3.444533601404533019e-01 3.314659719728212939e-01
4.420597909060826058e-01 2.352801937005685393e-02 -7.426013934679116524e-01
2.237400400210078424e-02 -1.728174907058090126e-01 -4.950282242952941947e-01
-2.997153766740843772e-01 -1.988969701461436590e-01 -7.884284683876470190e-01
1.603722440470028987e-02 -3.480325399513595763e-01 1.769415076343206772e-01
2.427270883691488024e-01 -4.555994333574298061e-02 -7.187714600745578331e-01
-5.016495864781980729e-02 -2.396014197919766053e-01 -3.248087689797445332e-01
3.934437473645000516e-01 -3.675435550395206863e-01 7.149722744982219824e-01
3.555070489819978086e-02 -3.491961839709042947e-01 2.053606305144193844e-01
-5.128173359916862184e-01 -5.205108395217628026e-01 1.981872861725199331e-01
3.007959838888731308e-01 -3.064270753528818281e-01 3.643783216470237729e-01
8.846129860651154031e-01 8.100685439846522229e-02 -4.234390007520936194e-01
-3.113813459843532416e-01 -4.492148138867756990e-01 1.683679702861742011e-01
4.103028125643121138e-01 -3.822149095201182178e-01 7.925416898166434132e-01
-3.172253742205476401e-01 -5.307287867035063167e-01 4.774356234230758278e-01
7.620308584351422054e-02 -4.298076982392114997e-01 5.678873878343473347e-01
3.552900416577485232e-01 -9.960815546815884880e-02 -3.712013057882692091e-01
4.102004056886939809e-01 -6.695656882767078710e-02 -4.306029072659592893e-01
-4.014289520540191281e-01 -3.534217744455743215e-01 -3.135655758973541207e-01
-3.490730409321309846e-01 -4.935503944102727081e-01 2.941902944797893382e-01
-2.680189113058924488e-01 -4.015460221978223165e-01 3.656162616336621624e-02
8.218764535217216727e-01 -1.588801555621914552e-01 4.303282088372878400e-01
4.783701779676982624e-01 -3.328215413012916568e-01 6.843096031867522688e-01
2.171309488268497456e-01 -2.512290154540237630e-01 4.774863007887385907e-02
-7.866129402514360214e-01 -5.151643116026157765e-01 -1.579656309953758053e-01
8.396354618740371478e-01 8.590764448823229316e-02 -4.975506369736039103e-01
4.216104930324076072e-01 -1.216700389735713428e-01 -2.043685886349633218e-01
-2.363449452203954075e-03 -1.395261684295277249e-01 -6.544836608341570994e-01
-5.573380294238048371e-01 -3.721867669745115292e-01 -4.317636956356778466e-01
2.653743024959118735e-01 -4.150725627176727467e-02 -7.067497105569963134e-01
-1.260967469697824028e-01 -3.310749565116991588e-01 -6.296434349900792427e-02
3.413045168004633090e-01 -1.840819364520552837e-01 -6.062500375074877240e-02
4.547381257002016119e-01 -4.955932321338501340e-02 -4.435334699033173789e-01
5.827445247940920003e-01 -2.341062466086872573e-01 4.292147338198150086e-01
-6.064975640875053253e-01 -3.315072262148587301e-01 -6.497992353349864025e-01
7.083024601837205614e-01 -2.220921714021901194e-01 5.364210234037276592e-01
8.847452011095838786e-01 -2.762478532672634976e-02 -1.849402550453692166e-03
1.085004936644681645e-01 -1.081249407220085945e-01 -6.404890339381406061e-01
4.549735572394286720e-01 -2.931741848420228447e-01 5.018390262060516971e-01
3.710559731722644083e-01 -1.754295126547320005e-01 -5.774455451898565655e-02
6.777127390806675367e-01 -1.165470489413307359e-01 8.949355183820693893e-02
1.027536620852014838e-02 -1.135114045557968077e-01 -7.399227281258953237e-01
-2.462230796567722590e-01 -4.409877695586453816e-01 2.162735232500690719e-01
-8.273675018719524044e-01 -5.249284001505636343e-01 -1.700127484461568528e-01
-2.052359247699576117e-01 -5.232350864019249537e-01 5.855563564920227559e-01
4.425178425666668747e-01 1.596552236208649903e-02 -7.127021669884096022e-01
9.282117321699053791e-01 -2.169691232452139202e-03 -4.735198728386282030e-02
-2.739190682081177330e-01 -3.449847892482072464e-01 -1.900910344037669009e-01
-3.551619489326650059e-01 -3.427704959006117047e-01 -2.982072599890410181e-01
5.722921967785232766e-01 -2.492153874194125152e-01 4.750248638566379467e-01
-7.029205966402188865e-01 -5.539245783743671492e-01 9.492843049644636433e-02
-8.113520791770204021e-02 -1.063468997716345704e-01 -8.796987628117494129e-01
-9.692610835468196129e-02 -3.584468270766693609e-01 7.895790478032573001e-02
6.386799965228633358e-01 -9.565164617981820883e-02 -3.938527054891516332e-02
2.786721311207198681e-01 -3.217437386474878425e-01 3.966953940302470616e-01
-4.184626064274823976e-02 -1.044660302483817055e-01 -8.388647781809672743e-01
-1.057181409284778800e-01 -1.883013865278704568e-01 -5.918781430901881579e-01
3.834766093891561201e-01 -3.225533515468241297e-01 5.282262552325559524e-01
4.639669661924829547e-01 -8.059281864335485213e-02 -3.118358131999240945e-01
7.699730562865879646e-01 7.340859041124006036e-03 -2.780966395577994521e-01
-1.496716413147306801e-01 -4.587811770425090363e-01 4.035813049883095194e-01
3.044751551598215422e-01 -4.269808942833381860e-01 8.365642216817168464e-01
-5.202119590136273786e-01 -5.983164476811009269e-01 4.909690937193380567e-01
-7.328865288458710214e-01 -5.026794732274759703e-01 -1.405823627888948546e-01
-2.587626552333371355e-01 -4.872385692390472367e-01 3.803382223696262221e-01
4.935462744630997878e-01 -1.165347943995726915e-01 -1.361658993774103876e-01
5.390556488310966482e-02 -3.874412030807094509e-01 3.762145778826782583e-01
2.615553809883789382e-01 -4.197587689153740032e-01 7.559679867299834433e-01
-2.850504619934925432e-01 -3.707584325626237520e-01 -1.037407175418589844e-01
-7.575278014095429002e-01 -5.061078299828282168e-01 -1.574689591775351172e-01
7.786179153163530486e-01 3.294323860010920507e-02 -3.668286655555800801e-01
-2.711144667905079908e-01 -2.691878757767456332e-01 -4.807032495889225210e-01
4.688082791777576919e-01 -2.465017613549744802e-01 3.377252822440634517e-01
-3.900890335832035150e-01 -2.942091346456193746e-01 -5.293843137014840883e-01
4.701812984505470139e-01 -1.466195799828686787e-02 -5.599964090022480079e-01
5.956720672542469286e-01 -9.407697116184500497e-02 -9.818067407250587186e-02
7.261774791651328664e-01 1.662255447552512047e-02 -3.677557060312274251e-01
-4.891136560896787722e-01 -2.493563104970925315e-01 -8.246966639855595194e-01
4.640171782497008734e-02 -3.241322696380790069e-01 1.214201709117951611e-01
-7.094947311311135263e-02 -3.189894946855512115e-01 -4.229110822854439955e-02
3.601089459319277708e-01 -3.627661022190477313e-02 -6.109875283111646516e-01
1.380152312234432244e-01 -3.731358321134300438e-01 4.237560433842657570e-01
-2.800282220496286278e-01 -5.257641634081469117e-01 5.037438958213177331e-01
2.700834774650328618e-01 -1.573466593873221187e-01 -2.515912047969818821e-01
-7.465908416190807362e-01 -4.373571372168593152e-01 -4.107834411594690205e-01
1.451162141271019612e-01 -2.059650603833474147e-01 -2.160703846407475426e-01
-9.006873272200098535e-02 -2.983645508468865670e-01 -1.457258264560156724e-01
6.246200875561541688e-01 5.412315605271421359e-02 -6.376484576612715394e-01
4.151949520248548325e-02 -4.867272448112821559e-01 7.462132452203932287e-01
1.149169879118642768e-01 -2.262083506468913485e-01 -1.745335456983039268e-01
3.280795314801407403e-01 -8.899076870660274641e-02 -4.457246516674995829e-01
-1.406847258798804290e-01 -1.481516964831113004e-01 -7.904711906732849735e-01
9.978595905003424457e-03 -4.786099508864485319e-01 6.760838919957997684e-01
-6.138614365599738276e-01 -6.017484179464623884e-01 3.895584700638196618e-01
7.055394552828256338e-02 -8.113974773111012895e-02 -7.916620679317273312e-01
-2.350504254279415506e-01 -3.140077973935522238e-01 -2.626479859639209158e-01
1.216057491605137819e-01 -4.416470295123498535e-01 6.694373452751644082e-01
-6.158204179773944451e-03 -7.562794622842333725e-02 -9.070203666588106950e-01
2.357839353848064368e-01 -3.921463161923445240e-01 6.172765784364745434e-01
-1.933865693250940154e-01 -4.859227039855050778e-01 4.553219720335116572e-01
-2.807211875594877726e-01 -2.613525949322034747e-01 -5.228682354685787459e-01
6.734520334087360505e-01 1.065271569870161923e-02 -4.091871600226636430e-01
2.126127019125953477e-01 -1.545534812104084055e-01 -3.328313067095446387e-01
-4.835292217407569093e-01 -3.057089722737927340e-01 -5.992399121826873509e-01
-5.847169523094311039e-01 -3.818397446280831775e-01 -4.278561209216328320e-01
3.686498161388104822e-01 -2.546947932766755462e-01 2.468110211706572021e-01
1.365942151103356761e-01 -1.545810674801912643e-01 -4.258502330277213477e-01
3.644024798309051238e-01 -6.687383676926225706e-02 -4.870283060625207328e-01
-1.819840277880555857e-01 -1.706345431249965683e-01 -7.538442489294715498e-01
6.837634154303645628e-01 -2.144324059633147261e-01 4.766441904532277563e-01
1.858264014079543947e-01 -4.330111571284183669e-01 7.146082650456497820e-01
5.804989124237731613e-01 -2.423296577502027371e-01 4.583658172778460327e-01
5.913680281397143412e-01 8.027130732014958747e-02 -7.798233038384140281e-01
8.501879065337579755e-01 5.306104899348600829e-02 -3.571977331919415355e-01
2.178616705161030564e-01 -2.421590399422716700e-01 1.345756203925171576e-02
-2.194424780889407123e-01 -3.047799138196925495e-01 -2.793263985233020441e-01
-1.527536403467758264e-01 -4.341512502150945974e-01 3.042559204410408280e-01
6.243748803752010579e-01 5.067896341035100886e-03 -4.476429487035986088e-01
1.213195736076605746e-01 -4.317817516833638014e-01 6.308152232000175941e-01
6.181979504642520773e-01 -2.056478380182230892e-01 3.622446324511062743e-01
-2.028456493279055528e-01 -2.642312573040239143e-01 -4.162997848519161548e-01
7.288782911905603568e-01 -2.047840946186368360e-01 4.944820301956114328e-01
-1.829966079707922855e-01 -3.478375568198381895e-01 -6.763999495884759350e-02
-2.654504023524257850e-01 -5.435793610652704944e-01 5.907149708364120011e-01
4.484342422500839920e-01 -3.678552388477513424e-01 7.835471689783199967e-01
-7.806798735220897845e-01 -5.710736856102934800e-01 6.619851168207782632e-02
-2.663891822078181537e-01 -3.458001651272394894e-01 -1.777034127668094543e-01
4.034694210685451643e-01 -4.806473470488237254e-02 -5.121379925943884137e-01
-1.685707692840071048e-01 -3.873103473978712352e-01 1.031637705834336505e-01
-5.834554791838656440e-01 -5.279191773540027333e-01 1.403925408614448145e-01
6.981469910832031889e-02 -1.589843440283915943e-01 -4.905758839332649557e-01
-3.618884377898590743e-01 -2.776612815650522093e-01 -5.590334130329016604e-01
-1.229893740799655050e-01 -9.735554170363204529e-02 -9.658531763690745287e-01
-6.316099814356630482e-01 -4.482550345334426201e-01 -2.276493899629786211e-01
2.600096804345408685e-01 -3.386941698934533423e-02 -7.429519829273467657e-01
1.511398457226984515e-01 -4.705344734956973807e-01 8.176843893736540636e-01
-3.903218132972650217e-03 -2.264305186461273156e-01 -3.192315713632842278e-01
5.130586825303408149e-01 -2.006095208246728989e-01 2.138987243018704021e-01
-4.225474754718070991e-01 -5.792333842275043665e-01 5.365811282678496497e-01
6.032250145055568780e-01 -2.580832216514942212e-01 5.473209509739092038e-01
-3.490307643680370941e-01 -3.112380434768649562e-01 -4.130238826368157756e-01
-4.631553995182047800e-01 -5.222807576486554471e-01 2.658915670540589193e-01
3.714566103931201541e-02 -5.025315851289832159e-01 8.021667640514795750e-01
-2.570592181311539548e-01 -4.426932904443093286e-01 2.096152132493233622e-01
2.521229572821701015e-02 -4.027368527381784968e-01 4.004023094249549164e-01
-1.036687098736242124e-01 -5.323134525212572798e-01 7.451993865575340381e-01
-4.863404010812224509e-01 -3.575749084327811689e-01 -4.014740393221583603e-01
2.329467550676764531e-01 -8.448279400257403815e-02 -5.797547528480795354e-01
9.234496660477563290e-02 -3.251666047140265303e-01 1.817152632618458941e-01
-1.810046326530418415e-01 -1.197502904498058962e-01 -9.500457755332069043e-01
7.505379417438494405e-02 -3.228151272769624325e-01 1.514104608612850955e-01
6.268216963359125593e-01 -1.754472308057873284e-02 -3.569216713237786109e-01
-6.315295881259470889e-02 -8.667851932406822613e-02 -9.339716128794421923e-01
4.402958963746499976e-01 -3.615815934326877534e-01 7.492392439564011797e-01
-4.322615301323586012e-02 -5.125766339795253534e-01 7.426767559442214450e-01
6.668734221011758390e-01 -3.745734676019560339e-02 -2.306071619698639164e-01
2.175419919465665028e-02 -5.669796270970851176e-02 -9.462637958939367211e-01
-3.592081864477223441e-01 -4.238438604412709254e-01 1.135346074874663165e-02
-6.701392629217310937e-01 -4.041338325740898574e-01 -4.460140535154737407e-01
-2.265469641284326152e-02 -1.149847995763183250e-01 -7.745475673840908071e-01
4.005863538135081003e-01 -1.037833455521957188e-01 -2.995140468044413806e-01
2.780935006968287757e-02 -3.405649086798423486e-01 1.623928030089153152e-01
7.992390612240606318e-01 9.074355329703047424e-02 -5.657984964046685050e-01
-7.750818691382291847e-01 -4.557051704157141780e-01 -3.745064806408047176e-01
4.097112559964865564e-01 -2.322824850967325494e-01 2.101663363311302435e-01
-3.615470610359061004e-02 -3.506259043674235243e-01 1.230648747476491556e-01
8.170374425255534645e-02 -4.252320472384153449e-01 5.568750664094059832e-01
-4.020011520410814998e-01 -5.535748770460562351e-01 4.622111700473686691e-01
-2.430826828298827402e-01 -1.922138286943231578e-01 -7.449776657721115525e-01
4.564384723960129286e-01 -1.606908502215328716e-01 -1.032473257618291007e-02
-6.240422107760004167e-01 -5.450579856396039480e-01 1.571606491181720411e-01
5.199081114433150574e-01 5.165305196655793629e-02 -7.563426038678207064e-01
2.638572067569238122e-01 -3.918919392907577182e-02 -7.176009533776332994e-01
-4.548888992871129577e-01 -3.574108307769328086e-01 -3.635811107935361108e-01
8.955457266618290779e-01 6.255685012707905279e-02 -3.384706250716518761e-01
5.871267580860530799e-01 -2.704483740738883313e-01 5.755694934895509984e-01
7.895085942666740797e-01 -1.101990435529709295e-01 2.018217539558702089e-01
-3.608410508251642113e-01 -3.167720442352262578e-01 -4.060232892669554672e-01
2.749382402002650272e-01 -2.664048967856190719e-01 1.774386702992197529e-01
-5.510362100750002545e-01 -3.663620072127787841e-01 -4.466403761964639618e-01
4.591598841346004600e-01 -1.195240892513129392e-02 -5.840095954968969050e-01
7.528263672582140575e-01 -2.256832709216806225e-03 -2.618686115341909981e-01
-1.967206500667938451e-01 -1.273539201540914156e-01 -9.398009145564725220e-01
9.142761643024710505e-01 7.637460402752620225e-02 -3.691298809039637585e-01
4.083682418800680392e-01 -9.132065925225815728e-02 -3.383288761870976713e-01
-7.740641076754967154e-01 -5.394966248603589865e-01 -4.819753224852352941e-02
-1.277807978314066117e-01 -2.719788208339760649e-01 -2.942860406002121842e-01
-6.310116653452023661e-01 -3.555485375913861046e-01 -5.865637569894732728e-01
9.343451224974191893e-01 -8.324974892729203324e-02 2.747051848353531112e-01
-2.617505810236847030e-01 -1.899172974477719156e-01 -7.767558576869987297e-01
3.750807547528283159e-01 -2.056515341958237708e-01 6.442985710996754212e-02
-2.815703065347428535e-01 -3.745833525227769689e-01 -8.463890956102960994e-02
-7.311213645122860427e-01 -4.569922057497884937e-01 -3.156600057761667077e-01
-5.912156592062044469e-01 -5.421977627064229477e-01 1.862785965237039043e-01
6.799564576653861492e-01 -1.155424121394696690e-01 8.834479753675603120e-02
-5.986575772005074958e-01 -5.527852439620963843e-01 2.182351982323470496e-01
2.543122570702365248e-01 -2.224965256994114460e-01 -1.816801578943323323e-02
9.108517020609445680e-01 -9.779743398974870272e-02 3.023612887589106069e-01
2.388880220074533073e-02 -4.003639928589444175e-01 3.895756551191527639e-01
5.890625076506699198e-01 3.036995928939547479e-02 -5.890594371269937124e-01
2.804199110565594802e-02 -6.802130352472003649e-02 -8.946329963431249865e-01
5.200922056300572027e-01 -1.269871957045830835e-01 -6.309673931172199435e-02
2.570768629905944014e-01 -2.768382140407101358e-02 -7.705413275685836227e-01
7.888614392102905049e-01 -1.751644703239832734e-01 4.530570610542334897e-01
-5.268176334034514463e-01 -4.109647936103572041e-01 -2.439386792885588073e-01
-7.434573518530668279e-02 -4.975059749428980549e-01 6.460885189114838889e-01
3.109359072992527451e-01 -1.441801537332604022e-01 -2.526235955375799591e-01
7.883049904884971149e-01 -7.980683164047452927e-02 8.244316782250889208e-02
2.719365971878909827e-01 -3.081739431512331984e-01 3.358011524753473087e-01
-8.049572242254747767e-01 -5.524997741786269456e-01 -3.559827821457776237e-02
3.388177083357636898e-01 -3.802118278032389775e-01 6.971985422374128438e-01
4.579763449501839667e-01 -3.560896660397269708e-01 7.495930741123990604e-01
2.354777811291869916e-01 -1.639200007013885130e-01 -2.684839403667495517e-01
4.202673023043025924e-01 4.198302289948429439e-02 -8.408928259087947721e-01
-9.670203223211520926e-02 -4.277784304963688777e-01 3.481987357984903664e-01
-5.317642865703370303e-01 -4.409378233790252621e-01 -1.337206078951101440e-01
-3.251436105506342877e-01 -1.844203852596161264e-01 -8.757398943467309405e-01
5.462647529587714157e-01 -3.237381083859782738e-01 7.322449629867341381e-01
-3.557283850105602552e-01 -3.195360652268186552e-01 -3.890372566992663095e-01
-3.285865649058948845e-01 -2.404764977160610273e-01 -6.624925244510987410e-01
-7.539059874658715632e-01 -5.127853376521269713e-01 -1.271272309233620057e-01
-3.993696771524066214e-01 -3.540403080807003056e-01 -3.086433237514026318e-01
1.537188962114656998e-01 -8.683608079689687786e-02 -6.676829327816780069e-01
-6.681590201880871494e-01 -3.763035218768366330e-01 -5.515536016914960316e-01
-7.519373158410156410e-01 -5.329548536442937356e-01 -4.646952255887810274e-02
6.604267407620406649e-01 -6.405840107123378369e-02 -1.353079952738661940e-01
-3.568682041256659443e-01 -1.957131614708228218e-01 -8.707944893922543450e-01
-8.658864965421826654e-02 -5.203037189663600737e-01 7.195324149485646803e-01
4.555685237484092404e-02 -3.483466528852863231e-01 2.143229084783813132e-01
2.942164040968869299e-01 -4.007884875470912878e-01 7.223854904900143259e-01
-4.388479857476520335e-02 -4.226751488880716723e-01 3.931043721512128553e-01
6.403722129515746486e-01 -4.334802573997048603e-02 -2.402198821738200096e-01
-1.343243335998133003e-01 -5.030780791947915276e-01 5.942286593702393871e-01
-3.897465508673481072e-01 -5.585081627591228504e-01 4.963618697556643755e-01
9.221427168761044957e-01 6.483226164134514580e-02 -3.147154322143586036e-01
-7.846125796467431357e-01 -5.546642161906110147e-01 -2.278428683128626460e-03
-9.288367944611965318e-04 -4.506492170506692929e-01 5.542504161977794830e-01
7.978658178123488875e-01 -7.951380663975141094e-02 9.301882946201950331e-02
-6.123749192249762496e-02 -1.982063846288355247e-01 -4.989617817273321321e-01
-7.808540169791117203e-02 -4.806667184859439446e-01 5.761807365209588028e-01
8.970210971647093467e-01 -1.613098517598464399e-02 -3.140016196360281148e-02
4.012846053137446301e-02 -4.581259240552863488e-01 6.335526649907744501e-01
-8.041611273573266716e-02 -2.365710268147671880e-01 -3.736239090175298427e-01
1.823915185458387378e-01 -3.645698969548804014e-01 4.448880708017909358e-01
2.157104248269678115e-01 -5.094392194421603487e-02 -7.309813372398374920e-01
8.556963041707997819e-01 -1.151058745381007553e-01 3.019402232154110854e-01
7.269528057282779177e-01 -1.387148549757840077e-01 2.358129743835787884e-01
7.411930909702890702e-02 -3.460917494182194076e-01 2.405654424001447411e-01
3.655764904552673555e-01 -1.103369246147521271e-01 -3.169785705654090679e-01
-5.065514225934002468e-01 -6.215331981606595502e-01 5.977713426644053474e-01
5.501193314955240554e-01 -1.092388371226677840e-01 -9.516552369726630212e-02
-8.053716660404500738e-01 -5.294167067113828562e-01 -1.256548740830749911e-01
-2.395004653499078484e-01 -2.339604171193171989e-01 -5.786367925563514758e-01
-2.453240435015563436e-01 -3.601348711849400308e-01 -9.628737512026494527e-02
2.332672498888049839e-01 -2.457946747171033952e-01 4.643421528333276788e-02
4.952929917583646091e-01 -1.149090528033026581e-01 -1.403330274617246853e-01
7.673232176190022402e-01 7.523577123973576239e-03 -2.820516468821600009e-01
7.988788843159264630e-01 -6.158657305656149022e-02 2.471263229862396410e-02
7.605701906232974485e-01 4.805138081715053938e-02 -4.475487229037645176e-01
4.661056804268139397e-01 -1.038834981739796409e-01 -2.188614946474564393e-01
-5.632895880322043025e-01 -4.784401434728685065e-01 -2.685326330533973141e-02
3.681685436696404135e-01 -1.221806250822104686e-02 -6.944473544520196606e-01
5.870516726668544294e-01 -3.516927341806728308e-02 -3.372686635575855574e-01
5.303281293737028834e-01 -1.362436683901663281e-01 -1.464755409124209561e-02
3.306989184416573302e-01 -9.615685944563605314e-02 -4.147155216025817381e-01
-4.404680339760601582e-01 -4.458343165645063388e-01 -2.883188956574137245e-03
-8.366813391260327637e-02 -1.517653209667769731e-01 -7.066046285069196298e-01
3.381236707065295999e-01 -2.987491845797459189e-01 3.803206036989391081e-01
1.578840929411599037e-01 -4.349275641024588079e-01 6.878122699768858261e-01
-6.027488624791965677e-01 -3.968218067133182370e-01 -3.918242995264510919e-01
4.884476303052721624e-01 -3.512538721902673244e-01 7.681616511835452910e-01
-1.736345820375282678e-01 -1.794739658812817551e-01 -7.093239924608607527e-01
-8.677923725421536616e-02 -2.167377154522896754e-01 -4.583607342935277495e-01
-9.658609768657026862e-02 -9.502091218452103638e-02 -9.425650227914700308e-01
2.624420505904409562e-01 3.078404921341193305e-03 -8.833083001054928829e-01
-7.601587989789017064e-01 -4.395402169459146635e-01 -4.189356970660148005e-01
-5.425235731712992754e-02 -3.357777160474935685e-01 4.329212528963093110e-02
2.073472314170200226e-01 -2.213371270520488876e-01 -8.020000312180594615e-02
3.466943163847669429e-01 -8.029326521539147110e-02 -4.566619912515036961e-01
1.472600155512939768e-01 -2.503738455904017668e-01 -4.116385717659555576e-02
5.374561584173855877e-01 -9.087508045941450341e-02 -1.819191636610201779e-01
-3.379345322679738750e-01 -4.624722344162799925e-01 1.872702517451776405e-01
-1.151793526614028479e-01 -1.906817282037019112e-01 -5.942341956878436360e-01
-3.882595763177261183e-01 -4.660254800618873205e-01 1.394044170998174903e-01
-6.700423451873825931e-01 -4.982624190487691118e-01 -8.073111396981663690e-02
6.823071400736925307e-01 -2.636016330672833474e-01 6.656082155916309695e-01
1.807536256833381094e-01 -4.284614561555764034e-01 6.907436990197639570e-01
6.665392912216332455e-01 3.867799704460594349e-03 -3.913340382774066484e-01
8.681927240620583852e-01 -1.352983963680481350e-01 3.955841293185290986e-01
-7.779292378071087644e-01 1.039337066887089100e-01 -1.528153244729267002e-01
-1.669856492228696254e-01 3.917063409610690439e-01 -5.207734947891785593e-01
-4.597264635293115548e-02 2.314427869050490749e-01 2.492021347450979474e-01
-8.059333218992511538e-01 1.326209128407878912e-01 -2.984112304898384749e-01
-2.601228243588042943e-01 3.126577720624473256e-01 -3.282080689186115396e-01
5.270786571574050949e-01 3.347127801499781286e-01 5.505872913316628425e-01
7.348128592442165763e-01 5.120933414325502531e-01 1.169372130357332895e-01
-4.602199134469669439e-01 3.467054731784350863e-01 -7.054209788279161009e-01
-3.160189881470051310e-01 3.878147057029200373e-01 -6.882485188814866373e-01
-4.557407457064521772e-01 7.648953128536443991e-02 3.483470100392152546e-01
4.047016129350606284e-01 5.267743671608242639e-01 -3.444172359540633166e-01
-6.660296829625281800e-01 1.436425419922923163e-01 -1.697807176390751793e-01
6.494758921971638399e-01 4.331194514593124656e-01 3.187685214610299633e-01
2.133212004620915758e-01 4.387631987479865825e-01 -2.374343615525771056e-01
6.489342433255068654e-01 5.028731617710697765e-01 4.750112061806766039e-02
-3.189373579982264784e-01 2.868261427772698657e-01 -3.000467156314788331e-01
-2.314776417701748801e-01 1.305393668512749850e-01 4.133970938112072058e-01
-1.833775572302319135e-01 3.401735847032936189e-01 -3.409371482395185948e-01
4.962402958088016347e-01 5.919850908132973100e-01 -4.852580867501175566e-01
-6.925219489579926835e-01 2.041082620197143815e-01 -4.368067461052171363e-01
-1.924309089917136950e-01 9.498021004706733161e-02 5.991798984248484228e-01
-7.797442952255431541e-03 1.417784916178904397e-01 6.438137712580312977e-01
1.786789090537240499e-01 2.787922162010816329e-01 3.407217706981075511e-01
-7.421989179837075457e-02 4.592557809317977524e-01 -6.691839861445825210e-01
5.306250835815061739e-01 5.407083999070091407e-01 -2.442114692573050805e-01
5.635662993935857124e-01 4.546519094425922058e-01 1.299921193645290352e-01
-3.470749739805044087e-01 1.042159469474165656e-01 3.739049166538392366e-01
1.212475903220280316e-01 1.246427370974754478e-01 8.683763054948636650e-01
1.977733399469863151e-01 5.724740645386879878e-01 -7.752016163102863899e-01
1.879985171171415781e-01 3.773720733678923578e-01 -3.029385948765019737e-02
3.759596823227800422e-01 4.303826859390279536e-01 -5.683644657512629261e-03
2.882586104193458065e-01 3.840485272549754581e-01 6.662834445786612603e-02
-1.472582485261144693e-02 3.278075840861376933e-01 -8.635856206471892449e-02
-9.361433598414131696e-01 -7.028995733569108617e-02 3.292520740405701640e-01
-3.210160892852481074e-01 1.646584704044802561e-02 7.462475713792653398e-01
3.186721436732471435e-01 2.787537521576042843e-01 5.123687759860675595e-01
-1.191181833835335963e-01 3.687716423939673138e-01 -3.731604704611631851e-01
-6.132873723837102276e-01 9.551508395022909048e-02 8.153746859785496182e-02
-7.544728192407333667e-02 2.989906668808181567e-01 -4.895209054918406300e-02
7.380839320324207309e-01 4.329210435165503079e-01 4.280869227490655127e-01
-9.816927863296689427e-01 -2.837603528889261553e-02 1.108503914973242854e-01
-2.686521292121517024e-01 3.348123608403236751e-01 -4.246037664246176679e-01
-2.498058848074022897e-01 5.609354102428334293e-02 6.797507395396543695e-01
-8.245155108449572223e-01 -1.857130242916905927e-02 2.653627090689255064e-01
5.069389873516635392e-01 4.425166956678284746e-01 1.076987817400963804e-01
-3.289600117128907986e-01 2.121066486694714315e-01 -2.245668869476896354e-02
-2.577140123700955021e-01 4.564302867055067270e-02 7.106048545589717103e-01
-9.313736077620940468e-02 3.698952888477011203e-01 -3.456919305925360564e-01
-3.198469836553974321e-01 1.717381618156883782e-02 7.449332676875706216e-01
-7.197389207838231773e-01 1.502641959517702352e-01 -2.612650336595570555e-01
2.968635757473485071e-01 2.740956948417154759e-01 5.037228892123981616e-01
-1.581242348018589705e-01 3.718961605928773340e-01 -4.330658907888331743e-01
2.487255940810811361e-01 2.137303222345935949e-01 6.789343361808359845e-01
-3.369234414059988914e-01 1.581316800427635672e-01 1.771792741866844434e-01
-7.450072648870581515e-01 1.292632481288849729e-02 2.405712721538552090e-01
3.759035636959247584e-01 5.199850444805909078e-01 -3.533574696388508962e-01
2.399715463858786701e-01 3.169646282663095560e-01 2.677211368334720953e-01
3.059627021061629981e-01 1.698115425047067306e-01 9.194316184254828217e-01
-7.409204727111022848e-01 1.214610829572326939e-01 -1.754740148975113267e-01
7.110096966724853695e-01 3.947385347135072275e-01 5.430457533480077537e-01
-5.011038269989208649e-01 1.346043181476344330e-01 6.732366836709981206e-02
2.742915683134363736e-01 4.927703500999577879e-01 -3.722593753238194192e-01
6.863544240631492821e-01 4.455334035821272853e-01 3.157874036116163907e-01
-3.479022438156996744e-01 3.399797892119624243e-03 7.639995425470912371e-01
-4.684386501748378784e-01 1.591865814922349687e-01 1.197503203825852139e-02
-1.763295836421074347e-01 4.365698238594539760e-02 8.180090166358767734e-01
5.897144323435693503e-01 5.998449623399007002e-01 -4.012399469869392665e-01
3.286749689785222195e-01 3.010340808255133060e-01 4.381879443939925012e-01
-3.641416991827602923e-01 2.276089658503997193e-01 -1.256957637192857025e-01
-1.895447039172785120e-01 1.931111734232896504e-01 2.220245174374371189e-01
1.724254458707153159e-01 3.584910451404050846e-01 2.387586896772765990e-02
-1.093070016689382112e-01 4.788935521319545030e-01 -7.883503577121028227e-01
-7.683490335625907663e-01 -7.448637751681812247e-02 5.510870763356628954e-01
-6.245246220701955453e-01 2.421531829819895121e-01 -5.010992529408726526e-01
-4.714766198744743675e-01 -3.390949747415840376e-02 7.573539526949599754e-01
7.219723392271717444e-01 4.641660766689421624e-01 2.871369523738303564e-01
4.211434396277233261e-01 4.328801639502548593e-01 3.997965547327565067e-02
3.376053471110802562e-01 5.376766613927580485e-01 -4.689076386741206082e-01
5.865574171942877779e-01 5.244593556978137672e-01 -1.126550853755290404e-01
-2.194584701203915467e-01 2.112627322760219362e-01 1.149613565208966598e-01
7.028215940189302957e-01 4.428118926767851127e-01 3.465182820304993916e-01
