5.500001214811220951e-01 7.371129378982398395e-01 -2.541002042439382547e-01
-5.185594674568252405e-01 -1.820936555320205597e-01 4.238182856215636507e-01
-6.501897195746115798e-01 1.458071781311286452e-01 -4.955780939656102002e-01
-2.729545892312963962e-01 4.616255952972807552e-01 -7.151471928664187017e-01
8.906286406952322598e-02 5.423225063566382564e-01 -4.202800598197936610e-01
9.248354294678957921e-02 6.589590619460983234e-02 6.673842462435718437e-01
1.012827155627688269e-01 2.588850842596800983e-01 2.402541662529198152e-01
-2.264178951087530145e-01 2.155236514373849721e-02 3.468373000862263744e-01
2.003818570335565152e-01 2.147422440522404052e-01 4.715504666548762658e-01
-5.246344319797543454e-01 -1.006798480077712027e-01 2.306991375252359922e-01
4.313531820207998635e-01 7.125943596256180124e-01 -3.551246835219614706e-01
-1.653933060362278162e-01 2.297865423482700342e-01 -4.594706046072988964e-02
-6.869106839586776037e-01 -1.880745610274691948e-01 2.149751353357696182e-01
-3.902779185010284979e-01 -2.996606485236794626e-01 8.606010515463304866e-01
-9.730299776598413386e-01 -2.391514861654095159e-01 -4.694893726389056526e-02
-5.846716967724477909e-01 -3.122582009491905314e-02 -6.529524209428402663e-03
-2.530666048261653867e-01 2.557770267201181502e-01 -2.208775700809039733e-01
2.773541863804858676e-01 8.875287472318850457e-02 8.596870023963816276e-01
-6.048394226695341658e-01 -3.585482243726388352e-01 7.109828231036615653e-01
3.861400596851951583e-01 2.824225440114982444e-01 5.631211616949457488e-01
-1.652297356336681622e-01 -1.385194553312745491e-01 7.916040331588359846e-01
-7.967873635287765488e-01 -5.968991644986001294e-02 -2.220831554399369523e-01
-7.051312809262717807e-02 3.286519242141427988e-01 -1.453510384614148110e-01
1.830084455358384488e-01 1.756642494801201604e-01 5.374380663922412316e-01
-6.559835310867091485e-01 6.352876927432348289e-03 -1.861873392967390572e-01
-7.969494452135840179e-01 -2.316800443524395237e-01 1.687181735102551705e-01
-6.036918347632937998e-01 1.760206226156509346e-01 -5.028305049036004837e-01
-7.657041359793864688e-01 5.126904898473903793e-02 -4.332758133149559598e-01
-2.247891895902322523e-01 1.259764438105882012e-01 1.115836189648960336e-01
6.632157767150294037e-01 5.282017698267263972e-01 3.704449836117910122e-01
3.808273129352249819e-01 3.893801882172355233e-01 3.129358152911861923e-01
-4.473487784490989272e-01 2.678525289138675158e-01 -5.050338223325298026e-01
1.720599303750710296e-01 3.832575237299120086e-01 5.101351823042225148e-02
-3.332111257503980739e-01 3.543097510816963780e-01 -5.507834548332343205e-01
4.536618280508535883e-01 7.638274578689816519e-01 -4.421257530927767410e-01
-5.640421023646386978e-01 -1.875490619946783288e-01 3.761253214600905892e-01
-2.544525832021465317e-01 3.515716151492742636e-01 -4.404955777950499973e-01
-2.398471668903060794e-01 1.394852966739364708e-01 6.097562306710623686e-02
-2.609769369480535728e-01 2.910613841353575371e-01 -3.115475558724165595e-01
-4.042859125485624427e-01 9.563688624679278494e-02 -5.660714649729817194e-02
-5.770660267077477590e-01 -1.528082566407428788e-01 2.799345556626808285e-01
3.554640788302296794e-01 2.207061370539191159e-01 6.629001187307381748e-01
2.353766178268084375e-01 5.915231665180483711e-01 -3.388138543793208779e-01
3.256445483176735878e-01 3.659412476935920977e-01 2.933113163128791001e-01
-4.172751474967424379e-01 4.612713927328369184e-02 3.878955936753509387e-02
3.218424491991266345e-01 3.442400421344790074e-01 3.376248221519057013e-01
4.679513297805766858e-01 2.397890825267979809e-01 7.681436523540599026e-01
2.310214594420190171e-01 5.133873190304807377e-01 -1.669282767088703101e-01
-8.935217494879622580e-01 -1.697672090416846649e-02 -4.470046672745230931e-01
3.953570536009384240e-01 5.542237198171624524e-01 -4.263406743867725196e-02
9.719104392273707205e-02 6.019265291141585594e-01 -5.450487210480653433e-01
4.478728055536319586e-01 5.111458160167192677e-01 1.246910087173062343e-01
4.390852337687563556e-01 3.318162014829835749e-01 5.207817223191171241e-01
-2.138693186504459498e-01 3.421708547555689095e-01 -3.655009536299710371e-01
-8.726542676359482220e-01 -8.851126114516036369e-02 -2.568006102788655265e-01
1.754856916437695924e-01 4.694360828639237426e-01 -1.403849761532992291e-01
-1.229543635330717505e-01 2.936086870005775729e-01 -1.349710913964098646e-01
3.936607527374467175e-01 2.325942527341162691e-01 6.863416111572773204e-01
5.521938326217731285e-01 5.079179162050285745e-01 2.698677799634433550e-01
2.077008784226938021e-01 5.492079281458654982e-01 -2.791788092060492055e-01
1.747733884641641811e-01 2.762682272107983006e-01 2.978364141065315551e-01
4.471501006159213643e-01 5.049990064510315735e-01 1.377107327740706155e-01
1.273266338569217504e-01 -8.257206643558966108e-03 8.820073834997577134e-01
-1.035586399724890416e-01 2.206787302949629326e-01 5.646079398285978185e-02
-1.973381004683635864e-01 -1.611978264545058936e-01 8.007383464655457583e-01
-8.431944636170484175e-01 -1.468371305373975255e-01 -8.527321378350087577e-02
-4.250171125727332244e-01 3.734929245062945102e-01 -7.156981790239590469e-01
-5.894393866086934386e-01 5.661521792241774181e-02 -2.125335411713378531e-01
-4.280324190559010866e-02 7.069584297607844903e-02 4.777187734224269677e-01
-4.155876772830064403e-01 -3.301758872867485706e-02 2.209528612404116910e-01
3.353431306716569971e-01 5.155474850277226295e-01 -3.400029444871364298e-02
-3.287801093327225588e-01 2.088069767070997729e-01 -2.141316876714449424e-01
-2.254919147926330303e-01 -1.991204195349450812e-01 8.497551414228932121e-01
3.742552335398371260e-02 2.064780264383017094e-01 2.750265713458165950e-01
4.924819034462257772e-01 3.313339823703181919e-01 5.924304641843175512e-01
3.869512783024521285e-01 5.205927004404266034e-01 2.271880146108368886e-02
-2.635510419119333481e-01 -1.895290071097435469e-01 7.776621892033342975e-01
-8.463166350824059547e-01 -3.313997983787814183e-01 3.302003533560830539e-01
-1.459901723077261515e-01 4.586587239250438652e-01 -5.406454034244757567e-01
-2.988112661407461568e-01 -1.135877567110546438e-02 3.260074407140465813e-01
-3.788643975817744258e-01 -1.200692567159731133e-01 4.673848310084027791e-01
-8.063778834970106724e-01 -1.152545169361468558e-01 -1.084301989478167888e-01
9.315333089680245815e-02 5.744762333248590869e-01 -4.879761086671710046e-01
-7.287784032158838299e-01 -2.282963978974291708e-01 2.510991759703801729e-01
7.073604391215881915e-02 3.477305640313244073e-01 -2.094908362988770478e-03
-5.803984655044120977e-01 -2.743758790828031424e-01 5.519125539527452995e-01
1.579268114440643411e-01 3.218992736803920063e-01 1.718361142120933827e-01
-5.739186216777455440e-01 -2.403586102153154047e-01 4.831368440577321621e-01
-1.928879347131074729e-01 2.437501234881574441e-01 -1.140212800269274351e-01
-2.514595608130153481e-01 2.813229078175465969e-01 -2.768321567672961114e-01
-4.802173714722698938e-01 2.494514963992792989e-01 -5.066284182141962411e-01
1.536693252958720446e-01 -3.618269927938620040e-02 9.803016365354859651e-01
3.760047567778067590e-01 3.927262128629651627e-01 2.989567174147171325e-01
-3.274580265771527832e-01 1.399148737213652960e-01 -5.576026854801067328e-02
3.068344536620648544e-02 1.359321839501851925e-01 4.265026418360392535e-01
3.778574316497318453e-01 4.202048921512079316e-01 2.389325091133114587e-01
5.710798593867416617e-03 1.637911133810459330e-01 3.301699435124356152e-01
-5.258548514357874737e-01 -4.867779164646730632e-04 1.300037008006213511e-03
-3.084463683889289154e-01 -1.279183935291461627e-01 5.782722196969859452e-01
-5.300895378893313303e-01 -6.393357999583776374e-02 1.399495957835547588e-01
-3.814372607857318687e-01 -5.423510432490150773e-02 3.143129478458408510e-01
2.568663338758668188e-02 9.083998703829861132e-02 5.224164521067062861e-01
-8.676063148319463902e-01 -2.832527413292070251e-01 1.926093405324443286e-01
-5.469256221926627193e-01 1.899341519169083781e-01 -4.594580166883876493e-01
5.243890733750505156e-02 9.570001208427927897e-02 5.467147833880496854e-01
-1.386127557622092998e-01 5.203707611285764978e-01 -6.711985608517532231e-01
-3.108986293717628246e-01 -9.227706626641450638e-02 4.940023603370968797e-01
1.617972137094269430e-02 1.107246625663274933e-02 6.912046453947875424e-01
-7.277638539620391589e-02 4.971256253840977690e-01 -5.313624279881029588e-01
4.977637261994489748e-01 7.694498824019302408e-01 -3.966368527460205073e-01
-3.412150655158549539e-01 -2.595519091388649446e-01 8.342409858558733626e-01
5.529807801881789775e-01 3.737462134474303088e-01 5.759437561461464572e-01
-2.076621432035823667e-01 3.967903210554377114e-01 -4.814755455515035143e-01
6.975397554039882708e-01 4.739978219308380036e-01 5.390282692363238537e-01
-6.620221327998476735e-01 -2.287134957926901802e-01 3.402517587490045403e-01
-7.377265109893402784e-01 -1.569931025469416541e-01 7.716978568980510655e-02
-2.400626734945197904e-01 1.440302811478054168e-01 5.035796193284618888e-02
-5.505208103530678798e-01 2.708630661279147200e-01 -6.481982702747376424e-01
-8.455364658212015661e-01 -1.732162718708879501e-02 -3.828181072676624108e-01
-9.135759158692992321e-02 -1.227131801757694873e-01 8.532752862280660322e-01
6.834789524097572011e-01 5.029299914132615568e-01 4.546732833576037081e-01
-2.475256496761778502e-01 1.639914346715487248e-01 -4.883995982909496332e-03
-1.574709087835061139e-01 2.077893346363382243e-01 1.453084644097396051e-02
5.855856877045492181e-01 5.777221126334792789e-01 1.552898794921999115e-01
-3.924165525841653568e-01 1.790934733976650983e-01 -2.306608685724682306e-01
-5.941269568791451849e-01 1.173512441330871181e-01 -3.568090941291225948e-01
1.244841535010846045e-01 3.742745070353785675e-01 8.574847158762806745e-03
2.278588518465087254e-01 2.361824668197139987e-01 4.591116764304501996e-01
-2.139733214704705178e-01 4.329976489944528661e-01 -5.721309387135498081e-01
-3.232622354972131684e-01 3.209196817285046022e-01 -4.617265638469259526e-01
-2.861365839654601562e-01 -6.252904038077372606e-02 4.590887437503370916e-01
1.451225415711200339e-01 6.862818128511515015e-02 7.307238092388934625e-01
6.522764100603230253e-02 6.406642575850067522e-02 6.355306054235601021e-01
4.009173557854994741e-01 3.829959022920335077e-01 3.539950893231019746e-01
3.578808677620036183e-01 2.324143702010791901e-01 6.394750041856757106e-01
5.054455179130837861e-01 6.600870152510498468e-01 -1.378530960289069685e-01
1.603881883183584933e-01 2.998054027206391026e-01 2.253181969905966864e-01
2.687935924071047089e-01 4.396185260381212934e-01 5.069122929239722186e-02
-5.253976475985836503e-01 -2.756685567832279915e-01 6.275233975215300797e-01
-4.437740806422589279e-01 2.344066084265792049e-01 -4.242721049815157963e-01
3.696606988691219509e-01 7.157328840030309225e-01 -4.437736389894244016e-01
3.206084028625819649e-01 6.178667253091589817e-01 -2.860894984952312425e-01
-3.509774415299929951e-01 3.471865683090464283e-01 -5.580635035947500988e-01
-4.144387057985987055e-01 3.796332462500704441e-01 -7.156809235147326698e-01
-4.863113209277474674e-02 -4.826022477922978227e-02 7.404622516558841960e-01
-4.834983132028661812e-01 -2.457101815416783130e-01 6.147748667492439756e-01
-5.803702945192557028e-02 4.929311084133246035e-01 -5.023513451885138759e-01
2.653959100218897249e-01 4.412511563095697364e-02 9.453468185077102959e-01
-1.000609850942246609e-01 3.816714271570644246e-01 -3.049308798386444752e-01
2.334148586138300521e-02 3.025591199567480571e-01 3.797939624773692679e-02
-4.941449675735716807e-01 2.780283716439713171e-02 -2.111781514236722029e-02
-2.019317712922423513e-01 5.411207086235148012e-01 -8.020357892201831485e-01
-2.715862728558767758e-01 4.283654931524054632e-01 -6.377231964628947702e-01
-4.787549491508640842e-01 -9.733138747157465964e-02 2.837065441520844056e-01
-3.963551305222250132e-02 3.470132016174118927e-01 -1.462967174278172466e-01
-5.187121565433514547e-01 2.711816663914471959e-01 -6.068941785272403688e-01
-1.702074543624540748e-01 -6.067487448928430768e-03 4.839006140058527139e-01
-8.229089179838503521e-01 -1.836712774824905969e-01 2.527141435041002637e-02
-4.941791046513459990e-02 4.005879808231173067e-01 -2.810230834524309884e-01
-3.729198628735929527e-02 3.816747507361890057e-01 -2.220024531396419532e-01
-6.294574664291836819e-02 3.554061727050101260e-01 -1.961774919939328621e-01
6.451104621170530296e-01 6.897802427521348978e-01 -2.082220248174427094e-02
2.259467275173122625e-01 5.673411324935674349e-01 -2.962961818891743926e-01
5.623046155720821115e-01 5.057984627704126268e-01 2.880455726971589137e-01
-1.584637996234420920e-01 2.318396542404937977e-01 -4.145888170221134067e-02
1.371900958324743514e-01 3.820492521283010423e-01 7.687369025174113114e-03
-3.107698931111029308e-02 2.165892131476326310e-01 1.615274165174407917e-01
3.675148145182350889e-01 7.260583055380833706e-01 -4.700835737219731247e-01
-7.863478595608937027e-01 -2.932146430860341768e-01 3.226233852108319478e-01
2.443024093091046567e-01 3.362008675787194201e-01 2.534488995302691117e-01
-6.585366798419252099e-01 -3.305803661504856383e-01 5.764489682363764800e-01
1.060838888461283908e-01 3.851074235903967358e-01 -4.036559812399946601e-02
2.464720812648014403e-01 2.540641604001038778e-01 4.430515230767561041e-01
6.203988647614876450e-01 5.901517102777086299e-01 1.730297485811643776e-01
1.773784061537515278e-01 6.614870182762749851e-01 -5.745074102629592616e-01
-1.145380199485727113e-01 3.412890431872176444e-01 -2.322508313003474323e-01
-4.574328276500334578e-01 -7.824585307446003946e-02 2.684887162900838620e-01
2.239904115300927201e-01 2.349936958317244973e-01 4.567029918036376590e-01
2.346018683166277152e-01 1.160640090386458462e-01 7.411076205873978751e-01
-6.999783425346844945e-02 2.479301227850198019e-01 3.884891886856092769e-02
8.602448182155177092e-02 4.288849759750216206e-01 -1.663970997723595302e-01
-1.035714108849196957e-01 5.786489098202113324e-01 -7.573928119615940258e-01
6.044405590644768012e-01 5.789168966944476802e-01 1.774862988601381142e-01
2.661185311387629371e-01 2.593779826274421052e-01 4.569293105710196534e-01
4.644458383508314747e-01 5.181807652477929960e-01 1.305949827619511394e-01
-2.480879035577875646e-01 4.737352920486797569e-01 -7.098222255470879594e-01
-7.967801329077881523e-01 -2.341708225950623889e-01 1.746046093752688932e-01
-1.737699537798909066e-01 4.154384234678452636e-01 -4.790901906509316133e-01
4.213441482927408055e-01 6.515231384148834071e-01 -2.295055327201789841e-01
1.508828906259881419e-01 1.123160116695962468e-01 6.390116461148059868e-01
2.101025914626417079e-01 2.301293312839300109e-01 4.494121866812927912e-01
-7.025164626131080725e-01 -3.158654608703405642e-01 4.848849795325777534e-01
-1.163994700083879064e-01 -1.675990128489390427e-02 5.793054574785717614e-01
-1.333170110217617721e-01 6.935263433885313633e-02 3.611776860379082299e-01
-1.222609638680094007e-01 2.262439364825795385e-01 1.909725603299914504e-02
4.820847359061903314e-01 7.234576483669223901e-01 -3.127910732465659094e-01
-6.836636334022679895e-01 -1.453688799535184373e-01 1.221750719628136028e-01
-6.530569172510741760e-01 1.581775714882539541e-01 -5.274902870483918482e-01
-7.063225651221842760e-01 1.175192417944717627e-01 -5.054338471212338479e-01
1.610646035327235534e-02 2.875924528427440396e-01 6.244620069384986677e-02
1.027462334379887765e-01 1.324070321195233435e-01 5.297327546791995578e-01
3.043631436419589886e-01 1.426300313530091679e-01 7.728851978156080493e-01
-8.220370663789544619e-01 -2.173558989493356020e-01 1.030045719847657026e-01
5.498991922707470170e-01 4.345826045510408076e-01 4.335619926715701955e-01
-5.157969308258648633e-01 2.510199619694467588e-01 -5.572051651992604437e-01
-1.097610026455013571e-01 2.468447165807103050e-01 -1.122206971747954224e-02
-1.559248520287812301e-01 4.374140285435452330e-02 3.895327248586399338e-01
1.790241392761978689e-01 2.954479018289760672e-01 2.598483477028510902e-01
1.114521028289222060e-01 6.558523074160808042e-01 -6.488047227271839246e-01
-3.347672133449415832e-01 3.624368063186476085e-01 -5.713161638903453410e-01
6.615016123269663595e-01 7.195867096921576556e-01 -6.692905451405432860e-02
-6.533633704894611371e-01 -1.047146817881204756e-01 6.978411622952028492e-02
6.092781118862625744e-01 4.028552704968094700e-01 5.841500445215200843e-01
-7.722642312876499826e-01 -1.425594296600127819e-01 -1.279135275722651345e-03
1.828051178120981557e-01 3.189930396412858360e-01 2.113147991304794859e-01
-6.041357489977082773e-01 1.373491298189639942e-01 -4.154983201414784721e-01
6.255940527292156439e-01 7.558378421252613943e-01 -1.967894069447643224e-01
-3.128479329582751767e-01 -1.462475923198456873e-01 6.141274808863403933e-01
-4.082010542978131151e-01 -2.206903959850240737e-01 6.573824104318637396e-01
-2.013433863674385371e-01 5.442019502487289995e-02 3.052437372881899313e-01
5.779606417669125307e-02 5.599582214437969219e-01 -5.016869170550790624e-01
-8.695997143634984772e-01 -2.469754837084154331e-01 1.074999971050096259e-01
4.172639689895981524e-02 6.275536310007243657e-01 -6.765961544115272064e-01
5.638325631797953541e-01 6.679366518351057547e-01 -7.855290293560478199e-02
-9.922569257116088670e-02 3.533245360798600299e-01 -2.393812310389621112e-01
-4.662062899857082332e-01 -3.137796299058766558e-01 7.923769054776964582e-01
2.675437061112413417e-01 4.176663018582557618e-01 9.894763055497603210e-02
1.916476887624629921e-01 4.499196404681767014e-02 8.459333513701947638e-01
1.453076148785970578e-01 8.440384633877877352e-02 6.951027433773588893e-01
4.244527051044271748e-01 6.931887617046695871e-01 -3.201240395842232522e-01
3.850870492175944015e-01 2.489660870524330882e-01 6.377922937872753106e-01
-6.561141304973057142e-01 1.524505420612890516e-01 -5.185094831697241169e-01
-4.911766189900254043e-01 1.191384580362295637e-01 -2.248451416602367803e-01
1.519074405123134464e-01 2.201371644226774449e-01 3.952365333052341723e-01
-8.257537434538348986e-01 -2.694427498751229555e-01 2.165119906965244367e-01
-3.285734437945554420e-01 4.300942276274579701e-01 -7.169499510473947845e-01
3.221318513499860092e-02 -1.923343468259035294e-02 7.812892320538583624e-01
-8.088945668755639362e-01 -2.514454956441475875e-01 1.978715023520632998e-01
-2.801554819585089229e-01 4.204158979121737083e-01 -6.309723808681656498e-01
1.728020341632509338e-02 4.850318900596223837e-01 -3.848768337590713906e-01
5.818579369002969681e-01 5.269966345379516470e-01 2.656876176949518609e-01
-2.360753663368235777e-01 1.864310022705290004e-01 -4.077068936097011376e-02
-1.921005881064299647e-01 -1.101431629852460681e-01 6.915870443269410694e-01
-6.543410937752528467e-01 -6.753672576308684949e-02 -1.603094193315843935e-02
3.772316023179385081e-01 6.266678565643074572e-01 -2.312830559506947603e-01
-5.192193816355985536e-01 2.409974053079194378e-01 -5.389411661519573071e-01
4.781532835108872059e-01 7.513050553696386524e-01 -3.812960785634325611e-01
-2.921496944568918730e-01 2.624723965354125998e-01 -2.877393882839720529e-01
-4.600278392107849390e-01 3.115849017483950933e-01 -6.212110395841723420e-01
-6.146517217395289778e-01 -2.567430003048667975e-01 4.665661733178325110e-01
-6.894712078058896909e-02 6.128161311608970596e-01 -7.893224901693218776e-01
2.959806842360547807e-01 1.099474810385527995e-01 8.361125517781294869e-01
-2.769402658599720013e-01 -1.484952079497157962e-01 6.666817845885809612e-01
2.603311104253454578e-01 3.343638738728325899e-02 9.629553256239389292e-01
-2.824094283715182230e-01 -2.585868267623947850e-02 3.806442027009460105e-01
-3.535702868757751305e-01 -1.648092929053456002e-01 6.025210727948899780e-01
-7.061823816387102770e-01 1.126136965361633629e-01 -4.940959831811424507e-01
-5.744272792721788479e-02 3.530350548768386720e-01 -1.835157340560745476e-01
-1.735768603171945479e-01 2.965674723221524145e-01 -2.085847640181830442e-01
-3.627893410549382081e-01 -9.322304234261617750e-02 4.275903920509900868e-01
-5.688509690957248566e-01 2.038453861064116746e-01 -5.200545963896282542e-01
-5.516710909618161018e-01 2.031916167925861272e-01 -4.958686846638340473e-01
-2.001823718041279010e-02 2.426247995443673311e-01 1.169479336528650992e-01
2.490432500835085272e-01 2.242389725785164933e-01 5.142556386609280494e-01
-7.130344663797838489e-01 1.038329874668127845e-02 -2.707311767245275669e-01
-5.104541659900679873e-01 1.777290379515739926e-01 -3.835206478641559058e-01
-3.811216571173712819e-01 -1.313090729617677199e-01 4.899557952371000891e-01
-6.343071736481350476e-01 -1.163955097845387476e-01 1.215189440402288934e-01
1.583124359796639624e-01 1.155389855105614094e-01 6.415008673305779840e-01
-4.359126550879954265e-01 -2.918761909821042666e-01 7.826065996254720769e-01
2.576615646152076722e-01 4.975804234700837436e-01 -9.579239786833852743e-02
-1.129832527947892823e-01 4.799870529198138613e-01 -5.455231775582248810e-01
1.256210272477104595e-01 2.949693886276759658e-01 1.903752958109378446e-01
-7.507629721191082517e-01 -1.567754783751290626e-01 5.945009061050422067e-02
-2.358681102065469590e-02 3.002886707686534540e-01 -1.886463005797400089e-02
2.358256830310617169e-01 1.556600316374348036e-01 6.527040130635781701e-01
-9.735870606535116378e-01 -1.790546329297790229e-01 -1.843137785069249301e-01
4.216788926412457505e-01 6.701846773534012591e-01 -2.714898058769984468e-01
2.117165634169174138e-01 3.372913770512955267e-01 2.079143348549992165e-01
-1.379857514354582149e-01 9.591441874013578728e-02 2.946213427903443538e-01
-3.675553470320709337e-01 4.495570294266961753e-01 -8.127045272675759158e-01
1.626193432341874467e-01 1.387443011728320130e-01 5.944348001642707491e-01
-8.845501148565754201e-01 -1.812184184670556641e-01 -6.175093315045000059e-02
5.303967916175182928e-01 4.436209748614070025e-01 3.872451657233418332e-01
-1.367526878251044574e-03 5.964398615618188293e-01 -6.627992599899318327e-01
-2.395201910682481783e-01 8.097911247602881946e-02 1.944200778388902595e-01
-7.200529717532240248e-01 -1.765700420446852381e-01 1.450293459624692194e-01
-1.999235312041821450e-02 2.034992083343312996e-01 2.059332396936594811e-01
-6.516814333602155562e-01 -1.813949692990260987e-01 2.463372601630897663e-01
1.346012439220312384e-01 2.770878956553811667e-01 2.428939077327832430e-01
-7.600066237500241462e-01 -1.144979628873206978e-01 -4.888037486467941561e-02
-3.127009589124468136e-01 8.578088408015006883e-02 8.681042586317234966e-02
4.424947906225024097e-01 2.057870766834594967e-01 8.118109648046013538e-01
-5.803235837330420477e-01 2.904186929306868392e-01 -7.320355993480962553e-01
-2.442659034145682750e-01 -2.140270039388790790e-01 8.588390451141957316e-01
1.834273501277899898e-01 4.060731684089197713e-01 1.416233577161523857e-02
-6.653613931542927684e-01 -4.012735616540788475e-02 -9.290649456608923717e-02
3.293330823225068538e-01 1.968704111064512319e-01 6.825634813958429969e-01
-1.560995357036217002e-01 1.340917957459583365e-01 1.838924371337127828e-01
-2.888859494355006663e-01 -9.470419214584886725e-02 5.286054837331403133e-01
7.272783155491637785e-01 5.833795619079046313e-01 3.296447019692193003e-01
6.676907312323847321e-02 6.438505610077508434e-01 -6.805582284439438689e-01
4.776234267144620627e-01 5.577660127021745184e-01 5.801026097443393037e-02
-7.911091493832502763e-01 3.304271560691809939e-02 -4.254060384793338367e-01
4.535124625162023637e-02 3.117887393118726758e-01 4.607732764303851952e-02
1.966276160585512522e-01 1.963462604819846136e-01 5.084128629543516187e-01
-1.578953695979415928e-01 7.272162914928420596e-02 3.210432431516263563e-01
1.982359594664330135e-02 6.036142717988818296e-01 -6.511105160470448405e-01
-4.073419210025767123e-01 1.216316966498036251e-01 -1.197436029043700417e-01
-5.841233382286425968e-01 -3.427420232895069668e-02 1.125440729760838685e-03
-7.034300017709971264e-02 -1.611241787296602834e-01 9.683681292871939572e-01
5.683628360348335073e-01 3.328456156982026459e-01 6.892544372169558953e-01
5.606849766932667789e-01 5.548164775135896454e-01 1.744642652686826945e-01
4.028631732234763119e-01 6.063299648672924036e-01 -1.511786297738567375e-01
-2.493727986331636393e-01 1.179114383572668900e-01 9.743716771205387928e-02
2.934965630287668659e-01 4.715827922473454503e-01 1.066098791819882798e-02
-7.874464652180878099e-01 -2.800990634858421813e-01 2.913538498819263634e-01
1.431778850940881864e-01 2.362481277515618705e-01 3.470743745694473970e-01
5.332975284404389837e-01 6.633729043540563808e-01 -1.085229341756875909e-01
-3.286674399483173192e-01 6.878443358674948827e-02 1.043551193250372849e-01
-4.390092099283500748e-01 -5.137499742652884560e-02 2.317413838677813143e-01
-4.478631013249061155e-02 3.298178744420133257e-01 -1.140092391398624672e-01
-3.755128801150568463e-01 3.588343175856792966e-01 -6.169627891365675465e-01
-1.725695504643332823e-01 -7.824387723732258160e-02 6.448709167418004151e-01
4.315526805803516219e-01 1.778976455139477386e-01 8.607592377887830493e-01
4.249301177531371598e-01 5.103713459443096623e-01 9.613782886432740982e-02
-2.839400126436832372e-01 1.756477507486163825e-01 -7.949824913627362433e-02
-2.152193350987607889e-01 1.168424293205033854e-01 1.449941274801208879e-01
-1.695524331100796145e-01 4.331937950607522153e-02 3.724862130355608425e-01
-9.307452666135713759e-01 -1.526661519294901792e-01 -1.877009777148466452e-01
-3.836457763470277893e-01 1.875154544704669135e-01 -2.382193137567676089e-01
-6.447293025971038982e-02 -6.138473619338268017e-02 7.493689253430166897e-01
-4.632238967788800399e-01 -3.107379892655537934e-01 7.894024105672134972e-01
1.033567846612545339e-02 4.921670814540614058e-01 -4.102742464281189383e-01
-4.282422523068265541e-01 -1.865474663320039750e-01 5.532790549335094843e-01
5.695367705263777447e-01 4.731933077084511940e-01 3.717283873623318247e-01
-3.713127629328294987e-01 -1.489648309203421908e-02 2.382549102664666962e-01
-4.092165926866895842e-01 8.663116260991077233e-02 -4.264769997209334057e-02
-8.830766498810213028e-01 -1.440215627235582607e-01 -1.443702314799970854e-01
-8.616356459508334176e-01 -2.286986851361357542e-01 7.647096343546276598e-02
1.171798214524071152e-01 4.587340147371461452e-01 -1.930929779084621933e-01
-1.484820756751856485e-01 5.599301363522266213e-03 4.860819479211127558e-01
-8.487515747869269767e-01 -3.448856243711028724e-01 3.576428007533879461e-01
3.951465971876435002e-01 7.290166203786839771e-01 -4.402996641641861997e-01
2.296033741185818378e-02 -9.780538184882908714e-02 9.476950093567233502e-01
-4.845125612049578923e-01 -2.787527284417352091e-01 6.885562005337645397e-01
-7.171079475477707410e-01 -6.710694106522650804e-02 -9.994119584037046422e-02
1.640813635029879647e-01 6.791647072201213442e-01 -6.322664528905876935e-01
4.506311286886206524e-01 2.441857156769435822e-01 7.352630211003022831e-01
-3.334898135061786228e-01 2.495758258681141928e-01 -3.130415814057413426e-01
-1.878861090004205550e-02 4.579078655997895764e-01 -3.708683308236679355e-01
-5.303231945966171423e-01 -6.402387351428576179e-02 1.398461479420527453e-01
-4.478974753317415125e-01 1.671394620657776220e-01 -2.767900353146147685e-01
-3.119551013910518145e-01 3.363202627834842584e-01 -4.817994293890204838e-01
9.318592470643256853e-02 4.490808376529921153e-01 -2.028495782170549877e-01
3.231721044535462717e-01 5.665852763726643149e-01 -1.661149473884594163e-01
-8.195171316710041509e-01 -2.865924006863417115e-03 -3.813037483832622532e-01
-5.485088240244612168e-01 -1.310713131731353065e-01 2.682484446410023926e-01
-2.207252510311002724e-01 1.070052252832009859e-01 1.600838723364010063e-01
-7.246100501824140339e-02 6.125389992780208050e-03 5.853316963806829420e-01
4.892694232381721853e-01 7.012731681287867058e-01 -2.528621346343211673e-01
6.941187822339378588e-04 5.799843321636106719e-01 -6.226639737463528501e-01
6.413064987186078980e-01 4.505296768362495041e-01 5.180821626269208613e-01
5.139951454287520205e-01 7.478558667123430537e-01 -3.260969746741868014e-01
-4.449840113056199309e-01 -1.112674390744317759e-01 3.600109937434247676e-01
-7.166162187524107718e-01 -5.162715681388928279e-02 -1.344844032007044832e-01
8.682216134146830688e-02 4.000526671225801412e-01 -9.979356279234811999e-02
5.287227582408426940e-01 5.640411292858367176e-01 1.112609125951786876e-01
-3.650697769246278312e-01 8.387507564891219514e-02 2.194889712593553130e-02
-2.520517400693391696e-01 4.367880720328569111e-01 -6.310609684593765367e-01
-7.122144131226174624e-01 -2.327375157411438189e-01 2.830817689068771403e-01
4.538958423407067899e-01 3.389741904322396970e-01 5.240772968712402724e-01
-5.411684423070610706e-01 -1.951522923779414886e-01 4.236337994508993510e-01
-5.957583104279925990e-02 1.716214232124969319e-01 2.261054189099281908e-01
6.270555521522364062e-01 6.589497925730971595e-01 2.541434387890888907e-02
-2.136818200401479906e-01 3.581899633174692177e-01 -4.016722780207041543e-01
-5.716766791061149711e-01 -2.407063101374626313e-01 4.868895854864806472e-01
-3.746886190875478029e-01 2.682892961783319707e-01 -4.100217387267753866e-01
2.572351255883749688e-01 3.921666564119285492e-01 1.432998577868369594e-01
6.092510568980297192e-01 5.533160907874810075e-01 2.420451827506690801e-01
-8.196776440131752217e-01 -3.230622225185600382e-01 3.464428757412660875e-01
-6.091695186257594513e-02 2.709443349914863464e-01 -1.474878651120789226e-03
5.450284981101157777e-01 5.009837032685756641e-01 2.761650718644225178e-01
-4.441962953855095875e-01 -7.782388229370232335e-02 2.850186591545580406e-01
-3.504941101729016628e-01 1.078926458628033519e-01 -1.339581337388776050e-02
2.353126997403571508e-01 4.223858806422117751e-02 9.098871817990250577e-01
-9.406805813849249132e-02 3.359346180812182725e-01 -1.930309387565968537e-01
4.531864252554502759e-01 5.785972863993900095e-01 -2.163748612767794552e-02
4.304493372132475737e-01 4.431148927415058392e-01 2.563362671459235020e-01
-5.202490782941018299e-01 2.696277686680253333e-02 -5.369903025301397959e-02
8.364868854320069158e-02 3.370478613892289865e-01 3.925329759699126148e-02
-7.618324331792170057e-01 -1.267323491207846264e-01 -2.347820905920763521e-02
6.754317150447509965e-02 2.298600533236367371e-01 2.616622014138320629e-01
-7.847722096482004916e-01 -1.405563108605840383e-01 -2.235983170913207960e-02
-5.807144199218602365e-01 -1.527873889918796857e-01 2.750665320193906860e-01
-2.638289874926322831e-01 5.419987356890969971e-02 2.231831003443350836e-01
-7.951107079079087203e-01 -6.698440995519252920e-03 -3.403426743577774305e-01
6.876090373155263613e-01 4.732218718395470591e-01 5.276710256070110683e-01
-4.889030181739258407e-01 -1.804421517676192688e-01 4.592483688031824274e-01
-2.584969415652113023e-01 1.655808287835972836e-01 -2.299369231862546589e-02
5.349569386280230709e-01 5.554434328936762588e-01 1.390447253647236203e-01
-5.033770148034120151e-01 3.034987213228327874e-01 -6.601040852385666735e-01
-6.328016505092629584e-01 -1.308734148653823044e-02 -1.113605007788847912e-01
-3.558583196974171026e-01 4.304316220590707620e-01 -7.537682135758004831e-01
-7.064079833109662143e-01 1.573245452961506141e-01 -5.960431247567191670e-01
-7.022106902927061078e-01 -1.776803400842251746e-01 1.711283911199804886e-01
-3.713544960934212491e-01 4.240630375019753817e-01 -7.597643135037506212e-01
-1.744284076348514290e-01 -5.706057137739940083e-02 5.942550847794452196e-01
4.776460498574496699e-02 1.572165131789786674e-01 4.006823700051452275e-01
-1.318222030186379234e-01 -8.617784010321924426e-02 7.167476123489373574e-01
-6.063914989300148717e-01 -3.473900919801023446e-02 -2.724050590417944478e-02
-4.266490673539333756e-01 -1.926608964163390170e-01 5.692828511866921959e-01
-5.477351588484814515e-01 1.498262946539638263e-01 -3.693433841585093136e-01
-4.459467997649670390e-01 -1.163386568920330572e-01 3.702681657169866747e-01
-3.232653478402986447e-01 -1.034000840881862671e-01 5.029502700158351436e-01
-6.052499871796981346e-01 -2.726306230055071111e-01 5.151087152741030684e-01
3.636935195748756122e-01 3.400128942418690903e-01 4.025324985186831683e-01
-2.239545619898227202e-01 4.993326052582089392e-01 -7.361299945071494433e-01
-7.805984455459832327e-01 -5.432293074988677958e-03 -3.240463401980034353e-01
1.187655788000386847e-01 3.276477836215666017e-01 1.070237100278289277e-01
-2.477380967212764462e-01 -2.011218996419544269e-01 8.249118253393875611e-01
4.278410318449092919e-01 4.001305751451936787e-01 3.506137709996777763e-01
6.012065321795041495e-01 3.747131781693534558e-01 6.374655366019555958e-01
-8.135426737563671296e-01 6.603846433517372716e-02 -5.300622596160140532e-01
8.448899534401102529e-02 6.334056053969437938e-01 -6.333987321084010302e-01
-3.956272822891343521e-01 -2.069720703378698790e-01 6.428077073782855200e-01
-2.450746461111092955e-01 3.870598705508925264e-01 -5.087863222393455009e-01
6.575728881572266982e-01 6.994985234036487087e-01 -2.645001809247108857e-02
4.583717904843187529e-02 4.874511562173487467e-01 -3.526449625647592456e-01
-4.435957522383953133e-01 -3.026505677192818933e-01 7.969502990120501673e-01
-6.547261154649159920e-01 2.468985316034743097e-02 -2.262146114908875350e-01
6.647109920642286784e-01 6.790293075095465980e-01 2.951775746151701421e-02
-2.428558210751732283e-01 -1.673608177445556067e-01 7.546077013189279592e-01
3.156280600923874746e-02 -3.882707547753327243e-02 8.249755719886817662e-01
-6.136133677229005379e-01 -1.944395694086720472e-01 3.262927632292766389e-01
2.373160326725333447e-01 2.882775962003354397e-01 3.531703008614383577e-01
-1.797692992787317257e-01 -1.605441532807478366e-01 8.224656983611982053e-01
-1.545189636521528131e-01 4.828814893377056938e-01 -6.069842848873667762e-01
2.623406451695333708e-01 6.750237010706799934e-01 -4.930230730419757346e-01
-3.009302725037920623e-01 1.751331550063642550e-01 -1.007773700315231918e-01
3.772994726740809268e-01 4.951842445936280868e-01 6.773150068883204700e-02
-1.701247395247929284e-01 1.259012503181413702e-02 4.415922637571362275e-01
5.330623206020951299e-02 7.208753830637049109e-02 6.015431702870762676e-01
-5.133898349432489683e-01 -1.013210226375354656e-01 2.470141943710656429e-01
-7.989333865892904729e-01 -8.601457093049078018e-02 -1.650701929408530944e-01
-8.510286193601103166e-01 -1.757070527577413444e-01 -2.998931201240714536e-02
-7.742152238451378565e-01 5.847336535027429505e-02 -4.609002621961241219e-01
-3.568850398783845468e-01 -8.089918577426126467e-02 4.073736835212734553e-01
-4.040596059991373723e-01 1.126082041024707575e-01 -9.489201968358948469e-02
-9.066775754298809220e-01 -4.327050287716473209e-02 -4.046090232731300862e-01
4.000611605182960440e-01 5.289470494919462640e-01 2.104732873834253698e-02
4.393923930032303526e-01 3.834559289663526105e-01 4.037858700202597295e-01
-5.617511509925946500e-01 -2.575184827294457746e-01 5.382261523614657595e-01
-4.190191439275267604e-01 3.645884316195159291e-01 -6.875289756421092413e-01
-1.942346501760985056e-01 -2.281179115513358169e-01 9.569801307783465383e-01
-2.431544206090126836e-01 2.086591520012019974e-01 -1.006593377393546901e-01
1.268272753684898668e-01 4.725930394882585928e-01 -2.118540687236943054e-01
4.909321676615149843e-01 2.270345704752416427e-01 8.275050601846962728e-01
-4.399246810286008280e-01 2.206551804108023151e-01 -3.879223897451929415e-01
5.223968962251752668e-01 7.080788577541876627e-01 -2.245637458664890562e-01
-6.676600377263637309e-01 2.000454588342948925e-01 -6.419708794496497006e-01
-6.736479038657403606e-01 -2.082998299249249063e-01 2.784807699620111543e-01
-4.305616671863102818e-01 -2.029307345108098942e-03 1.307167698649929211e-01
-2.351161575753466237e-01 2.615316463253894996e-01 -2.102428344718989262e-01
4.916463801318610161e-01 4.690018802894653782e-01 2.783417884407206611e-01
1.303307796565335019e-01 5.152114228126580819e-01 -3.041168132542741431e-01
-2.739869411121251264e-01 1.769333630448448325e-01 -6.927017511212764378e-02
4.225343922728400647e-01 4.500117572038039859e-01 2.301984799342660648e-01
-5.766998474940491226e-01 -3.131974686931205398e-01 6.450594622332966876e-01
-1.491878567098562369e-01 1.461315192346950842e-01 1.656527355868667173e-01
6.624256581966222468e-01 6.805123597357222165e-01 2.312648699868671137e-02
-2.256495099328745813e-01 3.330778595092829392e-02 3.211268878908872249e-01
-7.218031236665756190e-01 1.734219225530667097e-01 -6.529815594167629467e-01
-5.546545013885090247e-01 -1.252865953023551415e-01 2.469768100354508833e-01
-2.259005670654885833e-01 4.592190749009565920e-01 -6.475040674651234562e-01
8.843533262202614431e-02 5.921056250274432387e-01 -5.342899523631701175e-01
-6.311338121881243657e-01 -2.022139621602339898e-01 3.208180919880533333e-01
2.450110814251673930e-01 6.669890027321483394e-01 -4.976537371093673889e-01
5.456096312348461819e-01 5.204238588756582296e-01 2.327361828979497005e-01
-4.551957915429588053e-01 1.631570868590124790e-01 -2.773793838840841186e-01
3.481055373655816965e-01 6.510990740116138209e-01 -3.253107976258841627e-01
-4.422183801134744185e-01 3.741217124676772809e-01 -7.398555578224504936e-01
-6.321568872790777061e-01 -3.894463702663231858e-02 -5.172263276121505382e-02
9.417868863838890769e-02 6.273455055911741907e-01 -6.068183542018511512e-01
5.690113196342646423e-02 1.280401527242612247e-01 4.790861269304205750e-01
7.224570144732359589e-01 5.597989631725373005e-01 3.768843034633952982e-01
6.647971303206761107e-01 5.953441248769836269e-01 2.198878533125551704e-01
-2.284254165790816291e-02 3.343738691760684417e-02 5.887988436751475652e-01
4.763073680798422527e-01 2.906089242217751445e-01 6.636466857367014915e-01
-5.825585895778617740e-01 3.978472308559267284e-02 -1.651782885567553982e-01
-1.867737181732671281e-01 1.404208665825462388e-01 1.289739868696257175e-01
-8.256341666657633915e-01 6.611157886717730636e-02 -5.462048394076384206e-01
4.328611271809763572e-01 3.325045367457348799e-01 5.109929653038588482e-01
-5.665312216397687672e-01 -1.932688558497134002e-01 3.858402917079561401e-01
-1.286653233868690349e-01 2.852628526720076829e-01 -1.235428625420311871e-01
4.660669163253078340e-01 5.697912594327529945e-01 1.540165795098925178e-02
3.649546402858910299e-01 7.476439543779747066e-01 -5.225407653926438245e-01
-3.792868103859128315e-01 -6.390414071211628078e-02 3.391366395478368490e-01
5.594628096656936167e-01 5.146936430270332430e-01 2.640677442228719918e-01
6.589310875780254317e-01 5.704927276901183841e-01 2.686361794223546817e-01
-6.315593955624487776e-01 -2.932333601863498229e-01 5.271862208520720072e-01
3.156116196522629758e-01 1.456623279020648754e-01 7.808538301132411652e-01
4.280745140973418739e-01 4.947067521923372846e-01 1.359055681173172991e-01
-5.293632161337218089e-02 3.112088611264088311e-02 5.543027753552973724e-01
-1.282344752787231527e-02 3.046458339321556075e-01 -1.454902445105459886e-02
7.071961751054002265e-01 5.061173477477957094e-01 4.787642077707411348e-01
-9.385484796142951058e-01 -1.815266760283545111e-01 -1.323975580478601310e-01
-2.499428100097088046e-01 4.609554793036984011e-01 -6.832184910488561247e-01
-5.082454879097408895e-01 1.209634370183056695e-01 -2.515470956054566831e-01
-1.123879930621808354e-01 7.347974298960742445e-02 3.794480817686894936e-01
1.621876765788413111e-01 2.915710400894441778e-01 2.464164694726671823e-01
-5.137227496869160165e-02 7.182679824827691581e-04 6.254889657094812039e-01
6.323730004153171880e-02 3.012247076130172285e-01 9.372704844877600971e-02
-5.945069739587818258e-01 5.539988093578510076e-02 -2.164662483205241350e-01
1.118511133362451726e-01 2.216876598166973578e-01 3.387855373595437536e-01
-3.437929216405520849e-01 3.118237776530153882e-01 -4.681742093486881973e-01
4.438801573081697094e-01 3.594568602781118005e-01 4.642768180125516064e-01
-4.608113693093918162e-01 -9.985868784464418946e-02 3.131609550104689776e-01
3.155973637779753704e-01 6.639305403970577890e-01 -3.974355224402635334e-01
-8.716378142634347848e-01 -5.107950713970226680e-03 -4.450730342455217481e-01
-3.116892270711042467e-01 7.504640653949566642e-02 1.125517965973720780e-01
-4.167711052408351602e-01 -2.806396450154197697e-01 7.823520960458488771e-01
6.804884839135932895e-01 5.571441124851432836e-01 3.274674891677762378e-01
-7.103831293159830196e-01 -5.535157633696585755e-02 -1.177813115293346868e-01
-6.298163155885870834e-01 -1.104717924888947017e-01 1.139852339568087208e-01
4.936732309467645186e-01 2.764859327152621726e-01 7.187002949393442863e-01
-7.063968041820227473e-02 5.344293126901151769e-01 -6.133482736789424017e-01
1.047190275587844312e-02 3.434270053856453564e-01 -7.193721173686372372e-02
5.651890759313027424e-02 5.979325447826961959e-01 -5.897081353592686925e-01
-8.322682663091179878e-01 -2.549357544017059607e-01 1.749231129102607751e-01
4.568491250911244778e-02 4.103089965277476048e-02 6.620797382237659789e-01
1.142217262598715366e-01 4.268888432535364319e-01 -1.246022325567275879e-01
1.491506369109905639e-01 1.597950874120089571e-02 8.557415981002269856e-01
-9.525084022935087491e-03 5.876131665146262090e-02 5.488216979536386653e-01
-3.340928209936837312e-02 6.610027361629966514e-02 5.005788266359421090e-01
-1.863101353982111186e-01 -1.240274709678079318e-01 7.308035509743133762e-01
2.947351406367777482e-01 6.812049493847817105e-01 -4.642735068071825455e-01
-5.121297758034991654e-01 -2.744319312733051880e-02 8.071959946185672252e-02
-1.045757089269614970e-01 4.855945050364932625e-01 -5.471627926716092771e-01
4.780630883169687539e-01 5.812530581546531128e-01 5.193938957937288894e-03
-5.590360602703325910e-01 -3.340857737338426836e-01 7.158874958088453644e-01
1.946803937535722673e-01 1.009399244732889361e-01 7.227440668434430560e-01
-5.177969846388590369e-01 -4.040966564177540105e-02 1.027105476216137320e-01
-1.041594936068039740e-01 -1.223466341018579345e-01 8.355269410820317377e-01
3.865155641551742405e-01 3.494193561372601065e-01 4.113016446855814467e-01
-4.216081210704569204e-01 1.370445410042553380e-01 -1.736341119140173694e-01
-3.135921015595684036e-01 -2.680913502392883851e-03 2.867487723339304795e-01
-1.955438184716591296e-02 -7.794562620870236838e-03 6.868833143396669838e-01
2.918715172292373206e-01 1.410512674432138902e-01 7.599694326048173076e-01
-6.872437797286670147e-01 -1.431568473937465946e-01 1.124156606046279455e-01
-6.525682501559909587e-01 -1.062926140947514503e-01 7.442209167567194472e-02
2.698994783587554402e-01 5.299821348234562413e-01 -1.532871019926619061e-01
-1.567413480785108115e-01 3.765627516409262299e-01 -3.682075626623398379e-01
-4.459070846660960763e-01 3.039935598027985741e-01 -5.852947067658020863e-01
2.228432460113587699e-01 3.210813036351553018e-01 2.594691156116487596e-01
-2.368238950726723191e-01 9.314413014863495710e-02 1.703257840719754335e-01
-4.230465233861190333e-01 2.694326775401127416e-01 -4.765159524426932358e-01
2.495965599547181057e-01 6.838535560596974427e-01 -5.299361580204584588e-01
-3.132612778485364680e-01 2.751342262070524125e-01 -3.444202596678034856e-01
3.209698061449716144e-01 7.266811836241855449e-01 -5.329990762551041206e-01
-2.762208591781405431e-01 -1.997805992964016564e-01 7.842284522390250423e-01
-8.551344171502163194e-01 -3.146186240478473506e-01 2.803979128727711045e-01
-9.096845538006843590e-01 -2.349578511758846355e-01 2.721453964223640234e-02
7.062282970548836580e-01 5.824028682868852558e-01 3.040520355560175636e-01
2.180259959104434431e-01 4.512400389354867536e-01 -4.280866811452092857e-02
1.343170866295052002e-01 3.228122791667160651e-01 1.385651499926620067e-01
4.078494795214145097e-02 -1.039397509085811522e-01 9.851928126942012254e-01
1.669022300452744079e-01 6.408121989895524395e-01 -5.413457533173690051e-01
1.512702741022744213e-01 2.468219478946325762e-01 3.337274286510680255e-01
-1.222362872780938525e-01 -9.231249889399516240e-02 7.433603782112322422e-01
-3.512884902658783282e-01 1.098485239358048815e-01 -1.889206150433094672e-02
1.083729452898009038e-01 4.207930211376450513e-01 -1.184714547360881387e-01
3.774927523628821002e-01 3.105886610278146831e-01 4.876605698308589809e-01
-3.610920985316783960e-01 2.791526472109144286e-01 -4.167543782308171796e-01
-9.424329667259982030e-03 3.937342464315932711e-01 -2.125982052401002020e-01
3.188297159083531840e-01 2.154926956636452340e-01 6.263481764583640476e-01
-6.354466260911403319e-01 -1.120358909181453366e-01 1.101019078264803830e-01
-6.080927060396128514e-01 1.321890736762625362e-01 -4.089953381172974911e-01
-7.011491664179873018e-01 -2.077316689917471371e-01 2.408519559705943336e-01
-4.484558143674757802e-01 3.883050817249230069e-01 -7.803425649654537333e-01
-1.571104949329997780e-01 1.987662355688250559e-01 3.552085946973012470e-02
6.789129670337015754e-02 6.343516340002707254e-01 -6.574798610974830204e-01
4.895822816702877778e-01 7.610805876348504251e-01 -3.884195111737560047e-01
-4.953399145507618173e-01 3.078090659747247382e-01 -6.592842202714802591e-01
-1.339037811974842507e-01 5.278077600691373217e-01 -6.818844860214480219e-01
1.172681715079177955e-01 -5.074412863423211073e-02 9.653102603280526717e-01
1.365749041912489581e-01 6.713713524532110011e-01 -6.508924252316991010e-01
-1.592737809428291240e-01 -8.882547039239681308e-02 6.864954713493321981e-01
2.628375536935196877e-01 6.356350508446440006e-01 -4.028173491471983558e-01
-5.145528444649908328e-01 -2.015102835939361903e-01 4.732554366051815453e-01
5.385594494103331659e-03 4.775250349337741285e-01 -3.835263912803816844e-01
6.928332968216259768e-01 5.269427129857049419e-01 4.124407207627807104e-01
-9.773256910087306792e-01 -2.563167483901988564e-01 -1.359999826789147145e-02
-7.423292063811242070e-01 8.690022048711150415e-02 -4.833974029891347501e-01
-3.460130233414827061e-01 -1.403814791930502182e-01 5.569703449874254808e-01
-5.944659017833835435e-01 8.096422313804160775e-02 -2.745319071334740846e-01
-2.453759932465828242e-01 4.405146596151470750e-01 -6.307126868150499943e-01
-2.403934703433034947e-01 3.714087560602264970e-01 -4.670186981397715376e-01
-1.865895097764260768e-01 3.441718294198015671e-01 -3.340056129131493412e-01
-2.623629671240548245e-01 1.030478596216545112e-01 1.140653965009586907e-01
-2.155808292368550094e-01 -1.884409514412603293e-01 8.385710309899963022e-01
-1.824500400885321894e-01 2.009950410567202805e-01 -3.027137369032833428e-03
-5.395063569808901116e-01 3.677383352446982057e-02 -1.014486643875785049e-01
2.623651335381926297e-01 3.918909124316825865e-02 9.525642217502138243e-01
-2.218667734709020567e-01 2.829250240490278623e-01 -2.413739080154494454e-01
-1.704551438964003740e-01 5.301815300871560305e-02 3.492435392343994915e-01
-1.616485974829461603e-01 5.384641042435424074e-01 -7.427703507272022110e-01
-7.924324743286684791e-01 6.905194198894724911e-02 -5.090206571006636871e-01
-9.089927526671413016e-01 -1.395799809679656722e-01 -1.887107220088661830e-01
5.380088740988284712e-01 5.886386984289423419e-01 6.760856325630182351e-02
-1.128946575449032846e-01 -1.225518315230654104e-01 8.244517772186935600e-01
-8.538077765508194084e-01 -6.814027094666053053e-02 -2.782119145289239093e-01
-6.294287589407360217e-01 -8.491680582947691569e-02 5.639865084425228769e-02
5.142515528867714486e-02 5.361092982982810229e-01 -4.558847660000329149e-01
-2.038047746273548844e-01 -2.270373412145271774e-01 9.418785802680577079e-01
5.976027466850692971e-01 6.108147624455154689e-01 9.593253018119290987e-02
7.238573293826943145e-01 6.669002851693157652e-01 1.352422030060644320e-01
-3.757878275141406377e-01 1.720748408409518704e-01 -1.927328233245192979e-01
-8.955945615869356780e-02 -5.563808973993956616e-04 5.779305502994583899e-01
2.484458263475977646e-01 3.521450131468402134e-01 2.226749129279877171e-01
-6.146396281905713160e-02 2.676971674122820000e-01 5.184720479733775575e-03
-1.088407358484685117e-01 4.060179351514890400e-01 -3.718826770209364141e-01
-5.909045832137023169e-01 6.876607625495018139e-02 -2.420941780864029336e-01
-4.540183747160126959e-01 1.230917620103416377e-01 -1.847361081659486814e-01
-3.625924546224536527e-01 2.460444981462261982e-01 -3.434661887100070587e-01
2.507101687128205358e-01 1.743628089469226872e-01 6.298503974899221092e-01
2.188991449263710531e-01 1.387080132700700408e-01 6.688791783687187964e-01
2.104138799086491818e-01 6.379966383850517175e-01 -4.774531819639241670e-01
