4.269746819140913807e-01 -9.659359093521320550e-02 -8.352007350222058202e-01
-8.408970637943307125e-01 4.003988499378242083e-01 1.270564167914765841e-01
-7.625905520090439094e-01 4.806580813318834383e-02 3.262062341755239125e-01
-9.016903579957982195e-01 3.087678168043395122e-01 5.837408327275938474e-02
-8.131288628230001203e-01 3.781109177776444119e-02 2.535980173837840690e-01
-6.552600848098741881e-01 6.075447556921831360e-01 3.538801248136770883e-01
-6.970192971757551703e-01 6.234837701378819208e-01 2.881402844363127880e-01
-4.846407556457303922e-01 -2.473264875300519583e-01 8.083164159965504636e-01
-8.670612922263226663e-01 1.209585808879927865e-01 1.539727578118407214e-01
-8.803164690939550008e-01 3.521890557811197531e-01 7.988487619113335270e-02
-5.500826277763987138e-01 1.412498777118311455e-01 6.197349404770350345e-01
-6.293579301616233357e-01 -1.039095971122134116e-01 5.597442002341457279e-01
-4.845918081328671745e-01 -2.192259214920947441e-01 8.017766738679422689e-01
-5.167615674293691841e-01 1.830470043543284409e-01 6.593628095375909659e-01
-5.570096530943845492e-01 -3.045503074572076252e-01 7.143543195417705327e-01
-7.254373355699345050e-01 5.278497622977017523e-01 2.684591424121892111e-01
-8.214826363001080933e-01 2.564320703650407873e-01 1.897531594549809186e-01
-8.699929027132203840e-01 -3.452522857155863045e-01 2.593259845012089726e-01
-7.620050090804978415e-01 3.043530836026693640e-03 3.376697242766988905e-01
-4.504712924866067225e-01 5.597160094914321871e-01 6.691322302028327451e-01
-7.556218336353194287e-01 4.858186102944413443e-01 2.335423923397264845e-01
-4.374093273477742128e-01 9.688873900074743140e-02 7.974308179062141733e-01
-9.474501282919389755e-01 1.870070709702793543e-01 1.909805365852474540e-02
-8.731180734064030169e-01 -3.207117319190442295e-01 2.489121565172031647e-01
-7.118203304732928505e-01 -1.017701718261044413e-01 4.368299801774592761e-01
-8.929620378648692736e-01 -2.308326770696076113e-01 1.983052841090864604e-01
-7.661469849549978894e-01 5.173143487119472583e-01 2.105070712266421951e-01
-5.096870115864998718e-01 3.330593066981407668e-01 6.345648859118324658e-01
-6.378731289495498391e-01 -3.071073810654766367e-01 5.949187555688215667e-01
-7.803569240204583091e-01 -2.208748583621928108e-01 3.631180368751636967e-01
-6.579712436089515393e-01 3.215703045871519672e-01 4.171487982149535978e-01
-8.414809697468922378e-01 2.575635026285628681e-01 1.598005204680068014e-01
-8.370260899678723110e-01 -3.874890949629823389e-01 3.182021911369204425e-01
-7.863101329551587249e-01 1.126767050074862359e-02 2.996548979782259758e-01
-8.894490273948825187e-01 3.211880463377845829e-01 7.362301915686893239e-02
-7.666185169917379971e-01 2.923231878958976182e-01 2.627502409941678274e-01
-8.569594334361091414e-01 2.313911269893519362e-01 1.429822886550202454e-01
-3.960387081155059552e-01 -3.642847498158722358e-02 8.902143190678980522e-01
-9.214583942961499519e-01 1.753775334873177161e-01 6.041788882180684772e-02
-6.186599455033716666e-01 6.720200110296471741e-02 5.353601338679027100e-01
-3.984100071132269938e-01 3.466974781849730958e-01 7.965401037621692160e-01
-9.206875475122394681e-01 -1.610759065095720699e-01 1.407337179752089218e-01
-6.453648288803076616e-01 9.289637872285218256e-02 4.896720421834555026e-01
-4.099167979098835568e-01 2.659891598322223962e-03 8.604151127478023575e-01
-6.299466577526428024e-01 2.507291096407687769e-01 4.754195042629789647e-01
-8.503884537316859227e-01 1.378443153728798609e-01 1.747492303530725488e-01
-4.833671680047190722e-01 -2.407846564521097243e-01 8.086676133808465838e-01
-7.554020842752401377e-01 4.653433794097290854e-01 2.386866665499250972e-01
-8.235009307911734799e-01 3.426705219864903951e-01 1.664641676793678360e-01
-7.086090550780438369e-01 -2.369459564111320304e-01 4.734054293033206351e-01
-3.823575368336923908e-01 3.486449539274112941e-01 8.199108270080008865e-01
-3.666611887843839734e-01 2.211012906470943840e-01 8.732237329529668468e-01
-6.611121000617308230e-01 -2.270156233815105729e-01 5.415752560645429314e-01
-8.337521701845943545e-01 -2.175756169034840370e-01 2.830794508373375429e-01
-6.405914092358226952e-01 6.345494251704546507e-01 3.693004230175396252e-01
-6.666080679805120868e-01 -1.401011016661928565e-01 5.129647665672668611e-01
-4.108058812847760199e-01 3.725610711072932513e-01 7.720531117013816891e-01
-5.921908255332509752e-01 5.088208316574066581e-01 4.707338165004807395e-01
-6.576406147283961889e-01 5.918181670538018579e-01 3.540470181617468848e-01
-5.599697350302726973e-01 -2.850952084798714231e-02 6.450045197865684754e-01
-5.431572299684896965e-01 2.388015209328160637e-01 6.070602256803750985e-01
-3.834179407031566567e-01 1.287298354539242184e-01 8.700853957585084064e-01
-6.448294741651654505e-01 1.938945129811536772e-01 4.667006675277973748e-01
-4.607223715931393349e-01 2.399284862419847342e-01 7.291649401993590685e-01
-5.295504295322192023e-01 -7.369385291663264892e-02 7.007926830887297731e-01
-4.576774633922449653e-01 6.239064132580172256e-02 7.754617300878414721e-01
-5.651232826895056238e-01 -2.302320533910137135e-01 6.848221123913981190e-01
-5.171202866801825060e-01 4.387791308166212600e-02 6.915784759424992156e-01
-4.810673995190639651e-01 5.244170656105268113e-01 6.320203000769574198e-01
-7.017846694587520640e-01 -1.129150230712747394e-01 4.543498714186160470e-01
-6.796712671653228899e-01 4.854099755338553979e-01 3.463828860460877457e-01
-4.990269367937142930e-01 1.986063148472097528e-01 6.820275762488715587e-01
-7.441940138709118857e-01 -4.403458870842576200e-02 3.751871923062720104e-01
-3.598457120872059489e-01 1.079262185316852279e-01 9.099723829853055834e-01
-4.864146928790451518e-01 7.646211135329547548e-02 7.294917453775694449e-01
-7.540136618969197624e-01 -8.618640805126727422e-02 3.705293092818373601e-01
-7.225668713512526375e-01 -1.151736866448162394e-01 4.240313543051742462e-01
-9.019868107620585551e-01 2.703519118742507277e-01 6.697374139407813454e-02
-7.531038149953460659e-01 -3.035708759894146722e-02 3.587426135979522868e-01
-6.706276854575246027e-01 1.224617215169719747e-01 4.452136732705260225e-01
-8.452971391413609537e-01 1.280578570195280153e-01 1.846098716586309363e-01
-7.200550300693024930e-01 -1.603175151486914696e-01 4.383829282524560056e-01
-7.094120197943835082e-01 3.231275425554350766e-01 3.404214271715064188e-01
-7.652908489698004857e-01 3.692232335466928417e-01 2.466255815678676522e-01
-5.210923918662662135e-01 -2.486787810578993396e-01 7.545242266094367434e-01
-4.096245480809340700e-01 4.948021851681445038e-01 7.450419264777231598e-01
-9.081280812906071809e-01 3.025572210720797739e-01 5.027907377749634560e-02
-7.564822849308060482e-01 2.709674462031670950e-01 2.828221699069635164e-01
-6.019543034490045796e-01 -1.213872868527900439e-01 6.045360513206896602e-01
-8.832896834385564055e-01 -2.721011144763085809e-01 2.223743101653427312e-01
-8.544184768058673551e-01 4.659255056354383306e-02 1.902395284841362777e-01
-6.184367636094170173e-01 1.534059885626622710e-01 5.154065973382736532e-01
-3.539642105256242122e-01 2.378015984892594692e-01 8.881418980905289029e-01
-4.076397434446321633e-01 -6.040710406813745020e-02 8.786356961984126412e-01
-8.860613112078447040e-01 -3.184057186647202831e-01 2.291560164784452458e-01
-5.433358959855976167e-01 -1.030701710043259722e-01 6.872415365753626881e-01
-6.189222310079172118e-01 4.445994466985305205e-01 4.461646171663908866e-01
-3.957182664181195242e-01 4.098701653201305417e-01 7.856705463183354388e-01
-8.144578705523318751e-01 -3.912051224226283930e-01 3.525778674703709537e-01
-8.574933221297594832e-01 3.827387687571500718e-01 1.065758362948357463e-01
-4.970361940848178062e-01 5.640364522410509229e-01 5.989926048903024824e-01
-7.710290140206620402e-01 -2.878910691103195862e-01 3.927345160539364999e-01
-5.003579001575295671e-01 5.389684599736096482e-01 5.999605201502609120e-01
-6.751196743996419336e-01 5.315143237580156194e-02 4.548551153576789186e-01
-8.998501897918725900e-01 2.439419349718425500e-01 7.636002080077665399e-02
-5.680734247224427103e-01 -2.358298800042412172e-02 6.318157764136671517e-01
-6.824756586209885789e-01 3.219756614596357425e-01 3.806779893007118387e-01
-4.606725160913185957e-01 2.184145458396548056e-01 7.343014374200663719e-01
-8.437782095424948281e-01 3.855273603076054267e-01 1.262789590389140071e-01
-7.127823601554557076e-01 -1.267000261445396236e-01 4.412681965749976620e-01
-7.752844792991283596e-01 -2.099639679699898120e-01 3.680803312474986155e-01
-8.440517558384699193e-01 1.091063071546934521e-01 1.909181011621123025e-01
-4.737639487479731182e-01 1.217342565119206022e-02 7.633989650974726260e-01
-8.656451761000214518e-01 7.174855312324324164e-02 1.676546152025037428e-01
-7.942366176239067377e-01 -3.397721799180331709e-02 2.985351457598705016e-01
-7.305932924326070665e-01 -2.322815809091845762e-01 4.396734837118825290e-01
-7.807906014293711783e-01 2.772383175305218050e-01 2.452622319254925132e-01
-6.178390562096059968e-01 -4.601900258853543202e-02 5.632209648765829080e-01
-4.080640154587045210e-01 -1.044481923823779301e-01 8.883692873118742561e-01
-9.265768836745732484e-01 -1.913668312347567291e-01 1.391191499944295085e-01
-4.967468123051287932e-01 4.389807307479129395e-01 6.288492947100480235e-01
-8.424596321525640308e-01 -1.064758033207709176e-01 2.440105886121235745e-01
-5.217641233782890353e-01 -1.192727227493912134e-01 7.230762734549173176e-01
-7.487739994671259725e-01 2.132464031786944492e-01 3.078471426854414439e-01
-9.355772123692678299e-01 -8.412362028911865575e-02 1.005230487065255085e-01
-5.375167560712275083e-01 2.405786907199282676e-01 6.150150019322860873e-01
-7.972942261081961135e-01 2.131662863535717933e-01 2.358404522245949042e-01
-7.194012416882510363e-01 3.559973662248683279e-01 3.178583242728391656e-01
-4.894647051419087069e-01 3.014498352032016215e-01 6.720218502536488003e-01
-7.172591330687388966e-01 1.838128384675892790e-01 3.615552589805263173e-01
-5.984546010839493224e-01 4.098597487421810071e-01 4.847223304149802514e-01
-7.527732918757252811e-01 -6.158838483452686724e-02 3.665823572950541731e-01
-5.092073039238275145e-01 4.966693053777545552e-01 5.967775798289619571e-01
-8.302193022611549234e-01 3.597532554984604336e-01 1.524713505963649074e-01
-4.032852175971187725e-01 1.443073057932900971e-01 8.369279759279216746e-01
-7.764467151646540222e-01 -1.736111989943237566e-01 3.578008127940277561e-01
-9.113763293213660299e-01 3.399998440069122996e-01 3.664653201123381498e-02
-5.196749685084475212e-01 2.743817873469328039e-01 6.335458542503691337e-01
-5.810455781884228399e-01 3.635874381690167717e-02 5.984543332972517282e-01
-6.557661317479562824e-01 6.064895196534526578e-01 3.533772364050359882e-01
-7.093203479451213322e-01 1.454764486720349359e-01 3.823609529227048331e-01
-5.180310442501953050e-01 -4.464620467439542328e-02 7.110572997466260148e-01
-9.032657065510284466e-01 1.137739394751578065e-01 1.019199771700436685e-01
-7.250090090799062859e-01 5.028106295992066377e-01 2.749869787376737484e-01
-5.392120854567533650e-01 -1.593980144111961927e-01 7.066177215895846908e-01
-4.716080417916199141e-01 -1.549380887728361300e-01 8.059226414640300318e-01
-6.250960121076403198e-01 6.308476449006061859e-01 3.931735405986260812e-01
-8.476605498365185065e-01 -1.852080077894007748e-01 2.548167561836841011e-01
-7.740451791775634360e-01 4.859667028284634926e-01 2.061591258583170549e-01
-3.578882882616391536e-01 9.873666560444649409e-02 9.150404809650194426e-01
-4.475591928997789126e-01 -3.364964984676658416e-02 8.130811709130194576e-01
-8.988170692295566200e-01 2.642712085604345673e-01 7.310990691753391224e-02
-4.885457279934597441e-01 -1.761084559368344682e-01 7.857612431450405888e-01
-9.345023118425209718e-01 1.303107685747857403e-01 5.165968117686652733e-02
-7.886802509284194240e-01 -1.642440841496134452e-01 3.374366231179871112e-01
-8.681307594956580997e-01 -3.510580854184551236e-01 2.634564058598801717e-01
-7.449303256467371126e-01 -4.770254706233744563e-02 3.749572937769830028e-01
-6.706814051031302348e-01 -1.570918724781226739e-01 5.109162602959734789e-01
-7.494377084308001535e-01 1.877961818263668980e-01 3.128506480191168837e-01
-6.081131658373737370e-01 2.049162670136732978e-01 5.186104071205345223e-01
-8.418519078978921044e-01 -3.966194343238926834e-02 2.291906143269740459e-01
-5.112298513739056416e-01 -1.049884197692813569e-02 7.131180013010867125e-01
-8.068297798573479396e-01 -2.608454440998490553e-01 3.332261345010030240e-01
-6.030178100747650705e-01 2.291372524210243677e-01 5.204746858265663079e-01
-5.860434402037518753e-01 3.320060306687803720e-01 5.214659179462107774e-01
-6.509006165000149613e-01 2.320285089729996475e-01 4.487150097882282584e-01
-5.092284804946973775e-01 1.957617049412050392e-01 6.675533303633861548e-01
-7.231410009989825971e-01 -2.880923356511139732e-01 4.638689339126596534e-01
-8.650028435253968029e-01 -1.448258977145887860e-01 2.195707009075393845e-01
-3.887277015905286626e-01 2.539077964156909520e-02 8.865202804945790938e-01
-6.696020345886227743e-01 3.030675398295382128e-01 4.042374678679723221e-01
-5.792726733164511588e-01 6.535061499464669410e-01 4.558638860425308081e-01
-9.258079511434258446e-01 -1.272363960910466163e-01 1.251699225058822695e-01
-6.889884354716208081e-01 3.175323674891763481e-01 3.720556996200179989e-01
-5.178869587023218202e-01 2.279924002376802206e-01 6.471160361066359279e-01
-7.025042485009013182e-01 -1.163289740176906700e-01 4.540850406846214105e-01
-4.658390468470815504e-01 1.417979307188484694e-01 7.446608267713006324e-01
-4.396084421779241080e-01 -1.663429664255405838e-01 8.561079494994638939e-01
-8.597401824034185402e-01 -2.088924497780669243e-01 2.424584569072484319e-01
-6.589392590984431974e-01 1.048648675270376224e-01 4.667052355798159136e-01
-6.280504979011942712e-01 1.119411781744737849e-01 5.108927201622985859e-01
-3.883125916765456931e-01 3.757054165603060936e-01 8.047032305060091151e-01
-4.683651141612715230e-01 3.463798757058438871e-01 6.927704241730667789e-01
-4.878027734269430038e-01 2.267795012909503138e-01 6.920597240090118341e-01
-9.578958508125218207e-01 -5.497989218069979783e-02 6.053441676037508296e-02
-3.951892970527510762e-01 1.087994687596823273e-01 8.573013359851294757e-01
-8.001296834518687451e-01 -9.739552697711637008e-02 3.047103141826946748e-01
-8.345939535783057917e-01 3.696410908875525370e-01 1.436507003057945209e-01
-3.498794212820465210e-01 2.830457621982223060e-01 8.835590404340112336e-01
-4.271073626204620610e-01 5.306497081137803162e-01 7.106543189334617594e-01
-5.700103107974222594e-01 -1.456251483912134881e-01 6.576585697694246058e-01
-7.922713064472488576e-01 4.188792470317630467e-01 1.948899538689993771e-01
-6.666301375253668171e-01 5.106404220020861473e-01 3.598046800668138201e-01
-6.397342611287808456e-01 -3.586973304995678680e-01 6.042957467434061369e-01
-7.786741641260996882e-01 3.014205319897521052e-01 2.427135972764712102e-01
-7.906475855139291076e-01 3.755569045769177605e-01 2.074945455674923334e-01
-8.251351936425631584e-01 3.560705691134302131e-01 1.608850039149594124e-01
-6.028382181455462785e-01 3.896303988501098048e-01 4.829753077549295281e-01
-7.196621520175859876e-01 5.118526482946699208e-01 2.807963908107059536e-01
-6.417104024955577746e-01 4.427674782393284936e-01 4.127679446968914867e-01
-6.935809154602081694e-01 5.805827191765784434e-01 3.033395028643531277e-01
-9.472677541488569997e-01 3.699599226994082501e-02 5.466819306937092254e-02
-5.600976835358258965e-01 2.689237588646267718e-01 5.748249510284645369e-01
-4.153843128064174661e-01 4.661766916770709313e-01 7.432278039482328458e-01
-6.418623027648562296e-01 -2.322501015840788829e-01 5.713822314815579784e-01
-9.283473592601240165e-01 4.030178707653302855e-02 8.197655997344142909e-02
-8.196799202519247096e-01 1.695283798133443431e-01 2.128786759174414456e-01
-4.444481704012967493e-01 4.793922519767051527e-01 6.969743640904418891e-01
-6.479677395408174334e-01 2.277201583721910061e-01 4.540825072372032256e-01
-7.864573251191508962e-01 -1.889428180267473945e-01 3.465483410824001242e-01
-4.883954870036564810e-01 4.565913184811735137e-01 6.371023830257444009e-01
-3.939688785772125779e-01 3.616787112392341186e-01 7.996074441262851495e-01
-7.274202150278246126e-01 4.139127377918121187e-02 3.799852163953866269e-01
-8.834568796479720376e-01 1.386867202193330789e-02 1.548339785529636026e-01
-8.581275366228410251e-01 4.584681067650300257e-01 8.781435442533876146e-02
-8.666268015485693033e-01 -2.301763373060136675e-01 2.372440140869715441e-01
-4.842665477244057493e-01 5.990824744654398293e-01 6.097016739707148414e-01
-6.155750021173850284e-01 -2.736407958441283705e-01 6.201439776615681465e-01
-9.115681416952975402e-01 -2.074876525369893643e-01 1.651922054962599584e-01
-7.603050426883850577e-01 3.027526605199428733e-01 2.696680572684368449e-01
-6.383173624787411571e-01 2.562577074231109919e-01 4.616927189779861940e-01
-9.501463303491988199e-01 1.126351989227855205e-01 3.259629168273330685e-02
-9.044712161634491654e-01 3.257142487263924302e-01 5.025835626268670281e-02
-7.487596671472472876e-01 1.079903082690440719e-01 3.326364462492305551e-01
-4.275998548316817804e-01 4.436569122520584996e-01 7.303936955959585697e-01
-6.874937416738824414e-01 4.207341925195121068e-01 3.499898547800636139e-01
-7.072405624159913140e-01 -2.651654866773771047e-01 4.820772752329161026e-01
-8.767765402197235103e-01 -8.889186686069175392e-02 1.889313597013279888e-01
-5.359807137989369696e-01 -3.336292564493841262e-01 7.524132224550925674e-01
-4.736498268089017749e-01 -9.049346500258495865e-03 7.685623468240374567e-01
-6.633810825446907478e-01 -2.864093494635024453e-02 4.915271237125730108e-01
-5.453535972145576727e-01 -3.191720469420388645e-02 6.675032220200701749e-01
-8.169476890942796166e-01 -3.157014525215193212e-01 3.311149483574265528e-01
-7.866244506228052824e-01 4.721393682211765808e-01 1.907396446168875270e-01
-6.364107776267403649e-01 -2.149792048448020410e-01 5.754106632097371055e-01
-8.725423258549747096e-01 -2.973693454343259157e-01 2.442740763778771251e-01
-4.696715499730959031e-01 -3.395956545065636611e-03 7.731375638479436319e-01
-7.373312935947463620e-01 1.138282344525282236e-01 3.482274885262600650e-01
-4.126825180591555120e-01 5.928259162264468835e-02 8.429855530732283109e-01
-6.309474004516615331e-01 -3.169791384474341944e-01 6.075225528626777560e-01
-3.742696076179614084e-01 2.224802608447797314e-01 8.616049755260705156e-01
-4.049028071569782394e-01 -1.055895004972493140e-01 8.933304864980191606e-01
-7.172965255119091443e-01 5.527340261327645665e-01 2.746881490347676813e-01
-7.610406443412699451e-01 8.520536383667318137e-02 3.197675995983381148e-01
-6.052165684682057067e-01 4.249616750814028121e-01 4.711309054606233060e-01
-9.693778530811348881e-01 6.280981066974250515e-02 1.577269417657881784e-02
-7.260752652438189347e-01 5.292145866072709426e-01 2.671910121373762825e-01
-7.932071295466652794e-01 4.184052314568115771e-01 1.936123187795867062e-01
-5.245653547951147910e-01 2.818450108767179274e-01 6.245301648533284622e-01
-7.422414888313909609e-01 5.407866167249822942e-01 2.404701258017069299e-01
-7.296780473739444828e-01 2.072859133525335462e-01 3.375965828523386780e-01
-4.884488120333858596e-01 5.524107579166759319e-01 6.144757557771982626e-01
-6.527554150882856066e-01 4.858610223582457976e-01 3.862318153135453902e-01
-5.166063958418884994e-01 2.686407367144949196e-02 6.963448794631622585e-01
-7.914131965300722493e-01 6.025617206009133836e-02 2.805521026021126629e-01
-6.481590201527198669e-01 4.709904184749789113e-01 3.965541370092804940e-01
-4.023760855459532215e-01 -1.029087200445087807e-01 8.964504424205592681e-01
-7.132094163020789024e-01 4.513178026874400256e-02 4.002001602251290535e-01
-4.280084305646545961e-01 2.418889778465314888e-01 7.772656153086310304e-01
-2.029978390272740296e-01 -2.415096183598788027e-01 -4.526578568735203922e-01
-3.568447544990988596e-01 -4.740191023280237448e-01 4.126401931137632095e-01
-2.697701539458866038e-01 -4.526931228575708510e-01 4.561233643692132467e-01
-3.159057654877334698e-01 2.328139577030180207e-01 -3.790594142732757743e-01
7.248627623540346843e-01 4.320865846778836339e-01 -2.592319735155055316e-01
2.139146821752177796e-01 5.088957945265596416e-01 1.041145633766782791e-01
-3.257075811104777618e-01 6.067761529071421522e-01 4.005540856160784147e-01
-5.021921487868895584e-01 4.918073731894729295e-01 -5.305305333822325775e-02
-1.403096899447325574e-01 5.186644573668111047e-01 -1.478083739552907561e-01
-8.293467043963369534e-01 -2.817273256871315468e-01 8.669899228214326958e-02
-6.886505192067797487e-02 5.688705197233747679e-01 4.163955490118465691e-02
4.879519951283022017e-02 -9.319897298330118152e-03 -6.796155892438573431e-01
8.354103805320237663e-01 -5.264822908712323002e-02 1.224939833987177540e-01
3.202457480189613293e-01 4.913285979453896335e-01 3.550971459824619342e-02
-7.008839293022073313e-01 -4.171025421551518564e-01 2.181428925883908132e-01
-5.173267960566025891e-01 -4.243179808833890676e-01 5.956670316742167515e-01
4.551140267887486268e-01 2.925598499079507531e-01 2.564806371203159352e-01
9.732976771796499060e-02 4.288976308790309888e-01 -4.087462152803153503e-01
1.764799676831492192e-01 -5.250553421890225003e-01 -4.560760882398097182e-01
1.114138212580244314e-01 7.011780879936445332e-02 -7.045902995510493483e-01
-8.784813068647273626e-02 1.088790317352417852e-01 -5.682283773423583151e-01
-7.722295657557340376e-02 5.622770969458179557e-01 2.653165953535867039e-01
5.717624800080328001e-02 5.160057631972746472e-01 2.724969538956407145e-01
3.172827127769861089e-01 -2.956874162919954641e-01 -8.178774560882480227e-01
5.057080863651711722e-01 4.507417247009412042e-01 -4.798015424960593717e-02
-1.429767116897075474e-01 -5.356549772077977556e-01 2.353131162872651796e-02
2.468544482914672988e-01 -5.817605985738213414e-01 -3.639834055267143209e-01
4.397739749370165874e-01 2.982607192010859887e-01 2.638317450644383499e-01
5.112947307173324463e-01 4.811084927774257336e-01 -2.657993750332365290e-01
-1.095423233579034400e-01 4.306066574516573264e-01 5.866756541204203312e-01
3.173361788876204459e-01 -4.549718661887531268e-01 2.207735525432479862e-01
-4.214401579582116031e-01 2.923583003800725444e-01 -2.838028060834495991e-01
1.136529721846295110e-01 -1.343513944064176346e-01 -7.203946574959048110e-01
-1.291593660878334604e-01 5.775951694277832171e-01 7.451378491791348091e-02
5.170562146656495495e-01 -4.781083149387378994e-01 9.752257118408753922e-02
-2.811279264176027581e-01 -9.907519295198044529e-02 -4.494709040789795496e-01
-7.423092644263503681e-01 -4.079360715567756923e-01 2.376017474132987306e-01
-3.889225551342955223e-01 5.192575780136299279e-01 -5.865976017386696773e-02
-3.297339691621732627e-02 5.664467787238680607e-01 1.376087433062214704e-01
6.262761016109628098e-01 1.850859086833852030e-01 2.003763006651886336e-01
1.337496527702744797e-01 5.300255329334828680e-01 -1.449407426061090076e-01
2.900614741189440071e-01 -5.431929288769224984e-01 -5.322975475516700250e-01
-9.043342708198022495e-02 -6.046972951683121655e-02 -5.872600980462236997e-01
4.169564162720841849e-01 3.318806906575775817e-01 2.492449253994902247e-01
-2.522471213529474676e-01 -5.129566494103567909e-01 2.283651911646649157e-01
-2.495193961676018257e-01 -4.688027959949309792e-02 -4.792578420303068576e-01
2.066241441902561260e-01 9.038066090784084572e-02 5.412735442346212622e-01
-1.092560007623905177e-01 2.038574334963660917e-01 7.392533930085662952e-01
-3.533033119669494182e-01 6.005452188377214950e-01 4.785875002554776381e-01
-3.040892284032930548e-01 -4.327262899172152899e-01 5.117485082709146704e-01
-6.080051870061432551e-01 6.383191313822794699e-01 3.074708851639174068e-01
-3.943385798433846623e-01 6.048889672974472331e-01 1.654808631102155370e-01
-7.484631526964948822e-01 3.658680595295665250e-01 -4.938335736729132508e-02
7.711304875123732305e-01 3.914489462921454388e-01 -1.770174346072455607e-01
-1.690586586921298540e-01 -8.728420797651317842e-02 -5.302795654042791185e-01
-1.667922292957970953e-01 -5.192501479706808087e-01 2.180766299872355929e-01
-3.142489680347073655e-01 1.990579221282187672e-01 -3.958606607088725471e-01
6.023299870335484529e-01 -4.071319126368201369e-01 1.317436834058294259e-01
2.844286629986252368e-01 5.168016311104680627e-01 -9.395926282606188729e-02
-5.035421310943931361e-02 2.875064813645857309e-01 -4.960497000608863893e-01
-4.035482740471035834e-01 -2.713639616196451554e-01 7.868831419013101458e-01
-2.802926936664940430e-02 -4.416390285519685710e-01 -4.094483388502248022e-01
6.914510521927192954e-01 8.745914376680442512e-03 2.154042509788299531e-01
6.418920628514167559e-01 -6.286118684312250182e-02 2.536270348568583910e-01
6.226490042235294231e-01 -5.022035444018103645e-01 1.667051514598690692e-02
-2.975596347481643811e-01 -3.926168859438139980e-01 -2.369443107729666820e-01
-4.508963818091782927e-01 5.860886167198027241e-01 6.438215321447632311e-01
1.686548685823367200e-01 -5.818263025425352009e-01 -7.447993823092494137e-02
7.360362308146332078e-01 -7.758025121694445136e-02 1.902116028847493645e-01
3.250460456078129723e-01 -9.528685689066336562e-02 -8.679386158665834961e-01
-8.591709733600997323e-01 3.984456175463110816e-01 3.578594728088214938e-02
1.952493897020355085e-01 2.203815467692688823e-01 -6.822887561083261776e-01
9.761416422148215810e-01 1.111771131479751852e-02 1.396263651658543464e-02
6.827053908941400628e-01 4.018977018561233350e-01 -1.085079367895512154e-01
-7.283569245319181096e-02 -7.246470789568740245e-02 7.159823057081983189e-01
-2.223188344093378621e-01 -1.922112811373227481e-01 -4.624853620384951625e-01
-3.584252071890891567e-01 5.996142394789057972e-01 1.431592920232301891e-01
-2.694608059351930041e-01 5.001088004941519616e-01 -1.395089109494581925e-01
6.103060152526473825e-02 -2.826830569002537485e-01 -6.309045418065690747e-01
1.485385109652561653e-01 -5.429208206696573003e-01 -3.813544890364123918e-01
8.677602953850084566e-02 -2.280267004317758639e-01 -6.760954173179141158e-01
-7.926538820984656564e-01 -2.795679480474487222e-01 5.262148949031809214e-02
3.795937716776264653e-02 3.485241277218559253e-01 5.464479883100973323e-01
-2.489091831638055308e-01 2.913303362463122159e-01 -3.827035544661510080e-01
2.388861442451793715e-01 -2.122971614132505291e-01 4.707402263919802654e-01
-4.717718397236431715e-01 -1.957099633689497395e-02 -3.287990278654795984e-01
4.586416459910427346e-01 4.137301912153975025e-01 -5.736458341425109131e-01
3.560785207363976745e-01 1.717978163654686752e-01 -8.058991403261047681e-01
9.433837860846346068e-03 1.650345732852660937e-04 -6.527721640060640818e-01
-2.249377632843153341e-01 5.910922052366341939e-01 3.305233507203443888e-01
7.434898407019508992e-01 -2.898111824725153052e-01 1.320336300007234343e-01
3.106835790179023338e-01 8.630264376288580841e-02 4.690186437639873862e-01
-2.579334478684093268e-01 5.881784982667869199e-01 9.705555576963192932e-02
-3.324135884536804086e-01 2.851423866589258838e-01 -3.394259511548533004e-01
3.593054796647784377e-01 4.047807289851921599e-03 4.440232448132859222e-01
-4.689182625050173914e-01 1.343058134145554972e-01 -3.208358893103054332e-01
1.634912502298525028e-01 -2.335348731135142575e-01 5.036610421964903272e-01
-6.231004972010459886e-01 4.840677546608868620e-01 -6.487323757877363865e-03
2.779600820194098598e-01 -3.371157885191980452e-01 -7.651106502559521516e-01
-4.485942118629066000e-01 -2.720527445080591078e-01 -2.395268779175906415e-01
-4.298561861601718492e-01 -4.760165558867421320e-01 9.924162100654428109e-02
8.850835487938514268e-01 -1.440577993584707742e-02 8.377848726323722239e-02
-4.073379012576229252e-01 -4.075101797245615498e-01 -1.120456993129892165e-01
3.563438923318517637e-01 1.765048484059190265e-02 4.455392035861123201e-01
3.410562580519675979e-01 -6.128222975941659545e-01 -2.494982102742960561e-01
3.101565281955541709e-01 2.152166857597386518e-01 4.244566516593291650e-01
5.327290693851447489e-01 3.604160247458806920e-01 -7.011761972074064264e-01
3.315039380087117515e-01 -1.802050808795476744e-01 4.289355246002325428e-01
3.284440465363557826e-01 3.019440175185341135e-01 -6.831060436125053759e-01
-5.495605158122008893e-01 -2.183834687050541928e-02 -2.746723516027479994e-01
-5.168034851105696159e-01 1.067198424846184102e-01 -2.952898099337050164e-01
-2.847487048976646840e-01 -1.733241086519908825e-01 7.991584225760094418e-01
-2.674121639777881088e-01 2.655274642545407682e-01 8.327037334736618890e-01
-3.799702252698596849e-01 -1.210317578159194052e-01 -3.731379988952803206e-01
4.276901208476125565e-02 -1.542450859730475077e-01 -6.668290840310757694e-01
3.341316337973033318e-02 3.555692637975040871e-01 5.439972956952028316e-01
-2.149740132910440138e-01 5.497510418252807840e-01 -4.818329514609366593e-02
7.569904700553626853e-01 2.652296935017511847e-01 3.350544018098498139e-02
1.271017453482409243e-01 -4.995972900375485470e-01 -4.586412789948618451e-01
7.472588968527937858e-01 -4.561239698942262111e-01 9.300340892910272453e-03
4.189294273045907069e-01 4.544728178793479012e-01 -4.599843878846027745e-01
-7.679925894721656432e-01 -2.639849600635505410e-03 -1.251825221985692349e-01
-1.201372034990677989e-01 -4.653354136290341891e-01 3.804538039451071385e-01
-8.608111091697184802e-01 1.115346117924960051e-01 -6.855476800682497318e-02
-7.458790621786095532e-01 -2.202466723425263728e-01 -4.305599257754246650e-02
-2.569199053502029678e-02 -5.363378821318224299e-01 -1.904450750933071868e-01
-2.447358558435026588e-01 -2.798478204754766829e-01 -3.957420951571047341e-01
3.381366427883188974e-01 -6.801280005780284410e-02 -8.756076194824033987e-01
-6.943651079893254918e-01 3.701754039831493537e-01 -7.678932865211296477e-02
1.336578919360947304e-01 -5.338518636740275936e-01 1.397715759439020489e-01
-5.796093866887652712e-02 -4.821624928273335331e-01 3.230289451501140441e-01
8.141661489466345270e-01 3.094985090616235723e-01 -6.778264428915360684e-02
4.881040603494591901e-01 -6.352208447803135982e-01 -4.113466581547377543e-01
-2.542666112240929976e-01 5.085375211628457848e-01 -1.299959469291321335e-01
-4.021982025542489847e-01 -4.825255843669549183e-01 3.733978780614646831e-01
-7.097066161886992353e-01 3.257205827737394421e-01 -9.706604822524479703e-02
2.224289240234891551e-01 -5.115954629404381171e-01 1.665853202871853955e-01
2.106492157885452299e-01 -2.586868956665767660e-01 -7.550702052658564423e-01
-1.735244457326632628e-01 -2.324776301494317354e-01 -4.799526564165064735e-01
6.911007374787880853e-01 2.951121793017129069e-01 5.719238084155997548e-02
-1.426672475545548990e-01 5.810977915101553926e-01 2.487719169657094664e-01
-3.354169851228971932e-01 -2.864731272028649967e-01 -3.186325653670057378e-01
3.057802223562004484e-01 2.979792353297646690e-01 -6.757470119233897066e-01
-6.992491595054990405e-01 3.121835208968233855e-01 -1.109076303938262564e-01
-1.828685306795326815e-01 -1.735245546829128072e-01 -4.988588406657272767e-01
2.665890442472260147e-02 -4.469554479474915354e-01 -4.511626045437190924e-01
3.476066036713634788e-01 4.473418713297599991e-01 -4.620613305564830187e-01
7.223413212193170452e-01 -1.078641194032587403e-01 1.975206056946759714e-01
-3.262397871821391959e-01 -5.069583890677078486e-01 2.031434854987860250e-01
3.000910594537256060e-01 5.057656339314586802e-01 -2.436123073249678861e-01
-4.611923093723323541e-01 -4.571792652998081241e-01 4.840326137390965622e-01
3.764350168322440071e-01 -4.808721824234972742e-01 -7.157399584144641391e-01
2.191830373492664186e-01 4.529937833772235689e-01 2.526971683096896348e-01
1.547828817380588196e-01 4.465067003200390849e-01 3.266702693239085242e-01
-3.402080199530638227e-01 3.724794347316340848e-01 8.293101721329581011e-01
-5.309050906842726070e-01 6.461283335743223111e-01 4.519357664729174995e-01
-4.454980545839865025e-02 5.383098393891891931e-01 -1.139966145352410837e-01
1.038400343442834745e-01 5.379505672968579733e-01 -1.039535253902307554e-01
-6.315234309869773854e-01 -4.472034522885961483e-01 2.516860662480059907e-01
9.906521327438061464e-02 4.596681429564990901e-02 -7.030689469245675616e-01
-3.717429346972477289e-01 -4.956154792039040857e-01 1.272910294011892762e-01
8.539861810809423748e-01 4.037508639682420020e-01 -3.120112677298289006e-01
-1.120662138378817133e-02 1.143751168449978761e-01 -6.141382235054100303e-01
1.747341536289897246e-01 1.530703317868442603e-01 5.496920696158645869e-01
1.890262582050430407e-01 -5.199595451381489042e-01 1.597363958747173851e-01
9.655313137397499024e-02 -5.692582323836896663e-01 -1.516100658176819556e-02
2.958772486126742818e-01 4.134376470751387478e-01 -5.151156934496814443e-01
2.277914208791888551e-01 -3.611216582115134299e-01 -7.093881406969547720e-01
-5.549345169949692069e-01 -2.760329855929759546e-01 -1.498101078940212993e-01
6.836660309064659380e-01 4.357229732333177674e-01 -5.528957054910309532e-01
-1.733623659601986333e-01 -1.656039502935615637e-01 -5.085366447685369939e-01
3.164807450309236603e-01 4.240897257159411682e-01 2.121639402141382025e-01
3.793360844147640187e-01 4.894794965806036346e-01 -3.992951629877632136e-02
-4.606326983705709144e-01 6.339482913131623265e-01 4.312147038344371075e-01
2.615248988907651895e-01 5.073451465914723402e-01 -2.448849112814105167e-01
4.594594180685200868e-01 2.816196114239269965e-01 2.625793824892873052e-01
3.818360574395489038e-01 -3.428001880625438647e-01 -8.416685297194069770e-01
3.929425241069353092e-01 3.276990929000301311e-01 2.738794696772568482e-01
-2.667343361168074689e-01 2.209900118564445681e-01 8.476936192917410295e-01
-3.474616615187521851e-01 -3.632546068345070545e-01 -2.316609475315839772e-01
-2.651370625661667590e-01 4.896366805463646110e-01 6.465130793644322527e-01
-8.745001071308661222e-01 2.749044579349289585e-01 -2.379882623742037712e-02
-9.329602675621981311e-02 -5.441226826780929393e-01 3.567776801397222475e-02
-1.408690930095813643e-01 -5.139731148681808692e-01 2.448331641115634727e-01
2.548395478461095709e-01 1.884102548570731894e-01 -7.373441037964195699e-01
-9.344197794858742634e-02 -5.381921369664173227e-01 -7.332635827687467023e-02
-1.992952071161303851e-01 -4.621122113311690871e-01 -2.102557135707171510e-01
-3.479243256623848479e-01 -1.352853387357209336e-01 8.577791567615434820e-01
-2.237601657332921323e-01 1.627594353411402905e-01 -4.656554271610408580e-01
4.943527045917122664e-01 4.272840439111543209e-01 -5.528983700249059385e-01
8.389783105324979395e-01 2.561035747101224058e-01 -2.567377623407902584e-02
-6.752873719479897119e-01 -5.776076822238814662e-02 -1.788827238978535072e-01
7.088449025398482761e-02 4.963216950268252159e-01 3.098394977204283474e-01
4.301283976073418946e-01 3.717427491420758900e-01 -6.400294324587006978e-01
3.881511731803757859e-01 -4.254252638036497558e-01 2.233199490033887236e-01
6.702818045573591954e-01 -2.706732942275185683e-01 1.849747869460087457e-01
-9.389452032741671950e-01 -2.419418306950592290e-02 9.904699059035688546e-04
3.678825394515058966e-01 4.766021192970985587e-01 3.112301600222905015e-02
6.575958933965097009e-01 4.476897303448502119e-01 -4.935223897021912554e-01
3.099996407435167689e-01 -2.179973164082210091e-01 4.255627455471044374e-01
2.227036746846241533e-01 5.263012536736635383e-01 -1.026986540653056640e-01
5.425786023298394545e-01 2.091357308702793405e-01 2.502159599891118913e-01
-6.957983500556266798e-02 5.729049541830416592e-01 1.026468921587894712e-01
8.525907453568428718e-01 3.929796378293345938e-01 -2.727262630453465286e-01
1.839508667633336925e-01 -5.773170262621332149e-01 -2.928223958449456821e-01
-2.542296781437772824e-01 -1.427457437828313913e-01 7.985590865177950581e-01
-4.332317083793233436e-01 6.211751305708214099e-01 4.907645394542672346e-01
8.062924481334488025e-02 2.320222483865846674e-01 5.887896044626570458e-01
-3.396742343006272646e-01 4.721020334561449872e-01 7.357040565063549531e-01
5.197555885929832087e-01 4.390773317820869104e-01 -5.261243820025970352e-01
-2.465311797312886022e-01 -3.825259096886387544e-01 5.767559635784675898e-01
4.110175325091123821e-01 1.109361766469967869e-01 -8.720837112465763541e-01
-6.296232374904657814e-01 -4.583463817904568360e-01 3.476353075885796340e-01
-3.145825736562581354e-01 -3.807608201794385749e-01 6.090254497786236065e-01
-5.391383444698926164e-01 5.805677885885883738e-01 1.178055568349445636e-01
-3.450927714079581737e-02 4.892893039313223058e-01 -2.469940448892871399e-01
-8.515959000411452151e-02 -5.164809234996869947e-01 2.318376774798287798e-01
-5.027321090875453979e-01 -4.766336429816404596e-01 2.341217607272168544e-01
5.308331739000763383e-01 -6.255440698145116052e-01 -2.301547550630163030e-01
-1.187423833410920920e-01 4.745103479379096933e-01 -2.440313868453489743e-01
4.562308381612231178e-01 2.251274304707391871e-01 -8.227744146934388159e-01
1.629628999366809217e-01 -4.417633043938562487e-01 3.091204266174785720e-01
-4.786816813475534005e-01 3.495145440622434707e-01 -2.120527435696527296e-01
1.236678007609746596e-02 5.466938809463173232e-01 2.123561238607778734e-01
3.451151292007736404e-01 4.502925920555529427e-01 -4.540070090641808997e-01
-2.565367833192173097e-01 2.161688225093663929e-01 -4.226726447570261502e-01
-6.924522501136447517e-01 5.020306875524068735e-01 4.885550081286438306e-02
4.684768287752227867e-02 2.606339550537617455e-01 5.998820121116903437e-01
4.186792730583147604e-01 3.988041094490137883e-01 1.587384007881679215e-01
9.781963157938411424e-02 -5.056042912622763508e-01 2.209449728857908468e-01
-1.897912003503866574e-01 4.799454505669354942e-01 -2.061532381921276080e-01
-6.889604744017933102e-01 2.985189734769020942e-01 -1.243504576412935575e-01
8.283595500620413166e-01 -3.398980379307761091e-01 5.520586564761027770e-02
-4.399914800775405199e-01 1.403473734266812434e-01 -3.377732578549765829e-01
2.796239742007225037e-03 2.478275299794496789e-02 -6.452537372959944451e-01
-3.123648017655421549e-01 3.483985946867327321e-01 8.237904044251691538e-01
3.448413489851557823e-01 -4.777662220229716983e-01 1.761680333636269358e-01
-1.302991797583298028e-01 5.656483235809319776e-01 3.262985162696643293e-01
-6.837542711391745298e-01 -9.864481945277749075e-02 -1.597836736980995376e-01
8.341669126367226017e-01 -1.301207332899183278e-01 1.217439118821807831e-01
-7.665375713813354919e-02 5.308906605981150717e-01 3.807386205926345801e-01
8.446151403086198384e-01 -4.255315191207637571e-01 -1.411983794860110705e-02
-4.389725422951892830e-01 2.363735735610881517e-01 -3.039631125987626858e-01
-4.834935714739555523e-01 -4.583300231485993859e-01 4.810764763944829769e-01
1.068947390170046502e-01 4.642899636775466576e-01 3.407532959080908364e-01
6.516997230635398486e-01 3.969846488507165483e-01 -6.476952301919461363e-02
-2.445401664427074018e-01 1.594062714658025792e-01 8.455918492541246723e-01
-8.191290028198620898e-02 6.319155112512166161e-02 -5.836718217543119813e-01
3.322998378485974014e-01 -4.934437309077751438e-02 4.599524288221958357e-01
-6.532066527948376944e-01 -4.354320121932653276e-01 5.785300595106733779e-01
1.697202667183851932e-01 4.861739910029423406e-01 -3.145775634470749371e-01
-3.066340481217174063e-01 6.099405585939581265e-01 3.195770217047927964e-01
-5.251738297856619608e-01 5.692304877412838193e-01 8.813327882435999239e-02
6.912704369612506783e-01 4.386766609502879000e-01 -5.373235242121459088e-01
-8.628801930480192173e-01 -3.616164059578443335e-01 2.470206779022484089e-01
2.640527531990385923e-01 -2.193125864982641005e-01 4.522730094813953716e-01
6.927793619840052486e-01 -4.454955858039852945e-01 4.799653656645959388e-02
-4.099649320427266042e-01 -3.118825330013809127e-01 7.459696736157160890e-01
3.857182013000834964e-01 -6.196397804967558320e-01 -3.281209087947379310e-01
-7.035007753000874775e-01 -3.798148073187770923e-01 1.244019229597591036e-01
-4.454493767440314000e-01 4.741538572563407383e-01 -1.029867867056230152e-01
2.435582714802347337e-01 2.429264739953465035e-01 4.598473062517754451e-01
-2.829924788260128055e-01 -3.771338743945528149e-01 6.007478081345370979e-01
-5.099289679745302450e-01 -4.744967659181850705e-01 3.802061940940952289e-01
1.000937698433692208e-01 3.852361858701499470e-02 -7.053944492346189143e-01
-2.473755343077761737e-01 5.971739450331845500e-01 3.244545325795378798e-01
2.061731490450789683e-01 2.427788810077989301e-01 -6.720089300673695032e-01
-6.831973428306271634e-01 2.898874366710211814e-01 -1.322158912373992412e-01
-1.258847502058245138e-01 -1.971357030594111659e-01 -5.317232885058791325e-01
3.120505728617134489e-01 3.494969539772844747e-01 3.188443243959209195e-01
6.541925130664901777e-01 4.286911188350525648e-01 -5.806279813430463843e-01
-3.735969416025376466e-01 -1.395399959320534067e-01 -3.717041533879212323e-01
-2.055369166612507903e-01 -2.012178186804657876e-01 -4.710253993797515748e-01
-6.796875779084883551e-02 5.559908229206094177e-01 2.832846621059905701e-01
-5.713559129100813372e-03 2.964091166143938416e-01 6.193501282343861769e-01
-8.510436327683669200e-01 1.303390480749675763e-02 -6.965262440152203416e-02
-4.416180894434429405e-01 -3.124704179278960381e-01 7.605400752430631073e-01
-7.054545534012133245e-01 5.133192862779517585e-01 6.946387789380446820e-02
-8.057240063802957597e-02 -1.528717526802754745e-01 6.902110721852035002e-01
-2.057340015300329339e-01 3.390600622913881312e-01 7.470320302824219327e-01
4.855270522231963648e-01 3.932797771980137691e-01 -6.245367508178016891e-01
-2.788087382744349196e-01 -3.752295347123923291e-02 -4.599005478680481263e-01
-2.363925013179020151e-01 -1.456849477462527909e-01 7.864851595361939118e-01
-8.783874970945648730e-01 -1.671510176018918825e-01 2.256311722284115931e-02
-1.642273183625309607e-01 3.303904998906497248e-01 -3.989050508778740345e-01
-4.790517140953282627e-01 -4.802881056493434331e-01 2.169915243324196108e-01
-8.227587125535952284e-01 4.698700938727486398e-01 7.738815976119231554e-02
4.648874870817765736e-01 4.766001946759568786e-01 -3.735201299132082653e-01
-3.777305408102331619e-01 -2.709797917759428354e-01 7.739094666011385737e-01
-6.431786462626354339e-01 -4.541609581375088411e-01 4.612949803294511542e-01
-3.592509870533781569e-01 5.905863234329552514e-01 5.254589205300091992e-01
6.258848102128965474e-01 3.712168681633490896e-01 1.035634165513857861e-02
5.534935792064041293e-02 3.522914270251763930e-02 -6.773849434899585908e-01
2.552151010827868327e-01 3.408472278552616697e-01 -6.029855030498756374e-01
3.856581510875433105e-01 2.531290116461312051e-02 -8.897185704154340069e-01
-4.236696009355316039e-02 5.910773350394206427e-02 -6.098536302407351339e-01
-7.287632226952638348e-01 -4.137470463463686632e-01 2.404961018964058006e-01
-2.731758266717969064e-01 -1.530918186611182896e-01 -4.401736796208914337e-01
6.244849903144522596e-01 -6.280000616205220210e-01 -2.427010318120997046e-01
-3.828639675503910378e-01 5.567091245347669526e-01 6.414012702390751164e-01
-2.534621107745023139e-01 -3.787041483592221147e-01 5.853992760136185192e-01
3.311982372317598400e-01 3.409133486000801017e-01 -6.392798680033596748e-01
-8.653233745571703439e-01 -3.121226305683114793e-02 -4.990290807409573925e-02
7.890639950756459520e-01 2.632771203354155043e-01 8.711148643690023313e-03
-1.699302276026976588e-01 -5.289222331281766554e-01 1.454453073273241359e-01
3.395170872667143125e-01 -2.843302597122684960e-02 -8.720619348122361503e-01
-2.649424029041501094e-01 5.736452285096358406e-01 4.687104924333769240e-01
6.497499576401746801e-02 -5.408002532544118335e-01 -2.899848694573671781e-01
-7.354226495312552458e-01 -3.292276010516495544e-01 6.668358873359471473e-02
-6.979182168951434395e-01 -3.223696053244332060e-01 2.339232037225479066e-02
-6.613153828768457698e-01 -4.504596986576649420e-01 3.295817305612596670e-01
6.009240147746862659e-01 4.664262249836456098e-01 -3.552686945972616250e-01
2.210085503036557930e-01 2.669621688675020144e-01 -6.604542196202627391e-01
1.319431343911576793e-01 -4.445421546841292204e-01 3.188101097406291773e-01
-8.770945758662032077e-01 4.142812132952627957e-01 5.757188786577770861e-02
-5.990103202867164134e-01 3.551334851393522229e-01 -1.409723187415922174e-01
-9.043648659726404304e-01 1.813142356447320080e-01 -3.200605714208524383e-02
2.500497670560382635e-01 5.072851742539583597e-01 -2.470354490207490594e-01
-1.416836448472957345e-02 5.123774591160960012e-01 3.609131445046647180e-01
1.168184054864802035e-01 -3.635808528764991610e-01 -6.188514468385634126e-01
-5.208732425169123603e-01 -4.614537920352772549e-01 1.598901551820847700e-01
-4.391521256682949237e-01 -3.812779911636560159e-01 6.599192327756547849e-01
7.302272105213802877e-01 -3.957588417765497968e-01 7.239665851896534554e-02
2.544367938834716236e-01 -1.884770817985018110e-01 4.724730069872692395e-01
7.508860805473862587e-01 -5.635142464081811520e-01 -1.309006453745306664e-01
2.212452086192311651e-01 3.272093983098106618e-01 4.162047599569478895e-01
7.305265981048062462e-01 -3.631742887875893944e-01 9.640177568907386252e-02
-3.851018744324956056e-01 5.589621436691628587e-01 2.060385742870222969e-02
-3.712745455719976828e-01 -2.480218308081872103e-01 7.918876364346655317e-01
2.294502421027751204e-01 -4.237135394426032042e-01 -6.554354780663890212e-01
-1.868061865350794659e-01 -5.220019808551833451e-01 -2.086926036702285714e-02
-4.507032698588845920e-01 -4.607709487090345113e-01 6.346168861548794060e-02
3.432497516337653515e-02 4.416991660689777444e-01 -3.616742903198476577e-01
4.775207885412965370e-01 -3.313006707436116360e-01 2.610413073986866950e-01
-2.755960583120426466e-01 5.887294218858709627e-01 9.778429199292781870e-02
-1.948598990602020686e-01 2.901545386387922587e-01 7.673111544397323014e-01
-6.678533556170394014e-01 -2.771308669578940731e-01 -5.542218159483514733e-02
-2.508272443139769048e-01 4.283076403918932851e-01 7.090436127003149069e-01
1.658621215305271512e-01 -5.169508401429450117e-01 1.738324137997133145e-01
-4.835989691269615420e-01 5.394215576215557473e-01 1.435836118694724765e-02
-5.864735599574939506e-01 -4.375437645696305666e-01 5.676061666235329151e-01
-4.224845989718503669e-01 -3.001607002114174416e-01 -2.361416535353670354e-01
-9.704828315516114690e-02 -1.370000430218628329e-01 -5.715152403167075290e-01
4.593649308259703523e-01 4.841288508822383929e-01 -1.425150940749809192e-01
-4.184770305443272775e-01 5.765462211992539165e-01 7.390149854581107292e-02
7.918850009187855532e-01 -5.043961936246004196e-01 -6.604782165268442695e-02
-2.949598791959271438e-01 -5.001779231136039838e-01 2.974668226286824035e-01
6.944424068831456243e-01 3.160580376147130166e-01 2.927378448354980497e-02
3.832903200037295899e-01 2.683631896438079707e-03 -8.941234706386309572e-01
-7.015427988608656171e-03 -1.989231451293579488e-03 -6.421639788437866203e-01
-2.010084420703482366e-01 4.846941209710970977e-01 5.955855175369422216e-01
-6.073144145321065501e-01 4.634741769931334798e-01 -3.829854288024148179e-02
1.920414272894054586e-01 3.979509189349134113e-01 -4.974477092121660227e-01
-4.555185750592424254e-01 -2.731575722390577887e-01 8.116871808851621184e-01
3.898852029469507263e-01 -6.092520864870940578e-01 -1.668535094383733208e-01
-3.332219437689643571e-01 6.088814114373031217e-01 3.986797764458350213e-01
4.444138633400950833e-01 4.917109055589131694e-01 -2.237363335854100077e-01
-4.116752561972498170e-01 -3.947044017356953760e-01 6.253131180538629152e-01
8.576745425530003519e-01 9.601428007695550493e-02 7.108935915546231443e-02
6.964711128264013951e-01 4.510844205217950376e-01 -3.597041647355033733e-01
3.982436342295302967e-01 3.530098045406235840e-01 2.411594181320302621e-01
2.133305024849439235e-01 4.685507384277003418e-01 -3.717940347007168134e-01
-6.198326812485746018e-01 4.343399284122294590e-01 -6.265348065506168296e-02
2.574901115427591369e-01 -3.578586020910723420e-01 3.591221820322325065e-01
4.120509621828312152e-01 -6.089931618910727762e-01 -1.612811304342480767e-01
1.660261129479140008e-01 2.006136332770031561e-01 5.391555499785736227e-01
-6.842045568595603311e-02 5.620063194145387131e-01 -9.150848729558539937e-03
3.638763418602145028e-02 -2.937919125872741621e-01 5.333357416397970230e-01
-1.451146123867810833e-01 -1.452466676741062113e-01 7.324442063609947207e-01
