-4.343307018871099268e-01 1.513784921285447060e-01 -6.017732668753548175e-01
-2.019184681577256280e-01 3.708011314694441563e-01 2.947614099914891983e-01
-3.314750198355798649e-01 -2.609862847847242984e-01 -8.491145242492484924e-01
6.914221633651693177e-02 -2.059195558052898389e-01 2.877134263170980089e-01
2.501530629126650362e-01 -6.900360518482251404e-02 9.430087754881146811e-01
1.510790626955565708e-01 1.044901694786049828e-01 8.984270803298093355e-01
-4.491189739395278213e-01 2.243520597463027622e-01 -5.489097510414093772e-01
-1.747365101470289006e-01 -1.819235573363486569e-01 -3.316205225341771201e-01
-2.245367633932079388e-01 2.628869948477454699e-01 9.807586081508576359e-02
7.867590051293404940e-02 9.907701005984642650e-02 6.987077835063068010e-01
6.312077515751408907e-02 -7.623721537866354758e-01 -4.318324979718582979e-01
-1.466254167887793003e-01 -4.126481166983208548e-01 -5.484327887109397004e-01
-2.499380578226172434e-01 4.154018694762292574e-01 2.232287720444207368e-01
1.915959766278655385e-01 6.742537219556844763e-02 9.595007050321806563e-01
7.386480945619512684e-02 -3.734712609127840421e-01 8.846369931382369600e-02
2.265143128024832975e-01 -8.519609447453738715e-01 -1.098308470169900991e-01
-1.221575855550897927e-02 -3.585671213489023401e-01 -1.220044797233370282e-01
-1.236612745582656436e-01 1.246541278687611325e-02 5.019917958984751460e-02
-2.667675496919869604e-01 -6.500065876706865274e-03 -3.550007146217867837e-01
-2.540707457961003390e-01 1.752836305057079991e-01 -9.135420244259001565e-02
-1.641106561410998754e-01 4.841197166093253457e-01 5.387431590862706843e-01
-2.338916442070611279e-02 7.651028742356008605e-02 3.982850999610996201e-01
7.819098846721866947e-02 -4.812125441532641434e-01 -3.622562387940343048e-02
-1.395429985485346358e-01 2.895202402288921117e-02 2.873517223154217759e-02
1.241273737347064893e-01 -3.223210489003822121e-01 2.870263065884844367e-01
-5.826127059742647329e-01 3.599433976414024849e-01 -7.331014096915284828e-01
3.471437636902727913e-02 -5.483602158794854686e-01 -2.369361355667548019e-01
-4.032168977838244128e-01 2.743155848655723372e-01 -3.634633884534571591e-01
-5.081018395002888655e-01 9.384137004870990451e-02 -8.710353988348221721e-01
-2.037641268115126525e-01 3.371909727683321534e-01 2.473524831257610523e-01
-4.896072231670562935e-01 3.884095689552763409e-01 -4.493541650247789287e-01
2.083673059405000416e-01 -7.899253330126404515e-01 -7.974321330672040631e-02
-2.964022608367093969e-01 -8.292699313263136862e-02 -5.305690960504666487e-01
1.257571312127480634e-01 1.939962136241916435e-01 9.441313451509428800e-01
-5.387534845975523456e-01 6.828831707921850791e-01 -2.079818347571756876e-01
-1.372665199206234976e-01 -5.993452806308799952e-01 -7.595368084053967239e-01
-2.431038471176460714e-01 -8.600762106771935034e-02 -3.924815825048170170e-01
1.747462990793544890e-01 -9.247181810715816574e-01 -3.397209125508581784e-01
-1.331075970279693155e-01 -2.073081436749045769e-01 -2.528177109295733915e-01
-6.121115155720688837e-03 5.920605227124110803e-02 4.224084591283931989e-01
2.772310314142715781e-01 -8.214741292939744532e-01 6.381751148651554351e-02
3.014354132766906558e-01 -6.104073514028173220e-01 3.951408616323249801e-01
1.620934744358787927e-01 -1.798899998225231556e-01 5.682356858253064802e-01
-1.798543923446966480e-02 -1.567181968288106769e-02 2.961372363335655344e-01
8.697241103938306572e-02 -8.742476742049325455e-01 -5.097345181108550172e-01
-1.307832933408386300e-01 1.459601798124529615e-01 1.999999444870567966e-01
-4.001594726180200401e-01 2.298573817015415327e-02 -6.730670177558677469e-01
-5.655948003328533646e-01 7.690739318392106894e-01 -1.705164820923576463e-01
1.605336010145869130e-01 -7.926005895204507601e-01 -2.105502084390426798e-01
-1.953688740081457043e-01 1.489273302600054860e-01 3.170095190340298241e-02
-3.909363919737460225e-01 -1.797356341736607022e-01 -9.047917373654623674e-01
1.728859374232527280e-01 -2.348171928574455669e-01 5.275431465072346615e-01
-5.167690263245080518e-01 4.434911028816347356e-01 -4.520729698177509692e-01
-2.576097056101863125e-01 2.548186909237400988e-01 -2.280282914017961861e-04
-2.029809342571279596e-01 -9.034027521713451549e-04 -1.780031372704466708e-01
3.495171521241957624e-01 -7.705599134009508688e-01 3.207505600936687018e-01
-8.746539184331001207e-03 1.540036533229403870e-01 5.352641568557586771e-01
2.401830742123691187e-01 -2.147825197510820350e-01 7.321459590738041978e-01
-8.754297653299439319e-02 -5.265494091012778988e-01 -5.350441855084537845e-01
3.758085631889686029e-01 -4.353460203852693722e-01 8.145888240556332649e-01
3.641471484439412487e-01 -7.178935753423384414e-01 4.263079522546922018e-01
2.505250904463025008e-01 -3.023001749394266802e-01 6.490503837642138674e-01
3.873253504274214443e-01 -6.012534002124587662e-01 6.355170966326572080e-01
-3.714853084865277211e-01 2.704212548372091351e-01 -2.838567227149427774e-01
1.891184156298918173e-01 -6.917769983240049658e-01 -6.934731362343172362e-03
-3.894549248019313348e-01 -1.766767174447681221e-01 -8.969779488089016928e-01
-2.115335302301717957e-01 -3.116645711981987921e-01 -5.936719662522441654e-01
-4.521252611213548711e-01 5.706561737029475223e-02 -7.684131673854990296e-01
1.152966112077764838e-02 -6.656243825724578178e-01 -4.469515234110276736e-01
-3.868526616467644064e-01 5.227718909421849025e-01 -5.755099696017915677e-03
2.899397644771337101e-01 -5.221252693306237536e-01 4.761297025827789242e-01
-1.145939244788731215e-01 -1.245508397218838131e-01 -9.887149722971592947e-02
2.276385011036539952e-01 -3.523240064378899694e-01 5.248389961470588672e-01
-2.989500869397302973e-01 -5.554384695035681496e-02 -5.027366375137662935e-01
1.551863559159677997e-01 1.006338559395854038e-01 9.044931310171462346e-01
-2.217947379349449050e-02 -1.130832723545670826e-01 1.618104953740256147e-01
-2.887568656297780922e-01 -9.037754217631702169e-02 -5.196219327788595965e-01
-1.030246269926650415e-01 3.278733117540514885e-01 5.039335654886835103e-01
-4.557169714690603723e-01 2.024055677418078736e-01 -5.942324845713202741e-01
-2.590258226886394399e-01 5.854697330418516810e-01 4.140311673220989364e-01
-1.644770428455882838e-02 6.930826016425492564e-02 4.076712407462032561e-01
-2.242388780420030703e-01 6.806832248863504964e-02 -1.474336560772895599e-01
1.489379307579777323e-01 -1.930151496676849876e-01 5.165967727450742064e-01
-3.878995053738697463e-01 3.219320824502063250e-01 -2.624591868423089003e-01
-2.962224778113730084e-01 -2.017565691832926000e-01 -6.803226271756495080e-01
-2.998868194454870073e-01 1.211020417291345519e-01 -2.819042258234918941e-01
-4.469798335740159945e-01 5.792254683749318428e-02 -7.536228154287323289e-01
1.286366141932422658e-01 -1.360733290744298440e-01 5.345055979303962035e-01
-3.020653608818511526e-01 4.493323244088153201e-01 1.272634495895672568e-01
-5.304547589653522272e-02 3.273877551136234465e-01 6.364597235700721889e-01
-1.167083198593737853e-01 2.766526164223170325e-01 4.027247220775129755e-01
-3.472816794194490408e-01 6.096163766563674757e-01 2.094532159904379798e-01
3.164701510560614106e-01 -4.647406557236150038e-01 6.193538462400454137e-01
-6.651970351028685391e-02 -6.606528123444608269e-01 -6.485827197615247064e-01
-1.580780891158213575e-01 8.266916435771341776e-02 4.727220625481977356e-02
2.062510517674538135e-01 -9.081131919500887717e-01 -2.348018816148990384e-01
-2.054307905781647126e-01 6.089232013386202125e-01 5.864550607341373345e-01
-4.914859772463308074e-01 8.187836359405400444e-01 8.974925822622419058e-02
-2.568412341141794730e-01 1.438426056986540080e-01 -1.384844265648388917e-01
-2.654404961106742178e-01 5.542410228398174654e-01 3.574615794538016367e-01
-5.008810482455650082e-01 1.586142138562651460e-01 -7.699096022074429779e-01
-2.196062409431090989e-01 -1.338192917480847954e-01 -3.903328168384034291e-01
-1.399333476408268773e-01 -5.321675779897082625e-01 -6.817103663812735803e-01
3.093598933133946405e-01 -5.565053917762073921e-01 4.843975094030941730e-01
-1.748623334163881271e-01 3.783053043731136045e-01 3.763238439621953146e-01
-2.857617696428871867e-01 4.747618248618586945e-01 2.028444820546433103e-01
-2.793070348040949114e-01 -3.036365925416134037e-01 -7.640650614752204639e-01
-3.567977883230137592e-02 -4.913394017924940793e-01 -3.523703268692019441e-01
-2.623745218104771015e-01 2.793807239616173943e-01 1.813192127555408525e-02
3.527159350946877936e-01 -5.986626943599707706e-01 5.465960265993121681e-01
1.498914149761249315e-01 -9.091518880293758542e-02 6.482185065397987334e-01
-2.776583191547954965e-01 5.778939326771129759e-01 3.548180033196274841e-01
1.313013120723931504e-01 -5.398977918864639181e-01 3.106168029234955552e-02
-5.265174302796378214e-01 4.904192394776761832e-01 -4.187121025941273889e-01
2.986333091992237065e-01 -3.194235692693125350e-01 7.555578542678840215e-01
3.547894990133222681e-02 1.190196527304473867e-01 6.088477824399938232e-01
-2.055397116385384026e-01 5.244223963688874335e-01 4.793332219730155885e-01
-2.230908955738250543e-02 -7.430038875704388923e-01 -6.349234075799715660e-01
-3.422435542301277556e-01 6.558341872663100425e-01 2.813060446522211988e-01
-3.191649179238712497e-01 -8.584711123569375990e-02 -5.948986109940657130e-01
4.099254024649760519e-01 -6.388232215282797499e-01 6.482233022896849439e-01
-1.186483332070494279e-01 5.280742673220333305e-01 7.154211026337040646e-01
8.975130828199149452e-03 -6.336561616851121848e-02 3.076600556854214297e-01
-3.977927124812880022e-01 4.581473554571766083e-01 -1.166011729329433921e-01
-2.900203500761015518e-01 5.635196727372298042e-01 3.037137277400973057e-01
1.583009323817771430e-01 -6.556630918316652679e-02 7.026684991259181112e-01
2.232781622283773193e-01 -5.034048153365643374e-01 3.222167734887944612e-01
-4.248440921081420019e-01 6.705684991441370757e-01 7.989364992099566576e-02
-1.772050834310074929e-01 -2.452060048913522194e-01 -4.182025707623656108e-01
-1.871549175720531311e-01 -4.692865741356043174e-01 -7.280059911838813180e-01
3.686647889177346316e-01 -6.641140274556999179e-01 5.063343198972681813e-01
-5.181181424570825422e-01 7.656063888771648118e-01 -4.842677486007916643e-02
-1.939270074513972930e-01 -3.892343082531466436e-01 -6.448387027367979973e-01
-2.783443677862341981e-02 -2.578458825640213559e-01 -3.627259340772829438e-02
-2.153246134262084832e-01 3.573991543761318446e-01 2.421049325758677928e-01
2.784806118782826023e-01 -2.306653597651498189e-01 8.140870374873367954e-01
-4.316508592609776818e-01 -8.232220943060662710e-02 -8.900947745930484212e-01
-4.012373588744036490e-01 3.571575326166723796e-01 -2.534556298925477735e-01
-1.111629949265817985e-01 2.152507324026660118e-01 3.398685256379967989e-01
-2.675411829156287835e-02 6.185013535050441769e-02 3.707867964415170747e-01
-1.435626487011263386e-01 5.131643117952378041e-01 6.302013897876896920e-01
-1.572094347122886260e-01 5.817915293875759453e-01 6.806107711036710750e-01
8.595791083493328766e-02 -1.709284989880121841e-01 3.767470284009219461e-01
9.699142021240679534e-02 1.771525092235341214e-01 8.462070785345525703e-01
-1.320871520770382224e-01 -5.175405109374300316e-01 -6.423162602316085934e-01
2.091502029666879592e-01 3.465251042145461868e-02 9.648299214566659066e-01
1.247407925348184843e-01 -3.148808917651788608e-01 2.980667541964947542e-01
1.266192142522420683e-01 -5.685302973419728012e-01 -1.761018045871875007e-02
3.733276057979676432e-01 -9.007792340853532087e-01 2.195473503990706954e-01
-4.712858692348123602e-02 -6.254497978528748003e-01 -5.524204499843089478e-01
-5.262068882816774984e-01 6.359421883769013073e-01 -2.339048059261533141e-01
5.495061113575076123e-02 1.711304508006756542e-01 7.266005895569729311e-01
5.631504126888346728e-02 -3.458840498122367491e-01 7.659030563798828461e-02
-5.937484033304547548e-01 6.602607309535485358e-01 -3.830842592710889671e-01
3.664809109435952506e-01 -5.536018083250201505e-01 6.402337495104168941e-01
-5.617883850661899992e-01 7.971459290414529830e-01 -1.248859948798035080e-01
1.888027179980832360e-01 -2.552047376654144606e-01 5.441687151393389543e-01
1.344087834531476622e-01 -7.296943923611221017e-01 -2.006141023529474932e-01
-4.145605662283395609e-02 9.241016531054424554e-02 3.702582096950355894e-01
-2.811632080660132482e-01 7.096695303465792026e-01 5.120809906381217358e-01
2.201012219914358081e-01 -3.118244248812152702e-02 9.107694271644247719e-01
9.286420563693770789e-04 -1.915443385170850221e-01 1.241726364912389968e-01
-2.618126316228193140e-01 3.313935434877399167e-01 8.538690198471513004e-02
1.301918644972617223e-01 -3.971784260873003625e-01 2.085417694754315987e-01
1.490600834083640747e-01 -8.083253100947993541e-01 -2.609949077111460292e-01
-2.684578399040722929e-01 2.377911840472350102e-01 -5.065383313473261623e-02
-2.484517557563587220e-01 -4.547336566551945514e-01 -8.728965479527170945e-01
-4.315584185513711701e-01 1.247935738065756271e-02 -7.699939121380132701e-01
2.143752212574537575e-01 -3.294611908467428019e-01 5.184115246371837626e-01
-2.610703711541407790e-01 4.989918799234255853e-01 2.992534694369034520e-01
-4.243299271310073673e-01 5.108701842709140184e-01 -1.206381651863789178e-01
2.030306502962565263e-01 -4.779392746494811051e-01 3.004744689259417068e-01
-4.060441150371751351e-01 2.016723433332868742e-01 -4.628353868367830470e-01
2.694937203837866058e-01 -8.490379086907489103e-01 8.357989737703968788e-03
-2.506284311266464560e-01 5.298898149282238457e-01 3.661331502794400450e-01
6.118504902839306397e-02 -7.390895956712785209e-01 -4.075537025142989545e-01
-5.511368114987095224e-01 5.636848267875772533e-01 -3.916685996301491057e-01
-2.200982472903736942e-01 1.194948962120403468e-01 -7.138639941179046600e-02
-6.026595243131339652e-01 6.783756702819707662e-01 -3.839205541300077518e-01
3.982201641664018243e-01 -8.145177672902951249e-01 3.949165526858057218e-01
-8.594362984375637782e-02 -8.260462484209009359e-02 3.048161677650810392e-02
-1.946887201162950942e-01 6.119048190263868259e-01 6.188405495308939575e-01
-4.410967664081572037e-02 3.894045708933705496e-01 7.386697909528996409e-01
1.558117953062360672e-01 -7.639330885251228720e-01 -1.868852700439298797e-01
-1.439564149252498815e-01 -1.673211245692885207e-01 -2.311636832737784530e-01
1.941661128565737027e-01 -5.321479356479187350e-01 2.083258386947035024e-01
2.151479063505717590e-02 -6.885913193418408129e-01 -4.493883911398557918e-01
4.145054148903155010e-03 -6.549034666094386559e-01 -4.530693489422742415e-01
-4.200466840071483826e-02 1.383289525430264066e-01 4.268504201336447146e-01
-1.056053504097044377e-01 4.312055973340060411e-01 6.276984721449648807e-01
-3.261208517912058680e-01 2.585394543115532295e-01 -1.780316108256490837e-01
2.363801270641584518e-01 -7.926835836010830416e-01 -8.606707478073183371e-03
-5.500520566381329468e-01 5.213157316053353973e-01 -4.423448095147827774e-01
1.089505717637565679e-01 1.245908958360758545e-01 8.116132214001984257e-01
2.066650143004975793e-01 -6.996879688886696869e-01 2.980626469709140788e-02
3.723863655880506607e-01 -4.357137615128541253e-01 8.050074693250371949e-01
2.306325263214643317e-01 -5.246705257131050182e-01 3.149225861542143123e-01
1.744368904625512307e-01 -1.720493596423588317e-02 8.067950097804889031e-01
-1.713765242868832139e-01 -2.681415684726430881e-01 -4.316725096889058588e-01
2.290289645245943972e-01 -4.456539302488491949e-01 4.105490104400748574e-01
-2.622543994305809659e-02 -1.215191467563539185e-01 1.403671919434494597e-01
3.492752200543953744e-01 -4.053557182227597311e-01 7.818221340583754175e-01
-1.540338537835572452e-01 3.859197573834965422e-01 4.414357799362042534e-01
-8.117869877235714404e-02 3.490386936131161244e-01 5.888879031467870728e-01
-3.250621258291657711e-01 2.275149380270194421e-01 -2.144345687651681709e-01
-4.024489327869977817e-01 5.878470278750371758e-01 3.497024319005977849e-02
-7.640951081636399023e-02 -4.274985451363345068e-01 -3.801587589583608207e-01
8.908256777139926530e-02 -2.683769261952351215e-01 2.618698876452776325e-01
-1.714749534063111230e-02 -2.920557709144502856e-01 -5.105400276883393512e-02
1.005898719115860124e-01 1.390472865136683223e-01 8.076178128741033913e-01
-5.938396017697294971e-01 7.119725508614456189e-01 -3.179495930736601639e-01
-3.556666491569762112e-01 1.315975121328208375e-01 -4.172276620704335470e-01
1.235695965557676856e-01 1.317032520655435079e-01 8.595489346379434625e-01
-4.209699236345176288e-01 2.877315641619348496e-01 -3.937944806201938430e-01
-1.219359306618639366e-01 -1.188896641355646211e-01 -1.112727070170904942e-01
-4.749916905504684983e-02 -4.116460706707441020e-01 -2.831023893150362292e-01
-6.056896661278682314e-01 5.623758527987802180e-01 -5.386474668880428807e-01
2.474715423361719402e-01 -2.092301009107348786e-01 7.585815393340825663e-01
-3.307232420999357547e-01 -3.081805327154362173e-01 -9.067780430035011774e-01
-6.961146110831675782e-02 4.899162899043882358e-01 7.978090683783793935e-01
-4.908301301994751065e-02 -6.285357197185115208e-01 -5.615283009629059574e-01
5.211995075054841331e-02 -7.208677043839410992e-01 -4.086649632866635740e-01
2.412426012125300501e-01 -7.756612553632384888e-01 2.586728169363809032e-02
1.839186043232849121e-01 -6.187647135362566164e-01 7.152054354519274404e-02
-3.954963814889191076e-02 2.992800514139866072e-02 2.963425299337510976e-01
-4.809081796617163951e-01 4.317474430918339934e-01 -3.713899863863300843e-01
-4.700265722424409875e-01 6.115528235314038330e-01 -1.150801188359562993e-01
-2.302981386319569168e-02 -7.095442570975499796e-01 -5.945414056723684615e-01
3.914799282049032936e-01 -8.400749080922883527e-01 3.446500800250431040e-01
1.870486905605398542e-01 -6.785741709153810808e-01 4.243619538337554779e-03
-4.472978635258958446e-01 6.795271007738278302e-01 3.140486695382359306e-02
-3.316970397920326330e-01 1.265900820817444407e-02 -5.037449169195264975e-01
-2.083114583845747658e-01 4.917879593380726222e-01 4.306908523564154656e-01
-3.673039564634574677e-02 -4.166603066936656607e-01 -2.607546700105006776e-01
1.352619145756631669e-01 6.775537651993764066e-02 8.098489671618468444e-01
-4.066026790235031108e-01 6.092982317207731313e-01 5.102510651786811013e-02
-2.689379248795968902e-01 -1.021834807848210486e-01 -4.817519030135568592e-01
-8.290883605592713756e-02 -5.340655846296835652e-01 -5.322017076125258317e-01
-4.514673507467521496e-01 6.836448582212271141e-01 2.550367218372887393e-02
-3.410756791444276570e-01 6.710153588812304282e-01 3.036102333327070912e-01
-2.642836629485142419e-01 6.191711839651091731e-01 4.426324200877482240e-01
-5.209455282128457737e-03 3.915305028898313222e-01 8.449842835675734909e-01
-4.531805393741230592e-01 1.156618485135813279e-01 -6.971429820513876940e-01
2.152384633545019119e-02 -1.388874277883289377e-01 2.456088956494417441e-01
1.133411217862256015e-01 -8.272766392285144654e-01 -3.801066211211386325e-01
-6.349392293072834981e-02 4.591765228374646290e-01 7.752423375146952900e-01
-5.049311614681393223e-01 8.398053553707628405e-01 8.050957019555171623e-02
-3.479210977590520559e-01 6.455719606014845846e-01 2.532073644566461557e-01
3.645964373019299765e-01 -6.325696128171872656e-01 5.353771926240196155e-01
-1.078075407335544467e-01 3.362313504820337307e-01 5.017591096875959611e-01
3.667276608059011900e-01 -7.183617184809816258e-01 4.325903501384792960e-01
-2.687891485640786504e-01 3.055642404407100665e-01 3.414691164263351092e-02
-1.764477186666622566e-01 -4.130022184464720025e-01 -6.283244391687261565e-01
-9.742108425072490419e-02 5.488025589395910675e-01 7.981747342246421351e-01
3.567314990312654421e-01 -5.251528280246446911e-01 6.502293214974077529e-01
-3.439129458160150588e-01 1.142959917646264451e-01 -4.077905998289578227e-01
-3.854562451812851842e-01 6.288097576882819562e-01 1.320251356540153576e-01
1.958333276178713528e-02 7.157870275334585197e-02 5.065251806242055954e-01
-3.731913406509190234e-01 8.264248487990907832e-02 -5.258041734706195847e-01
2.352940809769387687e-01 -3.152094678921555926e-01 5.921555146478275633e-01
-3.119536011699195477e-01 5.873943610849623465e-01 2.754694992916494334e-01
-1.694463426058613054e-01 -4.676555851103237904e-01 -6.787699083060648730e-01
-1.660774436419376610e-01 -4.674184055550991146e-01 -6.694956012711412718e-01
-1.341296415820154297e-01 5.519952430800468823e-01 7.044227978477594077e-01
-4.988959054741230470e-01 3.896935373383874079e-01 -4.724751115723059280e-01
-5.907652303384892667e-01 4.087111734753143821e-01 -6.931634631495465770e-01
3.349451662557216824e-01 -5.474225969626594912e-01 5.640374993339151155e-01
6.342341992697696218e-03 -8.608924145860651078e-02 2.719177820020612368e-01
-3.485819362372742647e-02 -3.063321920147129077e-02 2.322744910330318824e-01
-1.373186408403460346e-01 -2.475961640343054548e-01 -3.149704226628072812e-01
3.053706893971362413e-01 -7.702167818206309136e-01 2.035821037537864642e-01
-3.917058286307232851e-01 3.048369214710242026e-01 -2.942117637019227017e-01
-6.530437426808308188e-02 -7.239048043547570144e-01 -7.253126739623287911e-01
1.900640645340473389e-01 3.597443071177452035e-03 8.747242042399159256e-01
-8.771751210442174651e-02 -1.798436907264009676e-01 -9.718010967316033366e-02
-3.040007638914089538e-01 5.351891534169728182e-01 2.306537681962751440e-01
2.612084403581756975e-01 -4.866779747090237973e-01 4.444068880858974557e-01
-5.407813512449443083e-01 5.134477734096336565e-01 -4.275956809868782793e-01
8.326065054272113741e-02 -3.327549949525880901e-01 1.649696690782780084e-01
-8.184556478434543147e-02 5.114516795249528514e-01 7.924450085571272950e-01
-3.403136400279315188e-01 4.539197338019916872e-01 3.117313748931728468e-02
-1.608839300880596512e-01 -5.967287002250449834e-01 -8.191434378544070194e-01
-3.697627760567546717e-01 7.910580609822961407e-01 3.789565218475044461e-01
-3.697149792960327530e-01 7.107943741179411079e-01 2.776090192672889256e-01
-4.305670289899566350e-01 5.879443602637740574e-01 -3.981082045472492115e-02
-3.655261768068986949e-01 2.543203792601528637e-02 -5.777142061037939813e-01
-6.643602003768014908e-02 -4.304437298056708050e-01 -3.573137662606865050e-01
-4.843342721195537104e-01 6.060417265943874865e-01 -1.601620688308665885e-01
-2.604278356874926703e-01 5.659278501651809901e-01 3.855901472920716944e-01
-2.593304224280743586e-01 -4.260913569779178900e-01 -8.656648030822117201e-01
-1.777322838880246794e-02 -2.294104808645090199e-01 2.647954946241454915e-02
-5.182085154260994697e-01 3.419459655700539114e-01 -5.842879317882662127e-01
-1.759554407307994117e-01 1.191610303867084442e-01 4.578403162134592891e-02
-5.999222892931044271e-01 5.484028238019413859e-01 -5.409493423779976329e-01
-3.522007135063716099e-01 5.266948461747270605e-01 9.151428870753594569e-02
7.241813965848083179e-02 -2.546830852677681167e-01 2.347900150670159947e-01
2.982556152964070950e-01 -7.869267735121947549e-01 1.635022649906154590e-01
-2.724329773570165480e-01 5.166452181989513726e-01 2.913030475333748259e-01
-4.384087631711757749e-01 3.495212203586311323e-02 -7.598310211968748451e-01
1.142018383305041102e-01 -2.858441028393553761e-03 6.644719835494655724e-01
-1.977569843456631893e-01 3.583952845424092648e-01 2.901629162150216046e-01
2.081168356689419574e-02 -2.648203567879559572e-01 8.449875650437353725e-02
2.198789132740535668e-01 -4.144074510948392298e-01 4.256780150551547348e-01
-5.598982530487380815e-01 7.016373568908546021e-01 -2.405993035699406646e-01
-1.296668428993881517e-01 -3.271958082112863542e-01 -3.952220115085314789e-01
1.142904453693856515e-01 -6.843305377627579844e-01 -1.968554932170807348e-01
1.603367482580518588e-01 -5.500261771111363274e-01 9.560451504014171042e-02
7.748422276533759034e-02 -2.305189170683256683e-01 2.788356018015822335e-01
-1.007206623331951961e-01 1.846124849020024106e-02 1.188912832903498418e-01
-3.647504015238906688e-02 -2.313247686270444164e-02 2.374503052854753105e-01
8.239850032054626960e-02 -4.810677448850949056e-01 -2.483411984380232140e-02
-4.375813483402145321e-02 -2.491516105384840862e-01 -6.770002281952977596e-02
-1.527172155260119457e-01 2.851994798259439023e-01 3.176057411198314195e-01
3.117878239037534249e-01 -3.828411176644808123e-01 7.104235250193663420e-01
2.685761416441339589e-01 -2.320465414911740409e-01 7.859562218442066595e-01
6.815630622732583854e-02 2.627527887348056201e-01 8.776146022077532249e-01
-1.901330162429487602e-01 5.187498610709952995e-01 5.132036878183637851e-01
1.930410247084691500e-01 -2.490893737506984507e-01 5.631906491141261961e-01
-1.237656437368126611e-01 -1.710777733540478907e-01 -1.821266687963113140e-01
-4.693874596795101772e-01 4.868238181970044876e-01 -2.710684977439639098e-01
-2.270289609282553911e-02 -7.419263581942732444e-02 2.095843407458895247e-01
-4.622871896822212112e-01 8.209926745339735099e-01 1.703250594889218483e-01
-2.591376131224564228e-01 6.242383036489466130e-01 4.627472394516696785e-01
-5.213049520531911618e-01 7.254456844887515743e-01 -1.076900558200000607e-01
3.514090846052863037e-01 -4.117841806189738718e-01 7.793792594849342503e-01
-5.189261882902856948e-01 1.816082325510385009e-01 -7.889096498463524787e-01
-1.981538284408164707e-01 5.248700079961252651e-01 4.995744618083801103e-01
-5.330752054264109585e-01 6.357967414121745708e-01 -2.523852784551932071e-01
-2.034706770675630272e-01 4.782081642342810301e-01 4.264177615908110730e-01
1.864836312051972034e-01 -2.381760244503043078e-01 5.595197343515696531e-01
1.154703035538573730e-01 -2.537904546185554278e-01 3.506056911606753590e-01
-1.693612368066178542e-01 2.930420014291306718e-01 2.831825934398934375e-01
-9.588806270223276806e-02 2.956898574848469408e-01 4.822562220788566556e-01
-4.070916508687131286e-01 1.413148140716545542e-01 -5.419340358928375068e-01
-1.231788593421182798e-01 -3.657340909592570188e-01 -4.266613242678276019e-01
-3.613201812822870451e-01 6.261120742857880783e-01 1.929108767656078915e-01
-2.414358283567607788e-01 6.553074893669958989e-01 5.491830105143538088e-01
1.523054658408568018e-01 -8.327541078624973725e-01 -2.832340491421573292e-01
-3.696862391896506561e-01 5.340356513636542735e-01 5.421514370966837998e-02
-2.340535565134689022e-01 2.208507450822882745e-01 1.957887196297089169e-02
-3.188186993142582693e-01 1.770532268853969315e-04 -4.852186975770583222e-01
-2.222074503697275549e-01 1.116689016574968097e-03 -2.266669354851609808e-01
-3.341359196041913115e-01 2.696550092100072904e-01 -1.853299987319000086e-01
4.608230073992525960e-02 -1.919040838935542614e-01 2.440031693582541128e-01
8.797839150745205561e-02 -5.626373468080417828e-01 -1.130956397581303202e-01
-8.475405705342488327e-02 -8.740552973748189070e-02 2.758090182049574915e-02
-3.498438535239541958e-01 6.561473664445484077e-01 2.614554629686422493e-01
-5.279589431379086983e-01 2.505532468673320468e-01 -7.258071178710603366e-01
2.071527558628447063e-01 -7.818810782035290341e-02 8.168480911607057804e-01
2.466188608912870672e-01 -8.917249412603882597e-01 -1.065464688392228354e-01
-3.300393424811208509e-02 -9.910634330940676362e-02 1.506456787090392491e-01
2.136902187637676198e-01 -2.487700942726620706e-02 9.016628410456889453e-01
-2.836789291924164957e-01 6.986646058184268204e-01 4.914661559738816576e-01
-4.683949504861306679e-01 3.548303748583163664e-01 -4.352996574691840870e-01
-4.863000073727443695e-01 2.886667910789711966e-01 -5.666456597999319778e-01
-1.576521913356655480e-01 -3.393617725454320389e-01 -4.851535432397183767e-01
-5.867506743252267620e-01 7.417133947304603847e-01 -2.614649143353221517e-01
1.359951371012849686e-01 -5.670452620516807096e-01 9.243930524787207642e-03
-5.741201715498553959e-01 6.350634316298149340e-01 -3.626525331505314753e-01
3.890381657675477944e-01 -7.087526421413122835e-01 5.041720092227510719e-01
-2.333273580569819872e-01 -4.392829944426099864e-01 -8.130727107460494762e-01
3.979742690549512019e-02 -5.806477551710190199e-02 3.964696069342510953e-01
-3.125238267693524752e-01 3.315771325552228088e-01 -4.947112461791935978e-02
2.056679004756951645e-01 -6.340766550414784763e-01 1.101003410734607835e-01
3.128991650978896200e-02 -3.228518690990883067e-01 3.904444395795488715e-02
1.601392615517243934e-01 -1.093728711322583258e-01 6.521824009003683864e-01
-6.983320237485242735e-03 3.766074246065919118e-01 8.213920907445876329e-01
7.155046377434305660e-02 -1.490415726970488464e-01 3.660378109364739729e-01
-5.138920901372473482e-01 5.537536761295297483e-01 -3.050075988673102700e-01
-2.688408896751460220e-01 2.936643294602591658e-01 1.896439857346138638e-02
-5.244060458333848346e-02 6.924008845158991128e-03 2.329189155297687885e-01
-3.940479965079179969e-01 -1.208183810996862340e-01 -8.385935652916386429e-01
-7.836399418457309571e-03 -6.075115596627408410e-01 -4.250707979885172128e-01
-3.760511257839740940e-02 -4.787231780196655323e-02 2.031620976429871495e-01
4.024321333363557740e-02 -5.738065702976796745e-01 -2.543788209079267393e-01
-5.112907021313614075e-01 3.253075899399938131e-01 -5.868948594987112299e-01
-3.331750842634813581e-01 7.237914829756444401e-01 3.913798950741836924e-01
-8.263367917373500710e-03 -1.160563768746741969e-01 1.951229673173555945e-01
2.901129736596179121e-01 -5.119009330898443011e-01 4.895174199340475707e-01
-1.909584585672775836e-01 5.715904316106421579e-01 5.778094368948831772e-01
-5.817275720791336147e-01 5.181690102188173386e-01 -5.307038770403901262e-01
-4.137940558930097712e-01 2.800371328966748119e-01 -3.844064294742241539e-01
9.014139501908274843e-02 -5.193928949592572231e-01 -5.266100360188576135e-02
9.152768142617830061e-02 -2.321913361942356258e-01 3.141317454983882929e-01
-9.506959486332401676e-02 -2.983871289221557976e-01 -2.666361091593209554e-01
-4.580033961735959780e-01 5.514612712668430783e-01 -1.590232827841989993e-01
-1.178890988797593187e-01 -4.111197218757828287e-01 -4.699494819409268387e-01
5.056923094130736512e-02 -3.070723593054398015e-01 1.103523628895280440e-01
1.529682342944075069e-01 -4.453803630859099472e-01 2.082758240062961563e-01
-1.122608427606165415e-01 3.043350420753310748e-01 4.495704183014949673e-01
-5.350099405400636499e-02 2.838521254778441083e-01 5.802055503430232353e-01
-2.785488495867838310e-01 -3.847062681068597612e-01 -8.645391380297063888e-01
-2.465970409905436089e-01 6.274792143142960965e-01 5.002515932783078156e-01
-4.044343632339368333e-01 3.209985726881398743e-02 -6.729322565590299954e-01
3.401801788719589492e-01 -3.825293632305630243e-01 7.864523851950407929e-01
-5.786066577534354494e-01 6.390870290645235263e-01 -3.695172286464009637e-01
2.006692151731772900e-01 -6.406991085593847224e-01 8.841172860275653411e-02
-4.437688426008630782e-01 1.643004204814183800e-01 -6.105788543882507691e-01
6.665498083323183331e-02 -7.367529104113558214e-01 -3.900280917272108683e-01
-1.697396055719007923e-01 3.289877351005136841e-02 -4.671616442504293587e-02
-3.109707137448333159e-01 -9.233725879975746009e-02 -5.812752641544141063e-01
7.426935407992160849e-03 2.355467639473604047e-01 6.814412244236650595e-01
1.169434474741157665e-01 7.470412964745487550e-03 6.848338293896364393e-01
-4.203318882363010212e-01 6.875368535053310026e-01 1.133663126419161282e-01
9.079276561317251026e-02 -6.103325306958259366e-01 -1.658979018779823122e-01
4.478963246894340777e-02 -8.978064278918200525e-02 3.696710371824415420e-01
1.192615502184217607e-01 -2.530167985527254637e-01 3.616833452689376949e-01
2.250161857192738701e-01 -1.945357493363796819e-01 7.173400599379111675e-01
3.570258856042038409e-02 -1.916868071697187467e-02 4.347364169882331764e-01
1.569407778956899147e-01 -2.032075615554269077e-01 5.250297062302704543e-01
-3.002434111583427989e-01 -3.257876937855068156e-01 -8.478426472172265749e-01
9.044445388075618431e-02 -5.193262056340620658e-01 -5.176936844124302439e-02
6.804638780972872836e-02 -1.401716616097282708e-01 3.679172096650396018e-01
-2.234894833624503918e-01 6.415842961485138662e-01 5.796406869576017362e-01
2.211073853245628107e-01 -4.268650336035085258e-01 4.132008300680681812e-01
1.495081497352948874e-01 -8.528323729017315280e-01 -3.160701639923040873e-01
-1.688851405313120850e-03 -7.539770552983477980e-01 -5.938659467432279015e-01
-2.994962093266060887e-01 -2.985487064758242659e-01 -8.114147815818418819e-01
-1.699716023196246317e-01 -5.847090463174146047e-01 -8.281561252826978858e-01
-5.202429138676034626e-01 7.444575753201289059e-01 -8.082475068358417614e-02
-1.784306657015706232e-01 5.490104814740166123e-02 -4.205160215144525260e-02
4.843837103576832670e-02 2.495491651532273994e-02 5.244474754561022634e-01
-7.617978167899504272e-02 9.893678642327530248e-02 2.860086812822849045e-01
-5.249649952916179974e-01 3.942655481585602972e-01 -5.361406099272043591e-01
2.278607099423680948e-02 -7.838325760832475231e-01 -5.664123074586441264e-01
-5.108768279611667351e-01 7.401061656396002997e-01 -6.137567636703029905e-02
-2.121620178144044411e-01 -4.047601035820992954e-01 -7.130439249869772178e-01
-5.876904105954191548e-01 3.779143454885452447e-01 -7.239078667398983757e-01
9.828332487062388378e-02 -1.031329463070819186e-01 4.952926027869055670e-01
-1.299860332422727582e-01 2.419172938867637790e-01 3.234393050561457095e-01
2.032834929683021985e-01 -3.821182273442144672e-01 4.222915247967545804e-01
1.284599089882885736e-01 1.493335570986484839e-01 8.948657282767533694e-01
-1.251292126741296029e-01 -4.357910603916379522e-01 -5.204276931908209392e-01
-5.690698318309777015e-01 6.105639836148992750e-01 -3.801727490966376188e-01
1.980139263909137248e-01 -2.321624021023311613e-01 5.978382511500315299e-01
1.429110978884154670e-01 -5.367875341614107843e-01 6.592132145142277910e-02
2.572153794498699964e-01 -1.535053535859588203e-01 8.549892857867693596e-01
-3.782704396145110670e-01 7.552307219066914934e-01 3.109974932687789573e-01
1.108725459036782358e-02 3.324313529733161077e-01 8.136800979243228316e-01
-3.374822295486366031e-01 -1.333932023637227904e-01 -7.038053190475070942e-01
-6.021097705768434505e-01 5.000958702387110488e-01 -6.078495452073378047e-01
1.595051236960274565e-01 -7.262512715483806502e-01 -1.294066464672631589e-01
-3.824080589361101290e-01 4.834469707887802947e-01 -4.363231872658485111e-02
-2.558112390459665320e-01 3.102532220851950129e-01 7.464704365789072427e-02
1.192684332548210741e-01 -5.008382193255233039e-01 4.838893333091529719e-02
-8.677465358603356216e-02 -4.717868857499527557e-01 -4.637629230379241019e-01
8.963882698697787921e-02 -2.405816636352859916e-01 2.984923801860474568e-01
-3.668416686803360749e-01 7.554613448493376904e-01 3.417342960601609803e-01
3.373800219829705682e-01 -5.007045850888575123e-01 6.295878372818479729e-01
1.179513628121443836e-01 -8.653753208728893753e-01 -4.159922999671332167e-01
-4.066998333503701879e-01 4.722650521214672437e-01 -1.224803987310786185e-01
-8.215477607638869972e-02 -5.028367717544488524e-01 -4.907113627933195055e-01
1.895498929737312876e-01 -5.152250723662158416e-01 2.174236761028099096e-01
6.019169783048246292e-02 -2.978058366753769115e-01 1.477011325460532709e-01
-5.955216624093080391e-01 5.626916759008138147e-01 -5.111615204398103351e-01
-4.612272080823298648e-01 6.858304108379057462e-01 2.267401390369114256e-03
-5.698607088867803094e-01 7.192794781300745344e-01 -2.448340302541444358e-01
-3.529864246028441288e-01 1.577042994857721092e-01 -3.770817995381579024e-01
3.983955416710857622e-02 -7.602900185984532433e-01 -4.912192313358590967e-01
3.929727273280764210e-01 -8.049657932574846297e-01 3.930141029640299433e-01
1.199169259726571603e-02 -5.109421983171161807e-01 -2.501609419642437104e-01
3.888085250153505701e-01 -4.868894864348698448e-01 7.840548046379089975e-01
-2.104484400495862384e-01 5.138518847797323152e-01 4.528928423241741497e-01
-3.683772673699863831e-01 3.557223183751874185e-01 -1.677337522739051345e-01
-3.272097054646048719e-01 6.643631202832622762e-01 3.321377452354036253e-01
-1.455440785082804112e-01 1.866473022245261348e-01 2.121179561789502677e-01
-4.158407486554371868e-02 1.759195572105305694e-01 4.754954510963861347e-01
-4.586549512920611027e-02 4.013499586753829229e-01 7.490946202181695268e-01
-3.321735858959468102e-01 2.211587247464921469e-01 -2.414148270090658022e-01
5.207947671609129692e-02 -4.067092128904164494e-01 -1.159218414591490880e-02
-4.575644929789000614e-01 1.704528764091717830e-01 -6.395508905927768106e-01
1.396573412629721900e-01 -5.335498638303168839e-01 6.134688570579781980e-02
-1.026554856578222596e-01 4.340101255607980990e-01 6.391023265002304665e-01
-3.451807387924579751e-01 2.456403211166512945e-01 -2.451134259078797395e-01
-3.474318340757140411e-01 5.244701509496360048e-01 1.014055496523917077e-01
-1.576067328457091132e-01 5.525916189083766028e-01 6.426358850752287299e-01
2.898643683031071894e-01 -8.360348291586403580e-01 7.906297186402369559e-02
2.282894214573994163e-01 -6.249520598289613066e-02 8.929943333997087951e-01
-1.740860937392194052e-01 -3.436513397764169309e-01 -5.343551672561623889e-01
-2.266812967927408773e-01 4.381222330240832963e-05 -2.399412701506501155e-01
9.434265438297543063e-03 2.265864551349593692e-01 6.754603401200678370e-01
3.919554837195814434e-01 -6.127151180068346470e-01 6.333606760259637980e-01
-3.148641599368429134e-01 -1.031319112582672615e-01 -6.052943960733681017e-01
-3.060021571719974687e-01 -1.192968671727357016e-01 -6.021236457270225939e-01
-5.040731298730544152e-01 8.377997676925869053e-02 -8.730235730285497153e-01
-2.809358433387579845e-01 1.709426270370092704e-01 -1.684086356293305886e-01
-1.582618940181114153e-01 -3.686635326051749817e-01 -5.238230213626942078e-01
-4.829171145242719398e-01 7.693994697624094714e-01 5.014111746847045581e-02
3.151298858405263692e-01 -7.165241978609927509e-01 2.974615665300227030e-01
-1.915753887547218537e-01 5.649662809510792583e-01 5.677912863205004657e-01
-3.849485771217232566e-01 8.104397983860641697e-01 3.630066075459792430e-01
1.350049627119296880e-01 -1.080194811863014193e-01 5.869379028171652912e-01
-2.002653247843266537e-01 -5.365052736537426759e-01 -8.479134207420061520e-01
-2.735860725431923934e-02 1.400773150231071074e-01 4.680766289688704229e-01
-4.265296324843430992e-02 -5.452333391700205922e-01 -4.390826650875276904e-01
-2.770091095854304228e-02 2.120261637273691130e-02 3.168752579678361103e-01
-9.172891236663959988e-03 -7.686557995383821451e-01 -6.323606359239075658e-01
-1.565572786594194576e-01 3.274536620445992474e-01 3.607967729922342826e-01
-6.356169225401170353e-02 -5.988209425403062669e-01 -5.625307714823765126e-01
1.725812875252763223e-01 -4.614089401799136292e-01 2.402588399928785590e-01
3.482899463350755953e-01 -7.279447665878985285e-01 3.713583685799313749e-01
4.414956804282066383e-02 -2.091654715967770084e-01 2.170315166423057163e-01
-4.399521555316499022e-01 6.120322198022061233e-01 -3.435845090913374617e-02
-2.141246010535723387e-01 4.861775924138285743e-01 4.081121465183726316e-01
7.663564643340470273e-02 -3.457861474846515293e-01 1.308463728211329835e-01
2.707371049785963768e-01 -4.715927121541674261e-01 4.888622248024253047e-01
-2.939908569303426589e-01 -1.124231502698943286e-01 -5.614363838455647127e-01
-2.927991734763434883e-01 5.489414070732404616e-01 2.778803502662386404e-01
3.568997899620572900e-01 -7.171549631610475428e-01 4.079354350620804648e-01
3.128703093520840972e-01 -7.933334442749229165e-01 1.943347652722783037e-01
-4.524045847558563205e-01 3.129603612465597373e-01 -4.456376672017917095e-01
-2.428834128336423426e-01 1.922132190270876562e-01 -4.014859745371464339e-02
1.008418696880645782e-01 -1.571494380287713766e-01 4.338170054672987330e-01
-3.298566884449181669e-01 2.159232996838602592e-01 -2.418617989556029746e-01
1.430042520762834224e-01 -7.601305261496699162e-01 -2.161959720718038547e-01
3.000605381329596311e-01 -3.527928565712464271e-01 7.171721361149877572e-01
3.208031404470378933e-01 -3.552724488739564812e-01 7.692937217676762973e-01
3.047395934861909517e-01 -2.368170867011173408e-01 8.762612058637659906e-01
1.632264740140655992e-02 -5.819414526791557574e-01 -3.283857632375198343e-01
-3.527459747465938600e-01 -1.373849161280283893e-01 -7.495131812343696076e-01
-2.361127956183538545e-01 2.321289544626312651e-01 2.835192312599740805e-02
8.571293710566267599e-02 4.436146932119473113e-02 6.482787061604201595e-01
-3.706000987732813168e-01 7.068091870760891959e-01 2.702127940267325390e-01
-1.443528156806448692e-01 2.479938482429589197e-01 2.928498636823782530e-01
2.707349232376031756e-01 -3.079835839127271213e-01 6.957022349800291439e-01
-6.582600516909021746e-03 2.287138768175416836e-01 6.354824594485730671e-01
-2.210967152319803231e-01 4.641872353623085479e-01 3.617373421858819382e-01
-1.796465316242011057e-01 2.083627001389023459e-01 1.487261290752326104e-01
-6.171525060719384309e-02 1.858860567337890790e-01 4.344681105810219157e-01
-3.227696765908767973e-01 1.340421520628896079e-01 -3.265023602235755940e-01
-1.963165109092347149e-01 5.399984357792658729e-01 5.235953035222219443e-01
-3.336870745705163288e-01 6.042936125086012522e-01 2.389386376657599564e-01
8.752502996458175200e-02 -6.078852704950662433e-01 -1.715088669155989676e-01
2.757408857188027307e-01 -1.681290017153597993e-01 8.858513800379901326e-01
-2.411164324952844995e-01 4.331888876337480765e-01 2.692163624659165699e-01
-2.732993442776349147e-01 1.739007726269740373e-01 -1.443257890140228483e-01
-6.988283750276905182e-02 -2.669773294742867203e-02 1.439474520599067497e-01
-1.051089955252701713e-01 -1.013674739049388734e-01 -4.429449381959069121e-02
3.928493183235338693e-01 -5.577883080961468787e-01 7.051839927110520323e-01
2.409206622615938931e-01 -1.293074202318362509e-01 8.421742806534374681e-01
4.166473667651309312e-04 -7.470305711405481608e-01 -5.794748653008641170e-01
1.666401463628125190e-01 -3.441594027633457786e-01 3.726670306796430743e-01
-1.251389078973254576e-01 -4.216251052030524082e-01 -5.025439533861605357e-01
1.554977336907924224e-01 -5.963909901186596058e-02 7.026946095718218377e-01
-3.583210323804922326e-01 -1.712028970832748798e-01 -8.071196397460577154e-01
-2.480646077238735092e-01 -3.333636275750983535e-01 -7.184209486600384720e-01
3.619752096434153410e-01 -6.056773236692226670e-01 5.623935409665355989e-01
-1.970701428527562027e-01 1.712823157333238644e-01 5.543162018360128090e-02
3.960976860968606211e-02 -4.507007408112320701e-01 -1.004274730268895771e-01
-2.086188798378859066e-01 -3.239655820694800070e-01 -6.014593729340077521e-01
3.923281451752352877e-02 -4.927106156747604881e-01 -1.545433952647266573e-01
-6.016360071560735712e-01 6.580273879983861152e-01 -4.069196817983800063e-01
-1.017619731977521813e-01 -2.849494454425510748e-01 -2.674751760647436916e-01
-2.107002966506422437e-01 8.137500218420722076e-02 -9.454486203194548133e-02
-1.811073178308190146e-01 5.908467633917821038e-01 6.283971717098554288e-01
-1.586925727200200753e-01 4.400752718018682286e-01 4.974924613911574922e-01
-1.568376053513191037e-01 -2.636294714477258397e-02 -8.726908893347101737e-02
-4.319947627198657963e-02 -2.077163560985341093e-02 2.225217396199623276e-01
3.885936067686125983e-01 -6.197859239522891528e-01 6.154655383054820073e-01
-5.943270540079341746e-01 5.130481451452516550e-01 -5.707419279709562421e-01
-3.926507789498582812e-01 4.525051836437462560e-01 -1.100367359647272947e-01
-3.830729105413200886e-01 7.149469239037526958e-01 2.472746102759544873e-01
-3.645920060753162634e-02 -7.314508064650130370e-01 -6.580118568139236013e-01
-3.860429578769997705e-01 -1.810248275962753617e-01 -8.933859486186120913e-01
4.287957512006320554e-02 -1.774588656848847257e-01 2.537340223526077798e-01
1.278501722209460789e-01 1.132518668942899820e-01 8.476245091056232583e-01
-2.472517441157616180e-01 -3.742163461004393010e-01 -7.679043459357545176e-01
-4.659819891115093426e-01 5.150227332603668495e-01 -2.263456334783596480e-01
-1.072057733221292442e-01 -5.902758194704239569e-01 -6.679914103570013806e-01
1.111170519096762316e-01 -1.473537794713344340e-01 4.735735206986886325e-01
-5.239225898494598299e-01 4.934719364984758161e-01 -4.079402496670285760e-01
-1.084168027213279067e-01 1.999058694206386211e-01 3.277841157611949829e-01
3.237249275517000147e-01 -4.836554600572315898e-01 6.147665421760826199e-01
4.861643972296803007e-02 -5.984318852216913287e-01 -2.632062906026540472e-01
8.486472385289278719e-02 -4.830978930173778774e-01 -2.083097056027419236e-02
-6.309089585124369459e-02 -2.734068044522956487e-01 -1.498658568392776114e-01
9.698111987841823156e-02 -4.045356213946270652e-01 1.107698190039385494e-01
-3.498410772118158429e-01 2.752228459117940160e-02 -5.332878575561287304e-01
2.893019632031549881e-01 -4.340828294623916284e-01 5.857399156481241098e-01
-2.682431381535851575e-02 -2.575734369145999403e-01 -3.323727092165861680e-02
-2.756728363880964205e-01 -3.059458154548398423e-01 -7.573033559260129444e-01
1.653903053512237875e-01 -4.304693074950988740e-01 2.602186948738696159e-01
-5.842932070765745056e-01 4.976729388210432981e-01 -5.634510332415531009e-01
-6.774001257464225267e-02 -4.697533359733009894e-01 -4.104853728975709770e-01
-6.551128899575975328e-02 3.699111353591612583e-01 6.570128600197685520e-01
2.817428087015538818e-01 -9.746754777695777472e-01 -1.178511103165418572e-01
3.672976819632958745e-01 -7.438249854395792005e-01 4.019164366971477165e-01
-5.642918614548744216e-01 4.566872813210041682e-01 -5.619860844605939487e-01
-3.801420018963586611e-01 -1.600907121387661891e-01 -8.511999875386353498e-01
1.298262693490577491e-01 -1.020387592072020538e-01 5.807035591307676548e-01
3.443753959419441901e-02 2.494660539578550940e-01 7.709927977453840953e-01
-4.184412317161078643e-01 4.349179508574372854e-01 -2.009751974736495306e-01
5.199355055525532732e-02 2.725354121261538420e-01 8.469263125275884319e-01
5.220856846451527034e-02 -3.995558692308873866e-02 4.524266605227246218e-01
-7.558992472248506067e-02 -2.660044880765001230e-01 -1.738036493402151661e-01
-1.629225014680920902e-01 5.308019866085927907e-01 6.009272085285820575e-01
-3.500729022169205562e-01 4.183028220300831213e-01 -3.985400243637033518e-02
-1.427368945195793826e-01 -4.707231610141600353e-02 -7.588824129453776435e-02
-4.021098646520725878e-02 -1.863192022518495305e-01 2.118628355930628898e-02
-3.080099661521336074e-01 7.253413606891956356e-01 4.603770020175212974e-01
2.355508306137096552e-01 -9.634277183085658836e-01 -2.266822638740404738e-01
3.660125146068985424e-01 -8.634775757148891451e-01 2.472198967714354656e-01
-3.887487943436997995e-01 5.391401647114119067e-01 9.887659161262244908e-03
-2.795901791799917935e-01 4.061111468989557771e-01 1.324921816681287889e-01
-3.597157316295588880e-01 6.440218578993603948e-01 2.198277588736833044e-01
2.685308190495013791e-01 -1.329731532847874542e-01 9.110908231106992217e-01
-1.371408166848343824e-01 1.512241830615062774e-02 1.765004088659917481e-02
3.390665349523342975e-01 -7.677219648472742852e-01 2.964989697296166460e-01
2.902283875349533915e-01 -3.834584491343170920e-01 6.522106234705022931e-01
7.898656136907883374e-02 -1.310891701121010833e-01 4.085435684697256709e-01
-1.391766604260284423e-01 -1.368334282700123944e-02 -2.419147502241485170e-02
-5.104390821427807756e-01 4.710588114753552769e-01 -4.003575811460118317e-01
-5.042422263618613343e-01 7.039947171737482856e-01 -8.935624217813975534e-02
-2.744399241846223192e-01 4.507397037017116803e-01 2.026344711122341213e-01
3.261709635431954135e-01 -5.604786185279220234e-01 5.241574872218773828e-01
-4.146152733804454593e-01 7.542564677600505085e-01 2.129463565837725614e-01
1.703452817900200644e-01 -1.208696795627998144e-01 6.648352852907760679e-01
-3.384647737795356548e-01 -7.547154241782938477e-02 -6.331942156514306363e-01
-2.328629375171284432e-01 3.783578663307776146e-01 2.218818241101599142e-01
-3.463068437838724423e-01 5.280096104661134992e-01 1.088772503505866796e-01
3.225351821773753125e-02 -8.256673025237437624e-01 -5.940821819151150818e-01
1.769402362212513929e-02 -2.256713672227662337e-01 1.256884100847035501e-01
-1.898189809827152685e-01 -2.935646203752110828e-01 -5.129431375962963946e-01
2.896890162056730555e-01 -1.913422383892765810e-01 8.936602067577404940e-01
-6.604966347892979317e-02 3.334342790994549444e-01 6.094621477658396236e-01
-3.488350360110515913e-01 7.116657366606523594e-01 3.343329748365060916e-01
