-4.461269520710812175e-01 -5.630973295287907548e-02 3.913109132582163197e-01
3.445448607022104648e-01 -6.766700509950669407e-01 5.073571686697448957e-01
3.803053863231709575e-01 -6.205588243904714973e-01 4.872964223815297036e-01
-7.029150474178642583e-01 5.313692819456788952e-01 2.374923633963423319e-01
2.812255400884257628e-01 3.414021173730082959e-01 2.068718380440794646e-01
7.778701049779893628e-01 1.450295376089189014e-01 2.216410590485155541e-01
6.840988364626630069e-01 3.618172336211100126e-01 1.648141288514304859e-01
-1.554970626811919693e-02 8.799306676537370642e-01 7.139779108888971715e-02
-4.295757633303468048e-01 -1.465138286504535925e-01 4.169593111642622696e-01
-4.913496309054623534e-01 5.500528066469737576e-01 2.130117655897053042e-01
4.342837344239320330e-01 1.470364895811780426e-01 2.516706901400904139e-01
-2.681584211856073985e-01 -6.866642557250866030e-01 5.649891492317492547e-01
4.529606784791818108e-01 -1.602565390227453368e-01 3.424074339647199539e-01
4.778131427439585854e-01 5.730939575012040654e-01 1.196757719144307397e-01
-8.763663620522232217e-04 -4.212420825514052725e-01 4.613475895870234322e-01
4.495230677875156622e-01 -1.449984417653105706e-01 3.381258651627491729e-01
2.853822593898966975e-01 6.019462046287249457e-01 1.281565551086317201e-01
1.349970429951357076e-01 8.429663804421161366e-02 2.972198308150320600e-01
1.228121783976717923e-01 1.911886334591158532e-01 2.661641525174625600e-01
2.265055085097286980e-01 -1.495700603230111780e-01 3.593841010400490310e-01
9.168121367296507840e-01 3.335808294991091105e-02 2.428326207884399235e-01
9.062983119793797115e-01 -6.169810072212590646e-02 2.723530585089234402e-01
-5.922685359031368835e-01 5.885749860104292353e-01 2.104259051778474832e-01
2.367895675597395388e-01 7.825981893276662271e-01 7.816752076774059754e-02
-2.381422624530962762e-01 -1.682959171955712985e-01 4.064414799568365488e-01
-7.416808933044072294e-01 -8.732387407280065017e-02 4.269874447493205438e-01
-8.114734855910409328e-01 -2.402677967448449414e-02 4.141767280517465455e-01
-4.311015896024140981e-02 -8.129115295865148028e-01 5.828866388058498993e-01
-1.931559697871218506e-02 -3.991766892635200681e-01 4.563565897702958063e-01
5.500187234208763210e-01 -2.330919712100190389e-01 3.556553902652945798e-01
5.685037380283747277e-01 2.770211718547544999e-01 2.006181106660243907e-01
6.637119867514149618e-01 -2.137981644853361174e-01 3.397172659340309542e-01
2.187872105629935504e-01 -1.864593023491845913e-01 3.711647051558165100e-01
1.726814935606409696e-01 -4.233502132022953779e-01 4.465076067618791167e-01
3.497241135484288055e-01 8.064177361460487248e-01 6.093616737738646871e-02
-2.923242132408698235e-01 -4.018853661672862621e-01 4.815116960989925254e-01
-5.898593784667218731e-01 -2.709197726526433869e-01 4.686581360652832262e-01
3.289823632413785282e-01 6.074811546242800953e-01 1.226049628076094494e-01
1.181032630449669468e-01 8.557506363869176180e-01 6.675254897612067917e-02
7.084630331177194096e-01 -3.188832063028595454e-01 3.673260981085529897e-01
6.136766659659289441e-02 2.870885299757800491e-01 2.428055994808472340e-01
-4.188963038291410035e-01 8.799862438350967153e-01 1.073422338003066079e-01
2.327783218334300019e-01 1.982366164748567972e-01 2.542406025804920255e-01
-3.717659174083513540e-01 4.846355474848617062e-01 2.220207835769745230e-01
8.729382526084180638e-01 2.159820649360804368e-01 1.918298993363812543e-01
-2.629100865498987805e-01 5.288100797157111455e-01 1.990324041219517781e-01
4.234873169283596972e-02 1.666794456415482406e-02 3.258157802463523822e-01
5.175128774399562204e-01 -8.103729514752879004e-02 3.128312109698789811e-01
-6.042199660358061886e-01 4.975329038674821680e-01 2.388674893302625557e-01
5.467940089677590931e-01 -3.740075975632375926e-01 3.983157247929920985e-01
-3.540096662516525883e-02 9.711788934741693025e-01 4.572965129512895910e-02
-8.021500629505899926e-01 4.603353556076507647e-01 2.676995047544368789e-01
3.936307169094185876e-01 -3.267871362602777774e-01 3.977722723109764491e-01
-3.772392160716221965e-01 -6.690902465955714806e-01 5.694300185209374421e-01
5.890523166681593814e-01 4.858313324798690935e-02 2.674765695744808491e-01
5.182339601322359934e-01 5.985362203202322373e-01 1.084215767868924180e-01
-8.969050530195655790e-01 -1.997469253746161910e-02 4.205750982038874985e-01
5.673290594267799136e-01 -4.415948827902855811e-01 4.168081390677128573e-01
5.042791465443087311e-03 8.137473626282106798e-01 8.946291167496656094e-02
5.361074735166088991e-03 -4.793449345218452340e-01 4.782627997450630275e-01
-3.194716287797302878e-01 -3.879183841049101411e-01 4.797322550481376568e-01
-5.721366097154111374e-01 -2.736706402881627365e-01 4.679052041135836615e-01
-7.265791599886703978e-01 -4.196710831337938652e-01 5.255766466345164201e-01
2.338446184703392439e-01 -7.301807039101912977e-01 5.333173285864801771e-01
5.093708556704093504e-02 5.900494107480847190e-03 3.282878029144257748e-01
-3.225225392867874241e-01 8.197209823775076787e-01 1.168713927239734135e-01
8.335363609746727631e-01 4.781014367419799682e-01 1.165244870225478901e-01
6.952446876049930280e-01 -5.442259519417189453e-03 2.742540250808905289e-01
3.287296550403251416e-01 -6.154172753446162103e-01 4.903487119586846799e-01
-7.711695987354105775e-01 2.154968808848875539e-01 3.385594414580528899e-01
-4.242744433442070529e-01 -5.726319730454729751e-01 5.446188755657656033e-01
-4.104090356160423059e-01 -2.575038893796898209e-01 4.486247815072624823e-01
2.758218421945522469e-01 -2.557908363896505000e-02 3.177035602094593347e-01
-6.250807739634449689e-01 4.321553074125061844e-01 2.603861866975452077e-01
4.633922371747006830e-01 2.223547277728787908e-01 2.264275377241754816e-01
6.074740440715592493e-01 1.402840767552840096e-01 2.382599961479875406e-01
-3.199289038319184653e-01 -4.404677545275780814e-01 4.955744335147422297e-01
-5.274110521314887556e-01 -4.827754600175854227e-01 5.267946868960229345e-01
-4.661386692914756269e-01 3.221672732194296729e-01 2.792884042843375991e-01
-7.876102211032083300e-01 -1.364404711874937781e-01 4.458515502039763767e-01
5.530208746256951025e-02 -1.505757180980780430e-01 3.749504743958059771e-01
-6.691630124643195288e-01 2.632827653663606382e-01 3.150957989845564189e-01
1.435791198376242528e-01 3.787541915576733698e-01 2.079123375160253917e-01
5.366621749897624305e-01 -6.567784401324835430e-01 4.842472372076814802e-01
3.336635507829369129e-01 -4.914991469265240220e-01 4.526470793461812026e-01
7.072569760909872549e-01 4.196499114300812905e-01 1.453593386499321682e-01
2.973769436862352400e-01 3.577574880277943903e-01 2.005138261682378187e-01
6.344536359284141946e-01 -4.157500578398672375e-01 4.030520690978161014e-01
-7.020602374635445120e-01 2.648044431284949374e-01 3.175712522756390377e-01
-8.968850375988137724e-01 3.421822500210606327e-02 4.042776956884223671e-01
1.670860036806502691e-01 9.157407668274519796e-01 4.434657764537106028e-02
-2.615265035374323421e-01 4.300358413706887872e-01 2.286101110458271801e-01
1.586237148338542069e-01 4.725787161781339063e-01 1.783583056248748688e-01
-1.542643534119307047e-01 -2.056599230825767455e-01 4.101984050162896245e-01
-6.036435611830204273e-01 2.482242281716195154e-01 3.137823329431653208e-01
-3.103155538328396523e-01 8.981591629925627096e-01 9.219697250209885064e-02
5.263034887028821274e-01 6.526368378808943271e-01 9.143425846939878809e-02
4.041940276551785893e-01 7.867447716119480017e-01 6.199538634653924823e-02
-1.262987553423280673e-01 -2.832155789074922714e-01 4.310257879615007059e-01
-4.424829448889694428e-01 2.151859270432379678e-01 3.093482431123284471e-01
7.784826839691666445e-01 -8.065844055452926764e-02 2.894500175550497323e-01
-2.827909792892677743e-01 6.996166993040406901e-01 1.494439795667487914e-01
2.299895181988143578e-01 -7.280624798283488741e-02 3.359908713708863459e-01
1.299449445602572639e-01 -5.603868106832757823e-01 4.915242859097988526e-01
-5.650142879543352814e-01 7.844972137400678669e-01 1.490828807801969913e-01
5.861679208635505178e-01 -1.190986915051147343e-01 3.181550632073437690e-01
-3.052525323871642104e-01 3.525729667026017977e-01 2.558014021502162394e-01
1.422312397042783672e-01 4.731946487613050700e-01 1.796346000430463774e-01
-3.241566565816647594e-01 3.410573740333789489e-02 3.532488020668513307e-01
-2.877377423792601419e-01 -1.017409269745799677e-01 3.908504125169429688e-01
-5.610568216790551288e-01 3.925482273392432164e-01 2.665877145257575798e-01
-2.364731002040028618e-01 6.078534277175901002e-01 1.729073086713286689e-01
1.588722411895246156e-01 4.895692236501842931e-01 1.732271624655543907e-01
1.628682456188004501e-01 -2.062479229817551774e-01 3.821006377771950513e-01
6.294905431730144496e-01 -3.602847624860891496e-01 3.868163458378730546e-01
7.599865549841232637e-01 5.353819994227738688e-01 1.058579017943568623e-01
2.008793864401198781e-01 1.033626542856845160e-01 2.856128782856169335e-01
-5.756009230788253772e-01 -2.284649212159264031e-01 4.546208724294177883e-01
6.042759691874179107e-02 -4.458076575371324179e-01 4.632686961459432928e-01
2.159162455866227986e-02 -6.691435809466509399e-01 5.338875128346021182e-01
3.041472982918438372e-01 -7.148843320690939640e-01 5.224497910222639652e-01
-3.896334580085047961e-01 -1.085747960387174194e-01 4.019900443831956882e-01
8.295605257064000426e-01 -2.946879982894890504e-01 3.492540012707765484e-01
4.798645089389887430e-01 1.861153114411016052e-01 2.358559840349515047e-01
7.195734926911876439e-01 -1.151376347316254573e-01 3.050699529853929670e-01
-1.654516591249142465e-01 9.081098454412958043e-01 7.628921392127895051e-02
2.959966620760577927e-01 -6.540959463183213529e-01 5.048976250363056417e-01
6.238145252361512738e-02 -5.035426587144868904e-01 4.804552063129226003e-01
-7.388488546188969330e-01 -3.812733245919700531e-01 5.151245055014302965e-01
2.835579858524238731e-02 -9.080822435293962880e-02 3.593810501636534038e-01
5.163224185150632195e-01 4.945754705842931864e-01 1.398526325586540719e-01
-4.507663858383488820e-01 -3.706926962702430384e-01 4.862583925307642496e-01
9.344031044677325593e-02 4.127930203121562558e-01 2.021472060464637732e-01
4.992185604296243140e-01 1.151325153613301094e-01 2.554747106455374506e-01
2.323931034228800263e-01 4.073620389070237158e-01 1.913916750334518635e-01
-1.752553100728373725e-01 -1.094995518905688692e-01 3.831548123915390347e-01
-6.723235379469464368e-01 -2.810522152661785733e-01 4.790571789242387690e-01
-2.324792316237656309e-01 8.171947352033231970e-01 1.096030391948799032e-01
7.699741731102557329e-01 -2.024872076138301280e-01 3.268420884185323505e-01
1.839607865720943036e-01 5.096750113555476025e-01 1.649446051468667906e-01
1.033587218693247795e-01 5.701777925601541064e-01 1.539378681521254844e-01
-3.422039967462409682e-01 2.309172216998742200e-01 -3.875806060930340191e-01
-4.051097059840399472e-01 -8.395966431588435253e-01 -6.007240416988866155e-02
-8.047933453493431033e-01 2.932857559722155116e-01 -3.650915455002553545e-01
6.805174555033671746e-01 -1.406569327487260969e-02 -4.050978429267685366e-01
-5.968116034468716746e-01 5.200573191604306311e-01 -4.518239685686958884e-01
2.056957918521487017e-01 -7.620676661364170767e-01 -1.378426504677731923e-01
6.406419432692491700e-01 -7.232952524949090023e-01 -1.882798519258299941e-01
1.463781004624056248e-01 7.297880724292692411e-01 -5.811497925138680021e-01
2.724494423657602415e-01 -7.274336989992458147e-01 -1.542085136736454087e-01
2.659388915312260182e-01 -2.730353840349331040e-01 -2.902640136738269261e-01
1.680107659652091759e-02 -6.949204510636782794e-01 -1.411923022241399206e-01
1.351263271705710478e-02 2.456881642016918721e-01 -4.237367874593023220e-01
-2.953321324077821108e-01 -8.887045197583177680e-01 -5.509327407427620782e-02
-4.594975856797498537e-01 -7.820675187112620108e-01 -7.252215003134651616e-02
-3.561371667589788292e-01 -1.026594091814675286e-01 -2.860330578722400929e-01
2.212654612693210621e-01 3.269122429328589763e-01 -4.666831892071052756e-01
-9.295192095635493867e-01 -2.523961645671842779e-01 -1.898867501284303705e-01
8.532977767305237604e-01 -2.253711051435874219e-02 -4.179550850725866629e-01
-2.186241775299754830e-01 5.021552033325565878e-01 -4.801589050134254522e-01
1.590169920807334991e-01 6.268030941992377425e-01 -5.513094200862757033e-01
3.280453987807634975e-01 1.121539497996137114e-01 -4.116263065650313524e-01
-5.410058355690868792e-01 -3.341134014505746652e-01 -1.999533362022050675e-01
1.124069499559402219e-01 -7.937186191107610256e-01 -1.200079721830663443e-01
-2.331112214575672692e-01 -8.074703830788112491e-01 -8.506751764632346224e-02
1.774296090687771665e-01 4.209461975623957630e-01 -4.910505946034467994e-01
-2.554353996714998076e-01 2.784945263826997808e-01 -4.096229566508066133e-01
-3.624146598286095422e-01 -1.138208192557132042e-01 -2.821171793046078347e-01
1.933389874433793804e-03 -3.743080289696600338e-01 -2.362737621905729724e-01
6.398690187868081303e-01 -6.262096383247719444e-01 -2.174042400071864167e-01
-1.023051986922449558e-01 -8.400347371957825882e-01 -8.693779854567544596e-02
-1.836286342880438516e-01 4.936428989386239530e-01 -4.807193813466693610e-01
-3.050244169262533167e-01 -5.618167087896974721e-01 -1.525231443063056469e-01
4.612457656639369907e-01 -3.045123237603283295e-01 -2.982119756966998825e-01
-1.549273023038424402e-01 -7.843653809738944105e-01 -9.898574991912295618e-02
7.254880696206237323e-01 7.155037388156684774e-02 -4.348517335130875350e-01
-6.401721591939499856e-01 2.737878473084447498e-02 -2.998113864285010810e-01
5.957774909067170555e-01 -4.028254734612904953e-01 -2.806439993589213144e-01
-9.184663906594033866e-01 -2.973375517005254487e-01 -1.773584701640100181e-01
7.200121207397257583e-01 2.901618094910321521e-01 -5.000991975363477948e-01
8.619727546201551016e-01 -6.888399471560065213e-03 -4.234340315635146679e-01
8.497898121870710308e-02 -1.891022708445585197e-03 -3.556623264720902289e-01
-8.800297886021876126e-01 2.757804931501231516e-01 -3.531199229341926982e-01
-2.042083265374300127e-01 2.608907082843237579e-01 -4.088968008472887994e-01
5.527089261630425687e-01 3.249614275621784953e-01 -4.956470758873521842e-01
7.979183959593375008e-02 3.290358282673171431e-01 -4.547083865222551480e-01
-9.002550504318981295e-01 -2.840405717074550584e-01 -1.829804924970174496e-01
-8.425468875208033670e-02 -3.713600647334068250e-01 -2.294759379656261256e-01
-6.145758219945619549e-01 1.781555829863389340e-01 -3.474315261077058903e-01
2.981086733655241017e-01 2.812600890389948538e-01 -4.598068552964539868e-01
3.031406634822333621e-02 5.247721562172760201e-01 -5.091543181884635727e-01
2.705508483442551904e-01 6.206324262206159847e-01 -5.593979410767512261e-01
1.426521380373882431e-01 6.452677976278774485e-01 -5.554026503372083701e-01
-7.971685047256125145e-01 2.044264900227772963e-01 -3.390516871138862798e-01
-1.350406881107623358e-01 7.273451466773807050e-01 -5.553247712629267863e-01
7.164073216446722459e-01 -8.885129543832473442e-02 -3.858099088964861978e-01
-8.453208451963217795e-01 1.907145317458175671e-01 -3.306354338851987262e-01
4.426211183689385265e-02 1.369701772798804784e-01 -3.937872044885586398e-01
-7.528784672769757158e-01 -5.279416033645559780e-01 -1.227799650843806600e-01
4.592359790365568850e-01 -1.592803860867048615e-01 -3.417035175470917729e-01
5.749924522723067755e-01 -5.683034632899485183e-01 -2.290322242681405440e-01
-2.833055882836603145e-01 -4.795225387492554336e-01 -1.792050938364632418e-01
6.109458990666041256e-01 2.070744127558634129e-01 -4.653911000022067368e-01
1.986021098628555637e-01 -5.143545306377391574e-02 -3.508947841896539188e-01
-5.053598879760610174e-01 1.709502560183149000e-01 -3.550022699232577850e-01
-8.336510842349956762e-01 2.914056261856439178e-01 -3.619533290304189355e-01
3.581433211828986551e-01 4.932555366437144095e-01 -5.289056404966389069e-01
7.307706273590076629e-01 2.675420553173842309e-01 -4.942567134079653979e-01
-5.688552346353491496e-01 5.577057512467082923e-01 -4.656372232061009586e-01
-7.749717927101348325e-01 -5.168841076383819955e-01 -1.241351412001140686e-01
-1.817896407610097298e-01 7.170222668718246872e-01 -5.480527236886465481e-01
-2.153589002946002806e-01 -8.482867395425819357e-01 -7.437692698512743394e-02
2.930539494680082235e-01 -6.359313803494844874e-01 -1.835599713007260991e-01
-1.905219404541134975e-01 4.126175775923846545e-01 -4.557407685501846939e-01
7.907774647609827623e-01 -1.709120178915745913e-01 -3.677651563165389437e-01
1.360755305220405498e-01 -2.881208019458624814e-01 -2.741496602614468814e-01
7.054963751250927784e-01 2.492737846739557367e-02 -4.190499656351703295e-01
4.184097126509404158e-02 -1.269125997893656710e-01 -3.142227282874082150e-01
5.864352841235912495e-01 2.716234998147927238e-01 -4.826154896467064748e-01
-1.283050707852216588e-01 2.247343765554726119e-02 -3.439728767131175480e-01
-4.333433283321547203e-02 -7.513214393789402479e-01 -1.188712352095212393e-01
4.655111640756997571e-01 2.363136011768716960e-01 -4.612167021461590077e-01
-4.658725637318551493e-01 6.546209702284859766e-01 -5.039609069624563231e-01
7.855036513456244984e-01 -3.246073353927056426e-01 -3.210793225861077183e-01
5.595580993473993070e-01 -2.326168848749391449e-01 -3.285959073170123812e-01
-5.507209976923647249e-02 -4.604625232477103647e-01 -2.052849756289035765e-01
-3.043032766473772743e-01 -8.982308421828734124e-01 -5.142890282585572959e-02
-7.747186469889154603e-01 1.620811578920164919e-01 -3.283201569500330264e-01
5.761219505465576818e-01 -2.267235033412372813e-01 -3.318448087603866892e-01
8.907806768881930404e-02 6.916612347112377490e-01 -5.645764912860273821e-01
-4.990494547803163705e-01 -7.227060542871395488e-02 -2.824292389569113548e-01
7.492725603162461168e-01 -4.934275770333795830e-01 -2.670854212438192876e-01
8.117307546080053393e-03 -2.977640115576504765e-01 -2.598416158781002294e-01
6.089855426852350817e-01 -6.430368614970880525e-01 -2.095908770348453298e-01
8.505208753052908577e-01 -1.139351180257167778e-01 -3.902244484639925681e-01
-4.185523477852517438e-01 -6.120629609013478190e-01 -1.272924700210571747e-01
7.439834398777481761e-01 -5.277590034992115653e-01 -2.562905212594094317e-01
-6.396302470186575606e-01 -5.026596992139968911e-01 -1.404790103779752219e-01
3.938094982266354682e-01 1.170347250752709761e-01 -4.189572651972545136e-01
4.338212006338086901e-01 -1.531080144099720430e-01 -3.412936235644440930e-01
-2.307850598289556965e-01 -8.728146650206393131e-01 -6.562611742611164367e-02
2.619590196829432172e-01 -5.869997866462527414e-01 -1.955011986523735035e-01
-8.900501685755820569e-01 -2.877182241166122423e-01 -1.827844716556562832e-01
-2.362648268530626872e-01 -8.180697387640585294e-01 -8.159916315044581092e-02
5.754987568638670892e-01 -5.285743337655587348e-01 -2.410237731134525219e-01
1.128837087681657803e-01 -3.814935362184871392e-01 -2.440050981988734213e-01
-6.041653624662312039e-01 3.730319985544171182e-03 -2.959106333355791540e-01
5.865728911490876163e-01 4.378483297416758124e-01 -5.326109747830728436e-01
-1.767095580526145959e-01 -2.237252521296028210e-02 -3.261722581417393352e-01
5.997458713630052785e-01 1.558090817776505987e-01 -4.489772365301330503e-01
-4.469547962363831783e-01 -4.166391185435828759e-01 -1.835234501538345053e-01
-4.455252417099948015e-01 3.600128987554634952e-01 -4.171874105472075378e-01
6.040816516428405558e-01 1.389616717500561371e-01 -4.442978450829868642e-01
-8.053040117481011784e-01 -1.307988726055989981e-01 -2.375252730830494929e-01
3.929389340915592777e-01 5.828037659451231756e-01 -5.589347461663054517e-01
-4.496235198454693466e-02 -2.224895378603528595e-01 -2.777439622156962495e-01
5.086831933178747045e-01 9.569085713669331361e-02 -4.227810286602229906e-01
-8.034043934373568119e-01 3.686937834345475062e-01 -3.878903064965896763e-01
3.736370134569330093e-01 -6.453773948257648385e-01 -1.879041288413477451e-01
-1.204357607308569611e-01 6.667985739474980855e-01 -5.384207625383371498e-01
-2.932326543683299036e-01 5.618098629558215817e-01 -4.914449848991000458e-01
3.372422537577215440e-01 6.556777882087513332e-01 -5.758819596709153776e-01
2.787910819463573220e-01 3.197415885579685257e-01 -4.696558080304384375e-01
-3.554946602636196440e-01 -7.083366159630782866e-01 -1.039653549506359409e-01
2.898313791545953921e-01 7.387499325018827279e-02 -3.967089145513571502e-01
7.079368851554894704e-01 2.959726282035897785e-02 -4.206717717309925719e-01
-4.170298892481562048e-01 -8.656420986038538823e-01 -5.117786090176443259e-02
5.154818609299940957e-02 6.176071145374533167e-01 -5.389626301813515985e-01
-6.004224886593640537e-02 -7.526712168289086957e-01 -1.169757350094040443e-01
5.853232168405915203e-01 -3.554963982640775844e-01 -2.939436130864049868e-01
-8.108114455631519890e-01 -3.956329985347889489e-01 -1.573995651491021108e-01
-6.675100425573875507e-01 -2.474150501018250181e-01 -2.147444929706560368e-01
-1.564839659345044695e-02 -4.719994272789568845e-01 -2.053307668379682760e-01
6.425768212920704436e-02 -1.612839549553743423e-02 -3.495337510746740484e-01
-1.106061356081178455e-02 -6.545504954534683839e-02 -3.279862513700775861e-01
5.045816898280809371e-01 -6.677965271224411969e-01 -1.928374038751508868e-01
1.559862192072117293e-01 -1.664835698677691878e-01 -3.125007206861155074e-01
-7.164947087452082641e-01 -5.485784749391356963e-01 -1.198183961377431300e-01
5.644036720874420210e-01 3.828257087140309323e-01 -5.140893278303108049e-01
-1.340188939940752944e-01 5.123930945050622077e-01 -4.907805519800269578e-01
7.336606421887256202e-01 -1.058090987120479803e-01 -3.822490111423618719e-01
-2.086065617437568576e-01 4.269526514686838303e-01 -4.584389046384111932e-01
-1.797511323529230320e-01 1.549322966828379222e-01 -3.792160114209837118e-01
-3.626622113236449563e-02 3.268872733544534448e-01 -4.437149404370296368e-01
-5.977065013554527101e-02 -8.264064148145391364e-01 -9.482803753887925069e-02
-5.943062367030145232e-01 5.425320367686963241e-01 -4.588054072712962062e-01
-3.503820495735615603e-01 5.423456217860342932e-01 -4.804968906162488951e-01
4.232071736600098721e-02 -7.232363432592469055e-01 -1.349530673719436247e-01
-2.378111197967922863e-01 7.590141940198968928e-01 -5.556848427134837287e-01
3.893091905466609659e-01 -2.182894858484605571e-01 -3.177252311373742200e-01
-5.063487409249301657e-02 5.085278636875824043e-01 -4.970525560625726480e-01
2.749396590018013051e-02 -8.442484576839537347e-01 -9.724324596709639501e-02
-2.871677526811636585e-02 5.679274027655660806e-01 -5.168679376260686409e-01
-1.013842578036887043e-01 -3.588748303937205897e-01 -2.317029834183089443e-01
-4.368027153166427756e-01 -9.501384263264628718e-03 -3.068534507479194207e-01
-3.196216096897839809e-01 1.104203906968751620e-01 -3.533610134480964504e-01
-1.566813536818479902e-01 -5.573070760227262221e-01 -1.671049906264159279e-01
1.460500781927288605e-01 -3.868638853380331755e-01 -2.453472657670276447e-01
6.332487547681101558e-01 -4.696480080444293548e-01 -2.638915240979062826e-01
-9.466196316252709630e-01 4.911074701059402192e-02 -2.790241869949802167e-01
3.733998556292039139e-01 -6.480147918145315877e-01 -1.870899286559126184e-01
-9.836076657064965478e-02 6.831961846377548886e-01 -5.453196051375791553e-01
8.282369299346734604e-01 1.015698126300947773e-01 -4.530392476917377564e-01
-2.852445964251270061e-01 -6.954331708926009270e-02 -3.023115149245989008e-01
1.228067128649353162e-01 4.942087944497776664e-01 -5.082103864414575511e-01
6.341672238762355862e-01 -1.868886190495515076e-01 -3.489981569103492443e-01
-5.716847261848583273e-01 -7.687583043256093207e-01 -6.652191978101129610e-02
-3.395746032214916332e-01 3.582835089918267601e-01 -4.261136254436460047e-01
-3.875704889877473747e-01 -6.421886626795841879e-01 -1.209960265739695867e-01
2.996372837712864001e-01 5.889784367816440769e-01 -5.524729567778640105e-01
1.278969815639115770e-01 4.764259489092543404e-02 -3.743833477217436423e-01
6.306048752347501729e-01 -4.178061294075883225e-01 -2.792444727965581186e-01
1.258383805757085361e-01 -4.300223040437269051e-02 -3.469432318122914749e-01
3.072299615966597730e-01 -3.366654708327585510e-01 -2.748120584216828255e-01
8.662197163723572846e-01 -1.358165054267755356e-01 -3.850444537779335041e-01
1.294775935601426287e-01 5.731404613260044911e-01 -5.325396139905073101e-01
5.275133821146377189e-01 -3.319654072467090322e-01 -2.958651497780445672e-01
2.434279903143259441e-02 2.513553838562966325e-01 -4.264064849454118344e-01
-7.787848296825837791e-01 3.410440821831320357e-01 -3.817711447718296069e-01
4.340860496760482468e-01 -4.483029165184261311e-01 -2.525531771285202121e-01
-2.379913908272117962e-01 -8.968457028059599878e-01 -5.775757511241402797e-02
1.098364694812511144e-01 -7.945915302225235732e-02 -3.345540828874898898e-01
-6.148237199824035937e-01 -4.106456887563859903e-02 -2.814907025121318185e-01
2.676654980052276672e-02 3.131459936275431954e-01 -4.452027962778954406e-01
-3.251599729287033558e-01 -7.327430639335235085e-01 -9.933097099219226345e-02
-2.387654974447949441e-01 -7.641560067192589845e-01 -9.758787889003621430e-02
1.576319752235253169e-01 -1.026015911011018793e-02 -3.596232765392099462e-01
-3.961002836772834490e-01 3.685334675364279056e-01 -4.241560940821578751e-01
4.849073298912147112e-01 -8.014656853175986528e-01 -1.508894563136397027e-01
4.327033418760688477e-01 2.157631597580713378e-01 -4.521122118212480001e-01
8.616959475721944761e-01 -3.188896017388707094e-01 -3.295916978992684543e-01
5.736732750761488475e-01 1.275609501065182172e-01 -4.381585702921457770e-01
-2.829916156507892300e-01 -7.690728122471941486e-01 -9.216634690359103155e-02
4.865647296183801540e-01 4.551300780962692083e-01 -5.288911120757752160e-01
7.734890937105418640e-01 -2.357139122288485489e-01 -3.467380781255200994e-01
-2.380717630009016317e-01 -1.826257399011098348e-01 -2.725138178223373564e-01
-2.161889301395388541e-01 3.594655656829404133e-01 -4.374697565448645853e-01
2.387534861197228298e-01 -5.115373451014958439e-01 -2.161235523461890740e-01
-6.475955379356641561e-01 -4.383433521441995606e-01 -1.591085466360356582e-01
1.529384907157200213e-01 4.062745952541901295e-01 -4.844553423250954616e-01
-3.121536964935384684e-01 -7.941342097891690432e-01 -8.203047127599659427e-02
-3.537155491031111487e-01 -7.156814318158207788e-01 -1.019154150195699937e-01
3.343374776610114063e-01 -1.363136989533035026e-01 -3.374739488590665082e-01
4.420153160650062141e-01 8.650766848631409600e-02 -4.140757715163876362e-01
-7.911777958967579627e-01 -3.245929160589885454e-01 -1.805115422762723076e-01
-7.305253123212314126e-01 -8.945783140984396586e-02 -2.566234185797264811e-01
-6.003764367861911255e-01 2.306188915834993525e-01 -3.644730307795654989e-01
-1.288372368267726720e-01 2.969652502365909830e-01 -4.264641444231468403e-01
3.446180929296637774e-01 6.332344505970941562e-01 -5.697909350488076230e-01
4.836311615137466879e-01 4.373015806047722553e-01 -5.232685981459879176e-01
2.670147318343417675e-01 -5.973979389633362613e-01 -1.928252630468586526e-01
2.159562466541089520e-01 -4.314581792088467149e-01 -2.381705409273571217e-01
-2.963415258895549798e-01 -7.632304767271401724e-01 -9.273287912246412634e-02
2.214522872783777074e-01 -7.848993591829565020e-01 -1.323820425333416262e-01
-6.603022361068687784e-01 2.934486557416264851e-01 -3.780229161443775521e-01
-4.470322052095879184e-01 -2.382957350499149626e-02 -3.016329849206774716e-01
3.235246455617092898e-01 6.201704850314161688e-02 -3.961472616657768508e-01
-2.135481766357079370e-01 5.141186199643166255e-01 -4.842088227237088538e-01
6.955090890431332440e-01 -3.518772730650692737e-01 -3.048557079928037594e-01
5.209375065094238311e-01 -4.401691703241657483e-01 -2.627423771373098571e-01
4.453631016669658549e-01 1.504255546123758891e-01 -4.335941314317692807e-01
-6.827532475483766294e-01 9.420822382975327369e-02 -3.161103614627567837e-01
5.831682802321733750e-01 3.997999538432869260e-01 -5.208664184236141415e-01
-1.580187236202896806e-01 -1.846847187900732823e-01 -2.790319753713750295e-01
2.389031574264701696e-01 2.200611404114620126e-02 -3.765715214784338127e-01
-1.033664110059318575e-01 7.470449898101491071e-01 -5.640724262730488769e-01
-5.024894617922275319e-01 -5.715383246683813923e-01 -1.319945068756512296e-01
2.219732224368826667e-01 -5.107682096778576319e-01 -2.148587514320848824e-01
4.146267993970250143e-01 -8.091804979797532216e-01 -1.423036414580675924e-01
-6.230331462581313318e-01 -7.654392998200516551e-01 -6.294186390304050416e-02
-5.235902437825855626e-01 -4.400306386783394141e-01 -1.696571199389207141e-01
-3.129717973854872354e-02 -6.151352197159223323e-01 -1.608951441192492393e-01
-2.049316473029564878e-01 -1.249475490231228836e-01 -2.928121169387723488e-01
-1.966897771753527147e-01 6.287067264331844818e-01 -5.201681032796547921e-01
-7.910852421344963803e-01 -1.877078301100356117e-01 -2.216806536983118858e-01
-3.280509228118249632e-01 4.661199966722824328e-01 -4.595670908839108448e-01
-9.245915589652575761e-01 3.498910250739229594e-02 -2.767418144765436128e-01
4.929091156073845958e-01 -8.011914867104306115e-01 -1.516853217073464988e-01
-8.362962719983239035e-01 -3.149780687091195963e-01 -1.793800668325115089e-01
3.609357289940823277e-01 5.991334392513240070e-01 -5.609917126811633237e-01
3.467586192118315425e-01 4.131471778197466915e-01 -5.038023159050641908e-01
3.360914590862696394e-01 3.934122610934649433e-01 -4.969170449638535825e-01
2.195319775057329725e-01 3.369739890692182160e-01 -4.695541684332281696e-01
-1.105585118755425950e-01 1.057960390370836362e-01 -3.706099164260812096e-01
-5.208977893731797648e-01 -7.693444040397060535e-01 -7.087369029446656532e-02
4.383130111475317392e-01 3.199596086012603813e-01 -4.839438552774277258e-01
-3.036149704182095066e-01 -1.437015875851139768e-01 -2.783745395364416453e-01
-7.601895600175777312e-02 -9.824264150519202987e-01 -4.646472763396046479e-02
2.476314232451485575e-01 -4.568948408365460789e-01 -2.333458893175732185e-01
4.204680579538118690e-01 -3.327465235800664556e-01 -2.860864357659798629e-01
4.017909535268459620e-01 -8.310222799793580695e-01 -1.345914901889495585e-01
4.574830931227016895e-01 -5.365683571243305972e-01 -2.280980814862165196e-01
7.888099155315722588e-02 3.515632353349961159e-01 -4.614010894518236761e-01
3.543262883944730546e-01 -1.891957313578205013e-01 -3.233546508563503452e-01
4.143650912712757983e-01 1.347262843523738818e-01 -4.261097283687829140e-01
2.678513699996970532e-01 -3.108543544506838230e-01 -2.790624942256970664e-01
3.322638771902368116e-01 3.146649540780586118e-01 -4.728967536326023069e-01
-5.282804297102614566e-01 -6.281806385421885297e-01 -1.126629199332725428e-01
-4.661906448736343744e-01 -1.853447358083888385e-01 -2.513578406152100486e-01
-7.418428812384453286e-01 -2.264625127525045911e-01 -2.144175570810406273e-01
5.400417352376475355e-01 5.187719132733313865e-01 -5.527958330417229726e-01
2.457481804383684354e-01 -3.359015134103540134e-01 -2.695602493385199638e-01
-5.433606952461875750e-01 -5.731254506457527098e-01 -1.278733090221513824e-01
-6.858930152792270807e-01 -1.337199066187710061e-01 -2.472932493070412741e-01
-6.461922316594580495e-01 7.095413394652848316e-02 -3.123776079840015485e-01
-6.947438507674439379e-01 3.912776740451455182e-01 -4.043690453302731802e-01
-4.577076043467284139e-01 6.783231593126148873e-01 -5.118160340261507235e-01
-3.247198254074043500e-01 -9.567517737851125581e-01 -3.201158904345401818e-02
-4.425595432037111032e-01 4.213736871054368782e-01 -4.359027945133088222e-01
-1.652323915725484316e-01 7.253605185011102741e-01 -5.520362002790153433e-01
-3.134942881855194013e-02 4.567337976526371079e-01 -4.831976957642408199e-01
6.370712506492460792e-01 3.847974690268867737e-01 -5.211610491596762040e-01
2.912105640973352005e-01 -2.537386111210384598e-01 -2.983196301774771464e-01
-3.734580886103759378e-01 -2.496535352758758042e-01 -2.402881651192982637e-01
-5.654578773868067509e-01 -3.254207929272339705e-01 -2.003871031582826756e-01
6.290130968318446980e-02 1.048417989957223101e-01 -3.857881292609882107e-01
1.116441300181980900e-01 -6.984692986343760124e-01 -1.485810941572009158e-01
-2.448132685809736031e-01 -4.504740730647599500e-01 -1.913717223885690322e-01
4.572680281117774137e-01 -8.096113907095250362e-01 -1.459758356342778784e-01
-4.464264382475916504e-01 3.053272964036765069e-01 -4.006632960321952486e-01
6.223174307529884264e-02 6.355744091033511678e-01 -5.453178453051228392e-01
3.833354147424676284e-01 5.744736064133168507e-02 -4.001057187714245345e-01
1.043953649217543855e-01 5.936816069293638920e-01 -5.364800084644786304e-01
-7.019027683938111606e-01 -6.757307481069431132e-01 -8.288513175674826206e-02
7.867740132621605653e-01 -2.137844689144837718e-01 -3.545166268827334433e-01
4.899505597330269802e-01 5.882082025789102664e-01 -5.692091021839459364e-01
-4.658728327807842851e-02 -9.028599699485522212e-01 -7.301411364411500293e-02
-6.653149057844968128e-01 -3.874799791175753128e-01 -1.728231775431463002e-01
-2.804732934045809922e-01 -2.345263756175392234e-01 -2.531270895113175712e-01
2.281739689946147842e-01 1.967360820576325442e-01 -4.281556210691689346e-01
3.864487173964690769e-01 8.285462924662126416e-02 -4.080231668670408762e-01
6.638751070864676862e-01 -1.265987901392281179e-01 -3.697757589197977479e-01
-8.424932570187303182e-02 2.256251326203778662e-01 -4.089877465713667171e-01
-5.882756381213314345e-01 3.081375062299804291e-01 -3.888614734870241008e-01
2.460280564731313901e-01 -9.382851755720164055e-01 -8.845057256954894087e-02
4.044163575240786734e-01 -3.949118240266055735e-02 -3.728361555205867428e-01
-4.207276865196069582e-01 -7.521777740054671479e-01 -8.496649633896892484e-02
-9.686186750309960791e-01 -2.226694629946015386e-02 -2.555998001858147961e-01
6.195733390682172104e-01 -5.573329705104385079e-01 -2.363057086167801857e-01
7.558462582929384443e-02 -9.584034232017927257e-01 -6.720486969503654262e-02
-1.779547928348146624e-01 -5.003153064808402162e-01 -1.823455384453786798e-01
2.883025775435832383e-01 -6.330248910579812094e-01 -1.840103244662750770e-01
7.688412191478941615e-01 2.505981913607128186e-01 -4.925560116635189778e-01
-1.840748656664748795e-01 -2.658810611665803347e-01 -2.522934370700898876e-01
-5.707416397989920620e-01 -3.389839797125868137e-01 -1.958376168553579433e-01
-1.142534438593861661e-02 -2.446185925279570628e-01 -2.740798914643722273e-01
-2.994977844652625953e-01 5.990920473268296353e-01 -5.020970255248839997e-01
-2.895524631590732367e-01 -3.814279023661403811e-01 -2.081448505702971075e-01
-9.294140753176010072e-01 -1.494381264122440767e-01 -2.208552403059718949e-01
-3.980958879757791058e-01 -2.142641347436994026e-01 -2.487330011220842130e-01
3.219712385200194094e-01 5.187760484199450683e-01 -5.333545750982235933e-01
-3.302714373963678285e-01 -6.955991632727774876e-01 -1.100442875110875240e-01
5.214218666103360711e-01 -4.921588529435917958e-01 -2.471524481296575593e-01
-6.995702759377572244e-01 -6.362349646551014315e-01 -9.496933161452800198e-02
7.182281163528629886e-01 -3.624151175346516096e-01 -3.037125748397332403e-01
1.252303820802393441e-01 -1.686600156362562386e-01 -3.091041743933315988e-01
6.977857910152283072e-01 -4.991816549485555421e-01 -2.607647868817998815e-01
-6.550404623684601413e-01 -7.234743469407561856e-01 -7.270690149379056832e-02
-8.764644487173812726e-01 -1.213691818743664885e-01 -2.340162997792722688e-01
5.688096855413908859e-01 -2.601284400602209557e-01 -3.211481235470159401e-01
1.232078201245296323e-01 5.470480838339888408e-01 -5.241347347616934771e-01
-1.739102236686770331e-01 4.882712677753021091e-01 -4.799706148110166049e-01
-1.758159997364024396e-01 4.615620999786783640e-01 -4.717693496413194465e-01
-4.372071112200892617e-01 -4.467486514697652233e-01 -1.753386943561877354e-01
-5.088835907478335141e-01 -4.170191410746692529e-01 -1.778877960088335874e-01
-9.369854363742975423e-01 1.127473448836887743e-01 -2.990184416702835746e-01
-8.800518205360519097e-02 -6.751027051016732505e-01 -1.378072212715812928e-01
1.085524298655606568e-01 1.963618222340549058e-01 -4.173779903393731727e-01
-1.840246281953696744e-02 -5.544559649841609428e-01 -1.802908343882446418e-01
1.060963901062165204e-01 -1.021508630405707982e-02 -3.550420739513618362e-01
7.224852083445556516e-01 -2.919533004213976657e-01 -3.252797425704098133e-01
-5.859743500808548555e-01 -3.434990100392151802e-01 -1.931218611991753487e-01
7.262032499708640509e-01 1.916112605875109065e-01 -4.710173794135518732e-01
-6.271311520980318299e-01 4.679468880852873103e-02 -3.068123763647653268e-01
-6.757615366624174502e-01 -4.096040017035169067e-01 -1.652391726637489622e-01
8.451228704104730705e-01 -2.286466626961080606e-01 -3.552498243564220504e-01
-3.149415705084859796e-01 3.523034568335010053e-01 -4.265116511580958059e-01
3.822345746206402550e-01 5.904522369978576490e-01 -5.602802461804178291e-01
-1.025765724249008970e-01 7.152826483651005818e-01 -5.545920225111296009e-01
-1.598867017774542043e-01 -1.539237899672592225e-01 -2.881151342700820073e-01
-6.958675856932896586e-01 -1.661632295694761841e-01 -2.366483548991477615e-01
3.235824287898757534e-01 6.184616600059212876e-01 -5.634733335871204840e-01
-9.099302574783398878e-01 6.090119844776754193e-02 -2.858406467676905538e-01
1.547440016550402642e-01 -9.854432517961667082e-02 -3.328190581487383004e-01
6.527392113003684937e-01 -4.730523302148239018e-01 -2.646055662489087967e-01
-6.669341725204491755e-01 -3.015700315857637870e-01 -1.985116250251791059e-01
-6.937134007195990826e-01 4.405646436275991729e-01 -4.192813339778433956e-01
-7.299195950918114795e-01 3.213164783190729928e-02 -2.932389474330343027e-01
2.912111012859063819e-01 -4.509051273119969033e-02 -3.610594208731888743e-01
-3.428935753188074864e-01 -1.190839430390874462e-02 -3.145023242977812994e-01
-4.778529825235810491e-01 -1.191560673642086954e-01 -2.702207598390605203e-01
5.616210356991017116e-01 -2.796811083295667189e-01 -3.146277874533735530e-01
-6.161990670464616571e-01 5.521400143181210973e-01 -4.597425939464750977e-01
-3.230355285051245695e-01 -1.287902265535339763e-01 -2.811268550709823955e-01
2.349056354790199086e-01 2.448076009582166035e-01 -4.432107311044958808e-01
-2.087618086745887391e-01 -2.574779247016192874e-01 -2.526192177306406661e-01
-7.702818981288682698e-01 2.190885475448231534e-01 -3.458576437454077279e-01
4.195320308488484917e-01 5.534469228978192712e-01 -5.524782071535193628e-01
-3.229894925686118690e-01 -4.865768667484100529e-01 -1.735457863880587037e-01
4.305925951671346064e-01 1.454985648819675237e-01 -4.307957097262944401e-01
6.153481259249173052e-02 -1.199472991823135326e-01 -3.180730123800989406e-01
-4.246505404499669734e-01 2.919947227684632218e-01 -3.985957111810102815e-01
-4.531131220393718184e-01 6.051185624143690794e-02 -3.264519975358118331e-01
2.468721626538834812e-01 6.489712835010023051e-01 -5.658082153968018169e-01
-3.325392859509881394e-01 -1.947222581265476149e-01 -2.604540010648841442e-01
-2.846230445759397876e-01 3.114099522267796960e-01 -4.169182268717457340e-01
-4.478729864500728686e-02 1.728226574691199835e-01 -3.966285438153416831e-01
-2.382318535001954479e-02 2.492055047502712561e-01 -4.214656914460537251e-01
-3.249534114447427124e-01 7.447836509878825728e-01 -5.436364275836125248e-01
-4.872839012623927379e-01 -2.814103008711291709e-01 -2.205906555864182716e-01
-4.934278742810082607e-01 2.304124222503756148e-01 -3.739461543116145981e-01
4.693595842276458985e-01 3.001379319073290142e-01 -4.807515653378880427e-01
-2.024005487044135652e-03 1.165834240340893335e-01 -3.835302508704405700e-01
-3.813014723457592292e-01 6.962666574882916404e-01 -5.240237182945350902e-01
5.011883193124397895e-01 4.353792221462977063e-01 -5.242558944990964864e-01
5.410349790207595877e-01 -2.464802489998401680e-01 -3.227757779212356848e-01
-2.693607401087406150e-01 3.088705157703445781e-01 -4.175153679263532425e-01
-7.131551427845785884e-01 -7.519948321204984742e-02 -2.624595247034315348e-01
-8.714775828570191507e-01 -4.201330737709081387e-01 -1.446236714174693461e-01
4.356947243406028014e-01 -6.068416995795024027e-01 -2.050245521681902938e-01
-4.550858392411484821e-01 -7.500295620161810950e-01 -8.254918780018623281e-02
4.160206385348352853e-01 1.879683440983891118e-01 -4.422670303580252260e-01
7.976431892632570575e-01 3.889112648198844030e-02 -4.314643444342907141e-01
4.220964663987442078e-01 2.786492308848357302e-01 -4.700761535439292871e-01
4.983449788232360844e-01 1.179681101566035645e-01 -4.285579958728961691e-01
6.465467946949022826e-01 -5.540844365741083299e-01 -2.396874024017864313e-01
2.345661410190143792e-01 3.441793005648913217e-01 -4.730611802653008069e-01
5.535576246946635193e-01 1.780369121914792963e-01 -4.515430628509353728e-01
-4.656840257686405415e-01 5.263205323375835798e-01 -4.653982300311920173e-01
7.360369823283652302e-01 -6.014667711345899059e-01 -2.334183751275362428e-01
-4.801068646067903067e-01 -1.341485506360332036e-01 -2.655116240573101027e-01
6.271538574702285596e-01 1.629371374184746327e-02 -4.094690730016938840e-01
-3.516290906163184737e-01 2.112892988048969967e-01 -3.808382466619354978e-01
-2.250372957640497384e-01 -7.370465390656440186e-02 -3.064281152794763874e-01
-7.735176758065702429e-02 1.069315619406871753e-01 -3.739119763260997376e-01
-2.401656831218796639e-01 2.723641558255233130e-01 -4.091409774023850310e-01
-5.366290699107268969e-01 -3.082298844550075412e-01 -2.081266370124904286e-01
-2.264556899533109735e-01 -4.296458050576795751e-01 -1.992714144731407566e-01
1.869901511115576176e-01 1.725660038278291064e-01 -4.172159405328405568e-01
-8.232292143205404145e-01 -3.795227323076771353e-01 -1.611367345917124605e-01
5.661681598392810377e-01 -6.255114730217111729e-01 -2.110432317039409866e-01
-8.426388741382845327e-01 2.606248184078147623e-01 -3.518963253807653735e-01
2.588487625568890449e-01 7.223605956188066113e-01 -5.889439183032791902e-01
-7.167808339940423545e-01 1.444031913269424316e-01 -3.281700140945483235e-01
-1.805111375998101064e-01 -7.776599956639940192e-01 -9.872105864683171361e-02
5.704053029296239918e-01 -6.994014815014877318e-01 -1.892025391254870959e-01
5.269782428101286165e-01 -1.406157080254644975e-01 -3.533556139420795383e-01
-1.617949750163357459e-01 -7.870147115073181654e-01 -9.757680484484436423e-02
-8.905008394961960727e-02 5.097737123272498838e-01 -4.940021952078831324e-01
-3.053918144047382266e-01 4.381879049975964113e-01 -4.531882271325741174e-01
-5.431683230956090291e-01 -2.095333478614442094e-02 -2.939266562029113072e-01
-2.407491530644017275e-01 -9.401540912141335138e-01 -4.448902271467507913e-02
-3.863310757820333508e-01 2.404115915348353227e-01 -3.865012934312000437e-01
-6.264795201819278736e-01 -4.629027516362160255e-01 -1.536062621928196426e-01
-9.506527564728747270e-01 -1.715761400492890609e-01 -2.123048420309338047e-01
6.684204278733195670e-01 3.472931264106299820e-01 -5.126786235878445508e-01
7.912414120325954592e-01 -4.450263982072176772e-01 -2.853812989716318915e-01
2.779150105232665036e-01 1.625720018033531833e-01 -4.223173631468545297e-01
5.703178135726593156e-01 -2.275390838008733430e-01 -3.310820874337874198e-01
-3.819765326675887418e-01 5.081146381821198821e-01 -4.673868874209521351e-01
-3.367567735968112208e-01 -6.605413653386429385e-01 -1.200078301229356714e-01
-2.052763123036644155e-01 7.425934103624531879e-01 -5.536478756899454456e-01
3.974015635862050977e-01 -4.922147446909908575e-01 -2.360783691579176335e-01
5.458155292582650420e-01 4.071771897209893604e-02 -4.095614070736305901e-01
-2.783511731823797297e-01 -7.344399577807880775e-01 -1.029940510658561986e-01
-7.520241079620414437e-01 -2.570658387468519046e-01 -2.043075183815268869e-01
5.702447474655676363e-01 -6.226441822146040472e-01 -2.122688720128751150e-01
6.360439956258988614e-01 -1.310075200224583014e-01 -3.659687323482818111e-01
-6.852028865055505014e-01 4.237969587815074712e-01 -4.149981221735574155e-01
5.477569423517063552e-01 5.601950317672208524e-01 -5.659394821537210296e-01
-1.239067408177661200e-01 -9.054455841545003825e-01 -6.534306126468246434e-02
-1.438510586603123087e-01 -5.295387048033586147e-02 -3.199061198745524193e-01
-5.586566146839500036e-01 -5.533601202020717036e-01 -1.324529361553152262e-01
6.515875281890594062e-01 -3.066076588026595551e-01 -3.145522077576496378e-01
-5.497103824595668264e-01 -9.976151844842724714e-02 -2.696460449356934963e-01
3.295957701011436453e-02 -5.605924057141424832e-01 -1.830249114871560778e-01
-5.755048387841331659e-01 2.319345153775364266e-01 -3.670861101189457631e-01
4.746282153749752930e-01 -2.473512737816547791e-01 -3.165932390511088101e-01
1.219301276785383636e-01 -3.861650976730051643e-01 -2.434069274062068966e-01
7.211836508378449695e-01 -4.572875320460497717e-01 -2.754482829030839852e-01
-1.107611139229449371e-01 -6.298867152981905138e-01 -1.493746593736053896e-01
-1.904243922718973081e-01 -4.291184994710626199e-01 -2.026424141621339936e-01
-3.978204226421339640e-01 4.058311667767143804e-01 -4.352180175419325114e-01
2.550043705439488662e-01 4.168181163799056232e-01 -4.967256247243848621e-01
4.054426518120450296e-01 -7.161819598509091556e-01 -1.694491412407532760e-01
-6.590369550345470673e-01 3.097357033591962017e-01 -3.830331821757453903e-01
-8.800418471888455940e-01 -3.223179704612130769e-01 -1.732727621615735847e-01
4.850266146214788909e-01 -6.404588360662507585e-01 -1.993142796167444442e-01
2.544964552981285322e-01 -2.887595684073009372e-01 -2.845156344627295941e-01
-2.692685604870297400e-01 -9.707128012285434204e-01 -3.275742353865537804e-02
-3.824279421359960685e-01 6.319316476148446604e-01 -5.045779765013672646e-01
-3.489159047236097821e-01 1.671922138386367773e-01 -3.678203090816906662e-01
2.251150625117539772e-01 -2.461374804764820401e-01 -2.947123895581202357e-01
-4.379396585590258906e-01 -9.348245538780204644e-02 -2.814992742691641570e-01
4.418500927472945317e-01 -2.229466091344243783e-01 -3.210092375212150184e-01
-7.069693662447283922e-01 2.926678674521785428e-01 -3.736274366750617082e-01
-8.566444514739292304e-02 -2.093732020704901775e-01 -2.780591231738705482e-01
-1.643123222749423018e-01 -8.344927779781324828e-01 -8.307587971702244667e-02
-8.419473897017991371e-02 -3.209364617342660986e-01 -2.446434814001555713e-01
1.752168398987177800e-01 -7.792986080282259254e-01 -1.299439568501651321e-01
-6.027005438344283927e-01 -1.318957708606547929e-01 -2.552589478531905876e-01
-7.058818792245295098e-03 -6.913520245677439169e-01 -1.401380397999097138e-01
3.132227654165491426e-01 1.865452837312618350e-01 -4.326739758525421364e-01
-3.172092224188524656e-01 -1.603612980768867255e-02 -3.155510675634781714e-01
-5.216791808576984879e-01 -6.448827106669234865e-01 -1.082292133563899916e-01
1.070019827587686129e-01 6.025859772258760350e-01 -5.393899191236921631e-01
-4.919400737566732573e-01 5.948339310531393087e-01 -4.836590566288593296e-01
2.974008517256535034e-01 1.899885759391874984e-01 -4.322987279609609712e-01
-3.812797902817533502e-01 1.865214390325432847e-02 -3.202693716698259974e-01
-4.144418188253430890e-01 -7.045196595799130268e-01 -9.985755105313615099e-02
7.850555728976278402e-01 -2.273413804514343994e-01 -3.502869007805410884e-01
3.440051806495077469e-01 1.229965287307968266e-02 -3.830233993573969875e-01
3.102677823696134984e-01 4.114179702491351787e-01 -5.000289374423326771e-01
-1.713300510839856072e-01 1.674987207679877466e-01 -3.837454885117143610e-01
-8.772062219639352731e-01 -3.313319622073376824e-01 -1.708151025388449373e-01
-4.055436693043010243e-02 -2.949767710735885506e-01 -2.563403109313688311e-01
7.566998754230216395e-01 -5.209606932089683173e-01 -2.594685077061126277e-01
6.130961191575313718e-01 -4.384832862128007491e-01 -2.714658977477346635e-01
3.723498755393380710e-01 4.322210265187516054e-01 -5.118193930032339800e-01
-3.587086497134518437e-01 -9.368912426234131674e-01 -3.495324022471329312e-02
7.166191555156503634e-01 9.983874735266605460e-02 -4.425672216631560407e-01
-3.182002319458245299e-01 -4.384564375807077363e-01 -1.884424245760034644e-01
4.466633086372130967e-01 -4.132930353108931198e-01 -2.642018742813898036e-01
2.528430885690454155e-01 4.661865535765356561e-01 -5.113778452875216152e-01
