-4.731819739953143644e-01 -3.139252489312264333e-02 -7.339080991510869012e-01
-7.421794636854703864e-01 -2.950013537509416639e-01 3.039437560701114260e-01
-6.290587313028110916e-01 -5.610880399017954545e-01 -3.278646458011704595e-02
-4.863840517098134697e-01 6.635538375936288202e-02 -7.434189911952920893e-01
2.993429979030892696e-01 5.410916613855955015e-01 -6.386879806242601321e-01
5.698580055952860990e-01 -3.092361550124078096e-01 6.811413033638428205e-01
-8.016382502626697715e-01 1.812851951955316010e-02 5.755979544515303914e-01
-5.490233939881918879e-01 -6.682593687461246823e-01 3.469740530998011163e-02
-3.739022805839948838e-01 2.416790941188945996e-01 8.705218872359218318e-01
-2.081483285010649331e-01 1.286562881770814126e-01 -8.413161231288618369e-01
-2.857662236900015418e-01 -7.257478781748012420e-01 4.426062449399101872e-01
-5.706778285344705770e-01 -5.185654192074855562e-01 -3.929514414638826114e-01
-6.761776194755314551e-01 -3.297658090730929414e-01 -3.984319321731079055e-01
3.363144051246620414e-01 -9.801545288652192822e-02 -8.989606285137565767e-01
6.917962385644908785e-02 7.394796758740175280e-01 -6.515622542620825852e-01
-2.096360768378562611e-01 -5.609491317225087093e-01 -7.757910440912237915e-01
5.187890090702312884e-01 1.881543156485358248e-01 6.165230740629985551e-01
7.908027397085907184e-01 2.571798862966050980e-01 2.324144676119496156e-01
-3.293720806368826137e-01 -4.716924643834874420e-01 5.896794444955428816e-01
3.858441515035858083e-01 -4.942633172091006055e-01 7.244680869473403284e-01
6.014715639420665783e-01 1.285664151635878272e-01 -7.041745064141698984e-01
-2.421617551169711058e-01 -6.913192400041398011e-01 5.051355485199244821e-01
-2.408444673800593794e-01 4.669084095361590303e-01 -7.989178390478517411e-01
-2.477064321998934115e-01 -5.509139379830022692e-02 -8.325855043014012136e-01
-4.186111988186543287e-01 -2.362823450377063150e-01 6.745757864470599552e-01
-1.871456729610642411e-01 -2.122672236324745498e-01 -8.461260182006440367e-01
5.847111923152851221e-01 2.840653668999972292e-01 -6.070264285060538167e-01
7.572939122073304441e-01 3.410490874190456045e-01 1.875286080187386073e-01
4.947235862405007789e-01 1.222402747844167706e-02 6.757918596944519907e-01
6.721049075860057176e-01 1.688605698731852345e-01 4.862583255692760065e-01
5.712994275304502656e-01 1.897486499628869144e-02 6.279801809852321171e-01
9.444065427333803164e-01 1.111920645744051694e-01 -2.177270577356031911e-01
-2.897397019768229720e-01 -3.021208673238888476e-02 8.039109330599744085e-01
-9.934879408598663864e-02 -6.570508458927687423e-02 8.155631644237717470e-01
-5.529555364378168081e-01 -1.653432388755308180e-01 -6.422829588154379543e-01
4.884271094612942926e-02 -6.064776699391793979e-01 6.814853712109628647e-01
6.253123334936121491e-01 3.283883127902834792e-02 -7.481000436180239577e-01
-7.046057483146285494e-02 2.830730475462973073e-01 -8.351634475553079140e-01
-9.534947949426084701e-01 -7.745352645443881467e-02 -2.801900296843004567e-02
5.033393275163999814e-02 -6.929537196902464391e-01 6.494076508579496032e-01
2.194762893831699868e-01 -1.692789026353584414e-01 7.793485781341275009e-01
2.584453155353236831e-01 5.027354932815013555e-01 7.110822467752937470e-01
3.801387561245837543e-01 6.727899236763081880e-01 -4.749819026714502956e-01
6.773595264572254138e-01 5.189670499752717658e-01 -4.079883411670054243e-03
5.045190052106810485e-01 7.417546313385738888e-01 -1.528541089655525709e-01
-3.424330294039498734e-01 -3.333414143670092034e-01 6.609511058549155660e-01
4.291035429062031170e-01 3.219472218426516069e-02 -8.342286324651729812e-01
-7.358074359533133268e-01 -4.012043695680179156e-01 -6.816553381162321346e-02
1.386810467510449507e-01 2.059019877245265584e-01 -8.391221310546849166e-01
7.105371078182641797e-01 2.197867805377121397e-01 4.083019217759046304e-01
2.084594430918630392e-01 -8.835731293242933548e-02 -9.065079399864827137e-01
6.024182193934232155e-01 3.677020340973866097e-01 4.472323706459426229e-01
3.134501536517104170e-01 -2.042613469979424889e-01 7.587304029538511907e-01
-9.984319680132006658e-01 -1.682647356715171946e-02 5.466579150774233259e-02
4.259139795328413525e-02 7.416016354522612097e-01 -6.623412314404629742e-01
1.956049998661202327e-01 -5.969492807016034686e-01 7.086445266074086202e-01
-8.658050751744800211e-01 -7.322622032623071764e-02 -3.205345409474447127e-01
7.927912505290006795e-01 1.679540439620973991e-01 -4.851312961078617647e-01
-3.381636199210937277e-01 -3.377001498980015670e-01 6.607480601902667727e-01
4.421570283559229098e-01 9.370877883131017994e-02 6.900214041757931627e-01
-2.095103486823185202e-01 -2.534942825044634307e-01 7.449442970814886822e-01
-3.832057108444413274e-01 -7.147708741756602091e-01 -5.242449511864475387e-01
8.489890350207232039e-01 2.583658964065352892e-01 1.620634635667197315e-02
-5.101566613382346738e-01 4.559734895781593633e-01 -7.595536108594771463e-01
7.244876332476489766e-01 4.060065226953454842e-01 -2.455909369798324193e-01
7.900941392980589395e-01 2.111760614974534378e-01 2.900803465783681756e-01
-8.233748629907345906e-01 -1.736768369796020395e-01 3.296929038660595945e-01
-8.757090753717248210e-01 -1.892636736939794784e-01 1.146567181908708793e-01
7.541987051608971537e-01 1.741740568457623151e-01 3.818824113405641096e-01
-4.257441194169667709e-01 -8.302461723838269192e-01 -2.730286879826783197e-01
-8.938540041317728502e-01 6.523569497427553210e-02 -4.005564492827275447e-01
2.509344702181264264e-01 -2.257368618978387587e-01 7.695766432892272579e-01
-4.010954359526267554e-01 1.935818396895999383e-01 -7.897116549465678093e-01
-1.949542855038579880e-01 6.703258469325102942e-01 -7.518693360523172053e-01
-7.161447986307930558e-01 -1.993220198443041991e-01 4.659846248521718470e-01
9.119990048098383095e-01 9.421489829021563456e-02 -3.725700589661286588e-01
-1.247470624032516046e-01 -4.150410893089808706e-01 7.070038566456048335e-01
5.923066439826663032e-01 -3.490468153358784048e-02 6.276754563324381531e-01
3.185948820475582033e-01 1.891391516589402064e-02 7.554467195008810476e-01
3.668759782774458911e-01 -4.895868762952923503e-02 -8.792258675941664325e-01
8.081373939157558972e-01 1.860981746165960571e-01 -4.380123983483666383e-01
-5.178300192853231287e-01 -4.917288438064780776e-01 4.094518707008831249e-01
-7.041205447880587442e-01 -4.404421972304229382e-01 -1.240177142165653085e-01
2.973073281876414398e-01 -2.642406654234905061e-01 -9.408488312087037730e-01
-2.955670734862425042e-01 2.668275949996532503e-01 8.805278813068078136e-01
9.797751787545265767e-01 4.524406486873287780e-02 5.358335541404317393e-02
-3.234438315486046212e-01 5.934967055942241831e-01 -7.745862561841642124e-01
9.945511635204391521e-01 2.939909158879075793e-02 3.197331312177544710e-02
-4.503002602785977637e-01 -3.492482844419752541e-01 5.884466846156382047e-01
5.930151863966623971e-01 5.022929460624342424e-01 -3.780015265863355123e-01
-2.108213780404382121e-01 1.271017574799438166e-01 -8.408721164800879722e-01
-1.657182872192621836e-01 -7.755101636390467901e-01 5.029185350119922404e-01
8.203240218977593257e-01 2.186098718316678846e-01 -3.653257378227031671e-01
1.723347379283161340e-01 6.833467195756134926e-02 -8.723745408910649202e-01
-5.991397476679447553e-01 -5.007736370964417372e-01 2.713223865125306000e-01
4.153913678395420028e-01 2.134925009310907063e-01 6.809531384938736220e-01
6.051123805483387130e-01 5.529852621101624122e-01 -2.733495316156186461e-01
5.408000099554303164e-01 5.966430978934741391e-01 -3.388876170269275456e-01
-7.947963773098407625e-01 -3.754975588474822063e-03 -4.808468152144408370e-01
5.996234606280463897e-01 3.574426296111800072e-01 4.578782619103366480e-01
1.854120887850072008e-01 2.675125173517813384e-02 7.964691948777301578e-01
-8.346020292702862609e-01 -2.583120167058310379e-01 1.501303943250080486e-02
-4.063030471148923461e-01 -2.134296100715129541e-01 6.924056512664349405e-01
-7.322963319571978991e-01 -4.837680120348281793e-02 5.852403461498205672e-01
-4.683550652235543565e-02 1.410562153107110528e-01 8.473469925109737844e-01
2.703136976571752226e-01 6.130513032950755115e-01 -6.122478359778418255e-01
1.298071650307583424e-01 -2.048431711150452417e-01 -9.226385126043289420e-01
-7.091781025495741408e-01 3.292832194828693715e-01 -6.691426291298168127e-01
4.835638396715381537e-01 -1.399473250702672547e-02 -8.356222730742630667e-01
2.464879826510776584e-01 -4.907675368352815148e-01 7.342870407559717316e-01
2.807620251784904153e-01 3.503941778408903307e-01 -7.490438609522128699e-01
-6.831892599684676048e-02 -3.479687595495910002e-01 -8.823413379384105193e-01
-9.093659884055220743e-01 -1.069840583773706971e-01 -1.606043995924642809e-01
-2.677582019976466055e-01 5.003229030169046299e-01 -7.923083320164804322e-01
-5.582622110328188114e-01 -4.914243154632516042e-01 -4.437392994227349341e-01
7.197978344516966498e-01 3.605716887934902193e-01 2.543852896015985632e-01
5.811487582177204958e-01 5.470452016816381401e-03 -7.866772593992222840e-01
2.959745390647434138e-01 5.502445528305750511e-01 -6.351648610169489118e-01
-2.493416021430658325e-01 -7.002104704059748386e-01 -6.927090270979290310e-01
5.913946708195366719e-01 6.423223278247428558e-01 6.213870973712084383e-02
1.378041209311120507e-01 4.944934652379423534e-01 7.848188022355341298e-01
-5.526458287440860762e-01 1.013044979967999554e-01 7.812054371320860113e-01
5.828029591566150636e-01 6.486618107816914947e-01 1.024359227348068946e-01
-1.776223065427214309e-01 5.226515205232738076e-02 8.384079718545672799e-01
7.262075760884522113e-01 3.476265550436618001e-01 2.573344495233690910e-01
-2.832212149914373547e-02 3.891026186455917579e-01 8.579053091957100641e-01
2.331507292058605796e-01 -3.692865588733226234e-01 7.550646983267380596e-01
-8.683854102295415212e-01 -1.936572561486545330e-01 1.427397277797503305e-01
6.802301691345721824e-02 -4.453112324237250286e-02 8.128064486756891860e-01
6.889036432900911278e-01 4.368563782987741617e-02 -7.000170845852092816e-01
-7.993478064148487050e-01 -2.487053766193716986e-01 2.514661724359919526e-01
-3.561345905098413644e-01 5.053737033673618706e-01 -7.850608897022884891e-01
8.808191486081626831e-01 2.618165329048575615e-02 -5.241532370940958918e-01
-3.879368221792546811e-01 4.395739052803361302e-01 -7.870419133568020698e-01
8.908607062138226285e-01 -7.637117393928155584e-02 3.779990779716891347e-01
-1.454206288620159826e-01 -5.519386227018912017e-01 6.408113829311097298e-01
-4.460960472004441568e-01 -7.663195704548649845e-01 -3.387631143050942040e-01
2.217918268207031141e-01 -4.437963228135325955e-01 7.432624511581384930e-01
8.340720318578161985e-01 2.567477969320261511e-01 -2.444799794773908075e-01
2.596692082426184656e-01 7.509051055113893369e-01 -5.240194119493625236e-01
4.427216467733223748e-01 -3.454080889450359404e-01 7.233818524931052707e-01
-4.427547700797079266e-01 -2.345243848670998388e-01 -7.044912058751684469e-01
4.646424847289832294e-01 5.011044473259151921e-01 5.306283651529721812e-01
-7.692741399284942494e-01 -2.623327154223383251e-01 2.996844783348553420e-01
3.047946637524922564e-01 2.404035060045668359e-01 -7.885719241271519353e-01
-5.771843843601697222e-01 -1.912227065933554682e-01 6.048589796336587554e-01
-6.486579055160045237e-02 -4.926029557220372723e-01 6.940684652341563288e-01
6.747543630167447404e-01 3.298168070355730896e-01 3.728521557306677114e-01
3.591506221812404420e-02 2.091118269149199460e-01 8.378861212016366355e-01
5.159031141121488417e-01 7.568541414060758754e-01 4.453391304367794457e-02
-5.389854710602502985e-01 -6.090988839860088655e-01 2.216018995532121894e-01
3.612550907320167815e-01 3.080811018590617345e-01 6.928570213266856959e-01
-6.106306837189555692e-01 -5.522568145376737236e-01 -2.341619578781893307e-01
7.683113512054033922e-01 3.670845155443642205e-01 8.248929366653330597e-02
7.675236165819493417e-01 3.806476731635231592e-01 2.656847677562421128e-02
-1.744452501948563772e-01 -5.317077462798669441e-01 6.381391257118081972e-01
8.773912702481492243e-01 5.592054560144053138e-02 2.923668344298116506e-01
-9.899460202428846112e-02 -6.477565151074859973e-01 6.142803649005418309e-01
-5.565810670147912642e-01 -2.804730976791353081e-01 5.561954785072044105e-01
6.494209072625921619e-01 -5.265373947679048011e-02 -7.833664832611063611e-01
5.320457814745834790e-01 6.149903251508896940e-01 3.366900051457359933e-01
7.775895904739894560e-01 1.478530385636866729e-01 -5.282167662263109742e-01
7.976408548972561130e-01 2.508249526167489196e-01 -3.609386441634286347e-01
9.864799372201488170e-01 1.802555344683492988e-02 9.333145801715173051e-02
8.775541119949563651e-01 2.132534507440800031e-01 2.291319899338129309e-02
9.458138070719090962e-01 9.645468955549969803e-02 -2.631649273571604053e-01
2.131818612865301055e-01 2.795399531074374000e-01 7.769694256088870432e-01
9.077762500053805361e-01 5.411641421593487572e-02 -4.456314937500138740e-01
9.424547663720880264e-01 6.712795522923252489e-02 -3.468896142968083685e-01
1.007141320127999395e-01 -2.668516676274082511e-01 -9.250263143338278704e-01
-4.419810123947013891e-01 -8.315869225966080469e-01 -1.726442170527200115e-01
-4.475137203847506795e-01 -4.025108433857266244e-01 -6.388455217034438860e-01
2.574617998893415916e-01 -1.639232986592227270e-01 7.726706861356423817e-01
6.273505353492803138e-01 5.722312392952125792e-01 1.314822708706365750e-01
-8.699394178024817403e-01 -2.015654490091222384e-01 -4.541562472929783906e-02
3.233306393370209975e-01 -2.702234434237542615e-01 -9.418091719922051519e-01
-7.334267197015842399e-01 -1.562813572482867341e-01 4.886125702865354303e-01
-4.295325241790635129e-01 1.719197663692497990e-01 8.424382067733692248e-01
-4.212498690114988564e-01 -2.971941081700361642e-01 6.391861349335133946e-01
-1.383459737798231615e-01 -1.428173071709899211e-01 7.935847009842105226e-01
-1.682711566623099411e-02 -7.046489674345889076e-02 8.150237590204633120e-01
-6.310429561444915736e-01 -1.085105854599948405e-01 -5.969060119289550936e-01
-5.808867428414206113e-01 -6.268009449032732050e-01 1.285372172540650768e-02
4.030293886131411374e-01 -1.989720248587333595e-01 -9.186859132609642709e-01
-2.237736134033446456e-01 -2.797857198312105331e-01 7.310208523477423892e-01
4.316562053820506839e-01 4.958685697280721949e-01 5.688905129994035192e-01
3.425323448055677122e-01 -5.320262264125940055e-01 7.237095633151765517e-01
-2.119607952302924037e-01 1.895491698868554398e-01 8.656146626594476423e-01
3.781234978713021166e-01 4.349933502935331847e-02 7.292660729465055836e-01
2.797552065302244539e-01 8.778593807319110542e-01 -3.905250789273570500e-01
8.544161516065711393e-01 1.714146043642844619e-01 2.028811099065290779e-01
-3.889900951540180007e-01 2.203182304999804775e-01 -7.940711498253127942e-01
1.701077820916776506e-01 -3.244024711298819086e-01 7.654869621357323073e-01
-5.345780976110432459e-01 -2.794553303268949504e-02 -6.975062509863161342e-01
3.396778362796422646e-01 -3.560887321389966803e-02 7.506536016269239608e-01
4.560360775522135368e-01 6.925300583532532084e-01 3.968255362644546036e-01
2.998001537684656659e-02 7.783610574504176149e-01 -6.498674910291247775e-01
7.417189887429784800e-01 2.713343199452996624e-01 3.156085783058975025e-01
-1.204278857880272946e-01 5.177493430879331893e-01 -7.844940504128826708e-01
7.470288474614639185e-01 9.275645308929575394e-02 -6.141046334205334523e-01
-5.264181149886251188e-01 -6.752563788116737742e-01 1.177647718120296422e-01
-4.787210889983805617e-01 -6.601515216499925787e-01 -4.120648611227022973e-01
1.999865497944017523e-01 4.767618211090748903e-01 7.539499205907124191e-01
-5.499613353389006809e-01 -6.105558904298202805e-01 1.920519692563520675e-01
8.224655488674347259e-01 6.907955948671001822e-02 -5.540960770104468303e-01
-2.741428809107417375e-01 4.015596457988308554e-01 -8.063090619024537720e-01
-3.632847532780157929e-01 -6.167784456188351028e-01 4.602835026708517185e-01
-3.711152365730296943e-01 -8.907069068098923958e-01 1.063607320943127793e-01
-2.972514144361500521e-01 1.022729701127260971e-01 8.417531403748729213e-01
1.543517283459147349e-01 -7.321050804727126382e-02 7.978901865367711288e-01
7.221714671722727630e-01 -8.697534337716035513e-02 5.504494276638408623e-01
3.290241544128461038e-01 1.640738967086698696e-01 -8.120148041752652812e-01
-7.962447564762913377e-01 -2.440214241509886528e-01 2.689594907020249615e-01
6.781905959124842065e-01 -2.783348042712947487e-02 -7.528773410989904047e-01
-4.557613297729365409e-01 -3.269052208251654323e-01 5.994046817261526883e-01
8.769448800698355084e-01 2.194457251671664277e-01 -1.531054110168467430e-01
-6.504681890581062165e-01 -1.125170653250159303e-01 6.049039198230941050e-01
7.792865651251064119e-01 3.654024256788840908e-01 -1.104792248715927294e-01
6.024776434282063109e-01 -1.199056237983000704e-03 6.122997123265486730e-01
5.084747511256099139e-01 5.877810199761743792e-01 -4.033360982527885996e-01
-7.057739525865757146e-01 -1.460153434388672955e-01 -4.994107960209595021e-01
4.285629487715755248e-01 6.507181284690615186e-01 -4.409431330062973386e-01
4.857272487197319966e-01 7.536835159598984646e-01 2.410114205654872166e-01
2.729359304704913683e-02 4.998764922517805465e-01 8.348386648978638469e-01
4.912782026196953478e-01 -3.731734389188847145e-01 7.100249237276375913e-01
4.580231245503499360e-01 3.034723983248838186e-01 6.252595249814566492e-01
-4.040257132092390235e-01 -8.774786472694412476e-01 -2.317776236772197962e-01
2.201909260911324995e-01 1.493989401781545823e-01 7.842330691818736321e-01
-7.628351964772110971e-01 -2.997186031860316624e-01 2.467837403649406347e-01
-6.507240776923070014e-01 -2.340111938575765715e-01 5.066932660072991368e-01
-7.142444809025664254e-01 1.021726984619573814e-01 -6.069990032950109970e-01
7.334858793414229527e-01 6.192321053342472736e-02 4.774287875369377376e-01
-6.238407553914085968e-01 -4.630866541615443754e-01 -3.498398318291269793e-01
8.974300656174439839e-01 -6.838579929283267189e-02 3.641269007131452962e-01
8.716529233929827536e-02 -5.808594187355867744e-01 6.982060904751206110e-01
-4.278625730710280961e-01 -8.573165409071449306e-01 -8.123877780599807197e-02
-2.743296398397637170e-01 2.554410661049379416e-01 -8.205977267249746632e-01
6.401085276515754430e-01 4.205379863087782000e-01 -4.076853540402979870e-01
-8.801748766419877079e-02 2.229392197417400800e-01 8.613234067135948635e-01
4.028247682168278887e-01 -3.159705668240010978e-01 7.339950710301607062e-01
2.188536720441086048e-01 2.220423135813265059e-01 7.799498240164434160e-01
-8.446569944700960120e-01 -1.237845334564506156e-01 3.641542263678167468e-01
1.038080824198305135e-01 -1.691478736808371686e-02 -8.928084211712248308e-01
5.264265827386935825e-01 2.855414211915329736e-01 5.742880162982942904e-01
1.440296153974549576e-01 2.383238416555591155e-01 8.069642290661243056e-01
-5.058210635890152407e-01 4.078581531426668516e-02 7.716574483409895935e-01
-6.103105585618702200e-01 1.226367456561284486e-01 -6.849946514244956708e-01
-9.359492199273200530e-02 3.435625775574391860e-01 -8.233020299481424997e-01
-7.628616284869877973e-01 -3.868818908180374216e-02 -4.971520570008155504e-01
1.562155637063538383e-01 -3.331661759870166994e-01 -9.395107158528496205e-01
5.876985254779142354e-01 1.245202034191516920e-02 -7.797908851021833065e-01
2.479471841513201102e-01 5.985257320052699281e-01 6.899723319942500099e-01
3.864293397188004603e-02 4.026746249780941422e-01 8.365807149554149724e-01
5.491045033691833721e-01 -1.981822963397208148e-01 6.794514964746641850e-01
-4.962314808425768997e-01 -6.881993971645858910e-01 -3.317130141993581693e-01
-8.118831185437884734e-01 1.775222742473358262e-01 -5.535383669681520624e-01
-4.640537143111866381e-01 -4.079089857593822810e-01 -6.201861671559953937e-01
3.511375565393907161e-01 3.610338959625397637e-01 -7.125218616372410718e-01
2.131558910148994013e-01 -2.498790637271857407e-01 -9.357521758052962380e-01
6.184631113855020290e-01 -1.648673298930888875e-01 6.396004753980550905e-01
-4.052604948195208667e-01 -1.735478778336210781e-01 -7.446788255421783465e-01
-6.960365925488584127e-01 -2.788808908956552646e-01 -4.132883114725567908e-01
-5.718169572005001866e-01 -4.583362857993262818e-01 -4.519387968451961113e-01
7.321567995687413566e-01 3.589562690916535126e-01 2.266499290856231197e-01
-2.765183402128705836e-01 -5.901144275631449165e-01 5.490387490461690057e-01
5.999309248707567210e-01 5.976016262305466897e-01 1.811691637744670957e-01
7.281811743118989932e-01 4.238040151641104814e-01 -1.796378044053034695e-01
8.876130939368775952e-02 3.951727268946646499e-01 -7.887802383580543308e-01
1.610569991051177124e-02 -6.747159744569930506e-02 -8.937794944267115627e-01
3.457683038632334838e-01 -1.447110972278980445e-01 -9.106697225575489663e-01
-4.311816370663494880e-01 -7.909114499587129865e-01 -3.384099023810350215e-01
-1.513276984725225038e-01 2.904511110823713715e-01 -8.315466700390747867e-01
7.776435165051013287e-01 3.330375698157176934e-01 1.367996506806441193e-01
4.143989809699971660e-01 8.188933299207986627e-01 -2.464737585957640364e-01
-2.626079604543939405e-01 -4.511201132001299019e-01 -7.692989792864193266e-01
-5.242140728756742307e-01 -6.081691412630437638e-02 -6.960495835597375613e-01
2.670178906437930544e-01 6.383904363173166507e-02 7.716763599262145279e-01
-4.275510225500725459e-01 -6.583727315659387846e-01 3.477145550544809005e-01
-7.643351728724195882e-01 -3.618549933666146967e-01 -2.006822312758632914e-03
-6.533181850351772457e-01 -5.255326780989855173e-01 -4.363008973997584833e-02
9.604725383348223788e-01 6.066158656403908278e-02 9.135315688490011632e-02
2.461837155950978573e-01 2.911714462011215088e-01 7.603462119218659110e-01
-1.438196754061109861e-01 5.591640137086147933e-01 -7.760345924361480296e-01
4.333560276660479715e-01 7.786328767255165095e-01 -2.723513945888883514e-01
2.320889707875780084e-01 8.503236735597484719e-01 -4.687899509095212469e-01
1.827136133303080001e-01 6.060121506757765175e-01 -6.663264258962318110e-01
1.443958960140142578e-01 1.919176071078240453e-01 -8.423402015861722880e-01
5.271888139179630173e-01 3.889729978115175069e-01 -5.746442145899408604e-01
5.861855723769837656e-01 6.424830420139262532e-01 -1.011946954787737024e-01
2.831153843129647144e-02 -3.547946991680573925e-01 7.551127863424543785e-01
-3.812671474734410371e-01 -7.266059550244194920e-01 -5.172248217159997052e-01
5.387451377708792899e-01 3.693302715446246109e-01 -5.800408126989259339e-01
-3.588240795917830295e-01 1.008015859531929959e-01 8.327312871344134670e-01
-7.859206574644523879e-01 -1.991917474692227186e-01 -3.340942240013528575e-01
8.479323261850574278e-01 -9.929830734175987272e-02 4.409759688252130605e-01
-3.242825932234112973e-01 -2.651552509315203698e-01 -7.734966545291790396e-01
3.188487411326730858e-01 5.883109169859969123e-01 6.347088769890936177e-01
-6.204009814540965007e-01 -3.406549221132479377e-01 4.385239097701920108e-01
-8.836037827651252452e-02 1.793340424648075249e-01 -8.521908432620901586e-01
-9.065853678947951577e-01 -1.408697538081062628e-01 -7.159719187058387335e-02
3.280647530903708087e-01 5.722540743148820663e-01 -5.995705155287883725e-01
-8.274488207110362037e-01 -2.352120358207101802e-01 -1.661784243254758597e-01
-5.793570467453382777e-01 3.825121610073742850e-01 -7.355896473971622607e-01
5.130911955812993419e-01 5.501534031886610165e-01 4.341310566453916442e-01
-5.502437625000641264e-01 -6.773732295186344343e-01 -5.958403803260921283e-02
-2.507536209036901331e-01 -2.798870931020817077e-01 -8.106446825866860939e-01
6.069990654932465590e-01 -1.071529750939075390e-02 6.117881109853202659e-01
5.723614080059503673e-01 4.755034231642030207e-01 4.065535519328086766e-01
-4.508355480470278009e-01 1.828191059771588634e-01 8.418072460617079811e-01
-7.068660458386115675e-01 -1.587241507686170949e-01 -4.899965328768430828e-01
5.509782837591674642e-01 7.050375889999230816e-01 3.712989973500036706e-02
1.425786556515075583e-02 7.262012554182352420e-02 8.322584701971388332e-01
-6.386557712086413652e-01 -3.407155752020653572e-01 4.150058060774290958e-01
4.365608203206959859e-01 7.211182191813433340e-01 -3.490462705542919375e-01
7.491979437764569871e-01 -5.597967878975129707e-02 5.163129998945761301e-01
-2.683048672569484858e-02 3.544188900444409374e-01 -8.175579367515884988e-01
6.731927854210200124e-01 4.438838941540442784e-01 -3.088091440638224827e-01
-4.652718141908182004e-01 -6.891779151725759833e-01 2.469791757691986167e-01
-8.755630854403394503e-01 -1.956212783287821777e-01 -2.433268076860109139e-02
2.458205574813835184e-02 -6.296478039723563125e-01 6.666226067888573192e-01
-2.249571574405891394e-01 -1.431006122576673235e-02 -8.408278180605109897e-01
7.719867583146218862e-03 6.145907479456659273e-01 -7.295976287482058842e-01
3.007125643241918556e-01 4.843494372076870835e-01 -6.712747838417195689e-01
-4.023337427022241619e-01 -8.081323297440340392e-01 -3.873460386076147399e-01
2.024047873858066671e-01 3.912057468298420493e-01 -7.594810607158516413e-01
-4.015549160234859749e-01 2.329051587559759218e-01 8.651226233104332142e-01
-1.674577202674001342e-01 6.677537073281063496e-01 -7.489200026710883806e-01
5.171681367112489491e-01 6.074012067178861107e-01 -3.653327651786695274e-01
6.816003780073753848e-01 5.114358648674274255e-01 1.638853156391225849e-02
-6.226889796034195124e-01 -4.780631772049039885e-01 -3.321823110026587145e-01
-6.938049636300500644e-01 -2.614574215560561132e-01 -4.320612307467654456e-01
7.596901475538455628e-01 2.403952900513504631e-01 3.150290085116921879e-01
1.091123310596919249e-01 3.618796988612250076e-01 -7.956836421717231600e-01
3.631851502786940800e-01 -2.179180171648258668e-01 7.461974858530482368e-01
7.750607020398411207e-01 1.178460202675156165e-01 3.948362873731255940e-01
-5.605738340054731150e-01 -6.543640342609038374e-01 2.172148859067088780e-02
6.207987668825537542e-01 3.196023253566157019e-01 4.562532526608986672e-01
6.379348293626716515e-01 4.068587421314471264e-01 3.624691979400045394e-01
7.385799299419544273e-01 3.748637023617603647e-01 1.812157521789629910e-01
8.336361627884520953e-01 2.215863201438714875e-02 -5.873506455416083183e-01
9.218237090910356979e-02 6.968470494841432633e-03 8.146526015636450513e-01
-2.161124730543794448e-01 2.018020174352947727e-01 8.679203667600656757e-01
-2.731264144702788554e-01 6.858625959371046632e-02 8.353892392216500928e-01
-5.240482475596164313e-01 -6.333789840771302249e-01 2.133634553097424891e-01
-7.731483478379676082e-05 2.004409644674094160e-01 8.450796065274429614e-01
4.512496031356849624e-01 8.512299214539797987e-01 6.461575482385348464e-03
7.764552179332779858e-01 1.278451152527982915e-01 -5.501608999206742956e-01
-6.061231141720530013e-01 -4.372206417730800654e-01 3.483609154793406715e-01
8.087198150192314028e-01 4.163171219361661013e-02 4.034042640310218086e-01
6.401353482531739747e-01 -3.627320924304804073e-02 -7.792397311837948592e-01
9.694601915730154118e-02 -4.262802951979478006e-01 -9.321620308960292256e-01
-3.006159022596862629e-01 -3.443286294170027073e-01 6.747379851890858982e-01
5.823262970667901772e-01 3.450040620015601411e-01 -5.590884445258198499e-01
3.765790607127592060e-01 -1.070135527679048626e-01 -8.956811147336687373e-01
-3.857510391956287532e-01 -3.036667756020651754e-01 6.549732125905097790e-01
-2.325933246272865740e-01 3.945527255406415801e-01 -8.107578135102295747e-01
-2.926365498604412418e-01 3.970314803634061862e-01 -8.048517107754371569e-01
-1.786161966098816778e-01 5.146507181130970388e-01 -7.893107045350084006e-01
-4.335166925572117580e-01 -6.434306553788461391e-01 -5.075730148436429223e-01
-1.060054245743195789e-01 1.630521334027348612e-01 -8.529745731639716277e-01
-2.979481189127741181e-01 7.682595632126336394e-02 8.346971178000539560e-01
4.293049503539223544e-01 7.995483764572941521e-02 6.994008243956215676e-01
4.885241775026781808e-01 7.968258763782630760e-01 6.004795306287626089e-02
3.519201617256554337e-01 2.599255557040710540e-01 7.092739203396675185e-01
8.190491424527872599e-01 3.036739270836497084e-01 1.813951107556322981e-02
2.514569593243968226e-01 2.751277249254026613e-01 -7.912376906274396493e-01
-4.075995911050691450e-02 -3.676924221530284975e-01 7.423082824668854052e-01
7.233180842681885547e-01 -1.623931803156690723e-01 5.731853689473821456e-01
-4.103266294539493209e-01 -5.586452045731514771e-01 -5.973088570900654259e-01
-1.911580909943101925e-01 6.627368732704372878e-01 -7.534990214020308441e-01
5.164781368948060392e-01 2.164981369369506359e-01 -7.032469686469789982e-01
-2.158763167683313000e-01 -5.720996228133302663e-01 5.966286382863164039e-01
-2.460984670281902431e-01 1.047864860866143111e-01 8.468840706423002018e-01
-1.329802159127341510e-01 5.904947102918771829e-04 8.287425625722940614e-01
-7.039657900574225469e-01 -4.383691932427615234e-01 -1.343481741590209222e-01
-3.795265854172756859e-01 -2.005719781211633967e-01 -7.543258830167245410e-01
6.680001438311534701e-01 3.503740356498460939e-01 -4.514131451606822054e-01
4.109602688013481719e-01 8.926253518303850498e-01 1.883348729016679768e-01
-7.236283493953992174e-01 -4.192680988135199516e-01 3.059982203690873176e-02
3.966187769194629564e-01 7.826126035036569117e-01 -3.342751267234668200e-01
-8.137800794975487140e-01 -3.708864938539883221e-02 5.122228715728929238e-01
-2.133724509008822490e-01 2.191054724920450114e-01 -8.336509904085147582e-01
-3.061470839457934856e-01 2.061658039874987025e-01 8.669923357873670078e-01
-6.969315834483881256e-01 3.421484637479498686e-02 -5.965468186826951014e-01
5.284569054718412096e-01 6.252599871216049099e-01 3.315873078229421567e-01
-7.148003331233426794e-01 -3.062392679991619016e-01 3.401181303653866284e-01
-3.020586538043537606e-01 -9.314585997161448638e-01 1.979467847165161387e-01
5.639701346357913758e-01 -1.842797839816001648e-01 6.708335928670214887e-01
-6.307735792017394871e-01 -4.371199498084614721e-01 -3.674809483367846852e-01
-6.968034038423833731e-01 2.676701824256484397e-01 -6.641411739692900662e-01
-8.939659723662540802e-01 -1.660683695357303979e-01 -3.914880081292337194e-02
2.495308968607874434e-01 7.087318701218708883e-01 -5.629455235086485709e-01
4.654913876104017079e-01 7.429003742766435714e-01 -2.621854040994141544e-01
7.358130242015248346e-02 2.489461919280484548e-01 8.289126450026872428e-01
-5.966156398194101262e-01 -5.760744806157297448e-01 -2.303444928795898294e-01
2.849918872614740084e-01 5.307029554880436928e-01 6.837329362037282143e-01
3.356713836756944347e-01 -4.318801684783403483e-02 -8.829650628324264838e-01
-2.548515254688062948e-01 -5.470116518883322287e-01 -7.470528222213884684e-01
5.364766523368037499e-01 -1.063662454995927820e-01 6.733854686237905618e-01
-9.221835978525504407e-01 -8.283357936057597626e-02 -1.683798590986174126e-01
-3.671162142379758575e-01 -6.308080442721676340e-01 -6.045939320043113296e-01
4.511050396821584263e-01 7.858108001115996499e-01 -2.182850476199007794e-01
-8.822535007874675594e-01 -9.858959182090099027e-02 -2.538396969201724973e-01
-5.720998985689819127e-01 -6.441639753085895981e-01 -9.597901100279787601e-02
1.860645083524608834e-01 4.704802153207516824e-01 7.630423334384290879e-01
9.164264984594996388e-01 1.662575246439301768e-01 -1.145312453332091585e-01
8.014786358995772408e-01 3.240721580493933773e-01 5.039365151105456436e-02
-7.613098158982155583e-01 -2.582274274981338213e-01 -3.135912405128278846e-01
-5.452720781728690458e-01 -1.492037623500731269e-01 -6.542963196012843152e-01
1.588225601963764652e-02 -4.429883163623414277e-01 -9.076336155547823914e-01
-1.000685109556145730e-01 -5.196723099028062176e-01 -8.508394362688556090e-01
-3.214055354726554903e-01 -9.301509294422874996e-01 1.590895626034302124e-01
4.523348950950598080e-01 5.936209047127102290e-01 4.866421015657867999e-01
7.517181907703394117e-01 3.797512991270147187e-01 -2.163648846564517059e-01
-6.044106572891249085e-01 -1.498277408343388073e-01 -6.036058236796514320e-01
5.675827291202407976e-02 2.678246208163362341e-01 -8.319916176176158640e-01
2.090486445252697778e-01 -6.058424532848544208e-01 7.076056955176736052e-01
-8.463083774601339038e-02 8.460271019137484416e-02 -8.647102917359610341e-01
-4.335527572168167976e-01 -1.764157890149802288e-01 6.985604448979706449e-01
1.008724443692547018e-01 -4.851014561228334521e-01 7.282964472418413937e-01
4.102340132614789442e-02 1.979211137530365039e-01 -8.502490736293583096e-01
-1.197171731937479305e-01 -5.696244606486444706e-01 6.430272574369791938e-01
9.376018604836962034e-01 1.348358968081005971e-01 -6.712494633245852382e-02
1.039036617267741214e-01 -2.032485299375205445e-01 -9.194616207711817646e-01
-2.337573511861372189e-01 -1.988198617672522484e-01 -8.283173346737270348e-01
1.807997814416831273e-02 8.006996848371816800e-02 8.324764538008684323e-01
-3.459345015488738406e-01 -6.000301528404701212e-01 4.892893462830342766e-01
5.915920305522039957e-01 6.176327245008914613e-01 1.635251916995167643e-01
-4.073539155797341604e-01 -7.937439982183661646e-01 2.001278597945565507e-01
5.488815331435222822e-01 5.436153414999735922e-01 -3.961527145041852105e-01
-6.433729202871260044e-01 -4.868786319803726781e-01 -2.617399208706268632e-01
2.320001406417331047e-01 6.651928650002307819e-01 6.794468029928386610e-01
-4.339721952718798015e-01 -2.671528966857511511e-01 6.493283798146156638e-01
-6.749403456568469073e-01 -1.491354272955179028e-01 5.558070055073057736e-01
5.139040306402340441e-01 6.932068140524700883e-01 2.684177749337908758e-01
-8.033287746833605025e-01 -1.011914447157425401e-01 -3.998953888628534181e-01
1.903976556933703046e-01 -8.864941786532118395e-02 7.903415304076598646e-01
-9.585567642688760381e-01 3.132296661621419842e-02 -2.559081279005117060e-01
4.551742668793352653e-01 7.022737400829075494e-01 -3.430611639547720415e-01
2.828506498879057030e-01 6.300668322499515250e-01 6.495976142460861968e-01
-4.053327228353741374e-01 2.357752646662893414e-01 -7.893076888352879017e-01
-6.369053769814343458e-01 -5.134792233387085458e-01 1.463347713165620290e-01
8.482798757767712194e-01 2.620783932572399721e-01 5.452689889856506553e-04
-6.849649168667094890e-02 6.069086596806330114e-01 -7.507113814117108985e-01
-4.822904144275024785e-01 -7.760639008925053206e-01 -1.279874327701478465e-01
7.099690144553770788e-01 3.251304229821583291e-01 -4.176675333723758321e-01
1.575064029693201417e-01 2.036129584328406350e-01 8.036763840776762757e-01
6.656292198213208389e-01 4.496789576019408208e-01 -3.160717691709484800e-01
6.998859678240285653e-01 -2.221482928984385152e-01 6.036790375661259533e-01
-8.143250437993529434e-02 1.070707094450771141e-01 8.464370743119752349e-01
-5.459453582377893355e-01 -6.676138051873889978e-01 5.635567398790467669e-02
-8.897716427010036178e-01 -3.882182668699378503e-02 -3.126996791008934129e-01
-7.463668671545314881e-01 -3.794342141781639755e-01 -1.058234272823438127e-01
5.832639683950497922e-01 -3.410625191590928029e-01 6.782051492343856847e-01
3.582193247792026525e-01 9.283253388264369743e-01 -1.805643771033891287e-01
-6.736065117960170490e-01 -2.098256496754100919e-01 5.045374985237822685e-01
2.537764364390416860e-01 -2.422040649557878900e-01 7.677193083742974711e-01
-9.613971277768044998e-02 -4.510321635156267633e-02 -8.736898833623079064e-01
2.999010978069845956e-01 4.869830645624860788e-01 -6.702280566855495225e-01
-9.904597878239615460e-02 3.451846252920299229e-01 8.731779609735375036e-01
-7.798130791224794356e-01 -2.789598967795621220e-01 -2.356885704054048070e-01
-4.531737519463294728e-01 -6.024847840644523833e-01 -5.118105111557639253e-01
-6.534587285343700369e-01 -3.818591894042795976e-01 -3.857142277033436262e-01
-2.107289100318953112e-01 -6.242111716061430338e-01 5.694336143988752985e-01
5.662327724814439911e-01 6.113771092505739801e-01 -2.602281554337160241e-01
-6.641386131281861172e-01 -3.517242911170448405e-01 -3.976480900170848987e-01
4.930242297301793419e-01 5.271891435388503799e-01 -4.875713140197180384e-01
8.905434789672419527e-01 2.049655194698064564e-01 -9.102440184716810434e-02
-6.382256237604412297e-01 -3.899665107546354537e-01 3.574142116849188811e-01
-8.269355243925173848e-01 -2.036898928273601361e-01 2.681138876785525427e-01
-4.088804535111738581e-01 -8.818813829471454646e-01 -4.733349824665850775e-02
8.158301539116443735e-01 -1.350067431682408781e-01 4.893644188865282629e-01
-4.692631749173760136e-01 -7.902081735157188147e-01 -1.164198785663596476e-02
7.955909299582472061e-01 3.130911363245899443e-02 4.258127892441881945e-01
-5.430265675992320684e-01 -4.482072942340430410e-01 -5.031874787882221201e-01
1.863305034991573073e-01 2.664796050275478612e-01 7.894910359792719490e-01
4.242387605099883774e-01 7.656221435385032192e-01 3.772077012009614760e-01
5.198742120401802502e-01 6.511979499727175158e-01 3.168287484298594192e-01
3.174379842609675872e-01 7.816530674597817197e-02 7.517721750811452441e-01
-2.723992543892739260e-01 2.140197233761051976e-01 8.700949790938194983e-01
9.222468109338125553e-01 -1.268798824837195638e-01 3.718582420607894345e-01
8.746900724738811972e-01 8.830919928969487021e-02 -4.565329522235327953e-01
2.327974143311935806e-01 6.598364319123907196e-01 6.807494854712358157e-01
6.165874064679982558e-01 6.087042709237927562e-01 8.127361798491182510e-03
-4.883353486474434346e-01 -5.485645628419379971e-01 3.870804494965391918e-01
3.311308256063520417e-01 8.957147349307109652e-02 7.450305900479533561e-01
4.578984238028823706e-01 4.133094666684894447e-02 -8.208369865199920401e-01
-2.653677286884187914e-01 -1.261050130973902506e-01 -8.216431074016492531e-01
-5.164450759744304564e-01 -2.341740555511356292e-01 6.188083199186407146e-01
-8.522892108238395714e-01 -2.321684875124344627e-01 7.104533778740717426e-03
3.978127066242916343e-01 -3.719080611846523055e-01 7.326623382756609626e-01
7.030132770146154675e-01 3.478630606253945712e-01 3.056822839342805964e-01
3.836289390898166007e-01 1.081396271429822115e-01 7.184861899869515733e-01
-7.536830962873698470e-01 -3.574216679822372900e-01 -1.486887641032249019e-01
-9.122280195382681534e-01 -1.428343599658579710e-01 1.244773810626972248e-03
5.165891557162614056e-01 2.068237121635807252e-01 6.120861437286950757e-01
6.429779708000733784e-02 -2.121350636318671823e-01 7.879994480697934955e-01
-5.023952779183311901e-02 7.285876158915996839e-03 8.293349857439866746e-01
-1.443278604934764286e-01 2.428443152211227640e-01 8.701309323567234522e-01
-6.107826889983166696e-01 -5.576245895723462853e-01 1.231934206642418816e-01
-3.370081575843510840e-02 7.180861842690486885e-01 -7.010005336536258014e-01
1.720211094679756636e-01 8.050666250207793029e-01 -5.532539017296680406e-01
-7.743561853715850152e-01 1.198712428438355876e-01 -5.632675172781503870e-01
-9.170535111335036405e-01 -1.310236926322105033e-01 -3.931763967270116011e-02
8.904756429880131274e-02 7.985831410163608812e-02 -8.741489690171376781e-01
1.560905255853447804e-01 -3.902301663865403447e-01 7.537200198056348555e-01
6.065069598454732036e-01 4.314495393921683464e-01 3.913673501980671765e-01
4.743448479004785390e-01 8.126302039859306658e-01 -4.022273107538011649e-02
5.244452816162332720e-01 5.617216385795691380e-01 -4.108557030294102130e-01
4.519151241344082637e-01 -1.113714751747229281e-01 7.127615498246691050e-01
-7.943739132079500331e-01 -3.141369855431617175e-01 -5.792240543116525253e-02
7.756220956507748898e-01 3.551238690325069225e-01 8.447852885889964303e-02
-1.634230427284930343e-01 6.838436802738483422e-01 -7.435332073752020099e-01
-5.798812557065896600e-01 -2.429686272951633585e-01 -5.843827549545743683e-01
4.228863514589051853e-01 -7.442080473814675912e-02 7.215220532425883349e-01
-7.201740635438205196e-01 -3.745998790342716656e-01 -2.380666025364131244e-01
-1.789048446477580212e-01 -7.070914092606322976e-01 5.384191398260723682e-01
8.063943567001571333e-01 1.187263589508757988e-01 3.499006520943998000e-01
7.979875023843264747e-01 1.964183090042415925e-01 -4.413520996448421774e-01
-5.358847664786849929e-01 -1.763730552429231824e-01 6.428431734391157892e-01
-9.415097982422134804e-01 -9.727677199933243424e-02 -1.586459059624717449e-02
2.601479016717621606e-01 6.886736445025535280e-01 6.455575498814549729e-01
-5.192727501476079865e-01 -1.029918333607181130e-01 6.950852974878969359e-01
-6.755030052209376468e-01 -2.055614856550664477e-02 6.503700652724321296e-01
-7.506696915802014702e-01 -2.410300011171908618e-01 -3.553867321518110467e-01
-7.749676725625939122e-01 -1.652310704057680935e-01 -3.883575446461117187e-01
6.085002442903975073e-01 4.021085272137817634e-01 4.130014101791673053e-01
-6.203780130441330920e-01 -5.175841593941753471e-01 -2.743867209459341927e-01
-4.348566149123271884e-01 -5.280408980899383570e-02 7.562951045895599522e-01
8.442993026177895988e-02 -2.142810245407201497e-01 -9.179006308402161141e-01
8.302737402556388258e-01 2.730567992741315675e-01 -2.096118621567257256e-01
-3.177314459475508723e-01 -3.644711486723367037e-03 8.071251028804040661e-01
-2.944119733890023793e-01 -8.040205209603793479e-01 3.630467883706474108e-01
-4.305665276770717087e-01 -6.864388977479158882e-01 -4.735940628515954987e-01
-9.861861385890750842e-02 1.135836691579136803e-01 8.485768402863020921e-01
-2.466315087609652623e-01 -5.010032343020419665e-01 -7.667752074894497172e-01
2.963203365399940531e-03 2.504642828792084108e-01 -8.402169518793941583e-01
-6.106486385111332682e-01 -4.656621025581690332e-01 -3.745449237015442967e-01
1.121781759193399564e-01 -5.091493430860223324e-01 7.230830861822052924e-01
4.960979699488445860e-01 7.609400540563078519e-02 -7.899791877379520599e-01
-7.217907764990577624e-01 -4.164383485132667206e-01 6.922147271248484113e-02
6.861431484988659291e-01 3.869422618672399561e-01 -3.736374690653826436e-01
2.953616106412622067e-01 8.209450031607702369e-01 -4.290047055533522391e-01
4.184494557068585419e-01 -2.128555361580687921e-01 -9.205726718101908679e-01
-5.953840436912919420e-01 -3.306400632304544729e-01 -5.167493347417494443e-01
-2.905706766322767032e-01 -3.357597870360183867e-01 6.831854205882015307e-01
9.195333763248366710e-01 -5.048435164208106563e-02 3.197070041364170612e-01
1.076465074474744210e-01 -3.801652279925730321e-02 -8.966096881005242158e-01
2.186885792478943102e-02 3.416644758571427132e-01 -8.160643752256302452e-01
-4.637566854856358112e-01 -4.454715824923251577e-01 -6.013472554555827632e-01
7.895972802111500544e-01 2.328273240588326909e-01 -4.054607092859758843e-01
1.090138569456431950e-01 5.906890424935158368e-01 -7.060232409091786732e-01
-2.863067628800745612e-01 -7.022387628106442348e-01 -6.544014767281858269e-01
5.748137275146506520e-01 1.853370482959847965e-01 5.722180302365578175e-01
-2.662946404659440880e-01 -7.671850895445482543e-02 7.933804616697640588e-01
6.531202238418959416e-01 5.542557334529871760e-01 -4.188697528207175474e-02
5.762385828342531102e-01 3.081246315618985099e-01 -5.954751748560410674e-01
-1.196829422065710385e-01 3.810597129044687170e-01 8.793834992307137943e-01
6.051043855572755398e-02 3.916612313778796706e-01 -7.955402045543404910e-01
3.598134262784884185e-02 4.465389015758980396e-01 8.352315539904228148e-01
2.970017215302014901e-01 -7.386044778633592267e-02 7.653076234435272074e-01
5.114531428053372686e-01 6.830604485340149301e-01 2.913414645640903244e-01
-1.974460893496837177e-01 1.139473160469703650e-01 8.509203303154141418e-01
5.881017126315956078e-01 6.431907690858632565e-01 8.899364084196023650e-02
-6.053210417832546320e-01 -5.956879866860369521e-01 -2.969676600920125031e-02
4.267918890714625935e-01 5.586888798154743263e-02 -8.252568655777551276e-01
-7.476481297636612400e-01 -3.206722889875415761e-01 -2.549319689703403724e-01
-4.977191326694053175e-01 2.606105809526188324e-02 -7.308671831290685095e-01
-6.739317341171262576e-01 -4.903683910921095013e-01 -1.020277178762643983e-01
-2.932409224095520739e-01 -8.083282304593503165e-02 7.863483983304146996e-01
-3.910425790727303230e-01 -5.619050738246446075e-01 -6.170401543450131365e-01
3.154369725918347300e-01 8.561215170134609531e-01 -3.671539996918756210e-01
5.168198553270535456e-01 6.746877034323921496e-01 2.905203703778477808e-01
-5.784684193075977365e-01 -5.612766308019444539e-01 2.140801630060965022e-01
3.832848279738216429e-02 -2.274859747515180497e-01 -9.110375590055903583e-01
-8.589892294064006562e-01 -1.833723769022277406e-01 -1.700811035483825451e-01
-2.850764852498360868e-01 -7.304781614710176285e-01 -6.403146583325189933e-01
4.391315332734890275e-01 -1.888786748918018510e-01 -9.103243174242793279e-01
2.899097579733991292e-01 3.161870591847060208e-01 7.337099695896829310e-01
3.653954563591182026e-03 2.949946750182405597e-01 -8.297877773718681516e-01
4.951287368961548863e-01 -1.408326053736366767e-01 -8.822361135782371688e-01
2.591523350096639478e-01 6.608219902156333703e-01 -5.886973753587864122e-01
2.992638392921632140e-01 -1.280490528007984519e-01 7.643204675537724757e-01
7.533972114844460499e-01 -1.951172464733244225e-03 -6.833786912338161157e-01
-3.173506669233253641e-01 -2.739715583593881412e-02 7.993183927272592415e-01
-5.050220437895623915e-01 2.915017896652942198e-01 -7.578221395649845649e-01
4.478846546407094786e-01 8.486980510560300228e-01 1.351080631381903208e-01
-5.415466572564074932e-01 -3.605201492533061797e-02 -6.909152740960227135e-01
-7.511163033650898324e-01 -2.357003642872948224e-01 3.737684040921992468e-01
5.317291097648800813e-01 1.722322160759793552e-01 6.118211236170816303e-01
-6.446496796264522544e-01 -3.419052598082514272e-01 4.055149223690223126e-01
8.322369532624968036e-01 1.836785850987404933e-01 2.372642122358459282e-01
1.193285526601789576e-01 -2.937832619291842473e-01 7.722395847958023474e-01
-1.519480070569072527e-01 -6.488764972317036077e-03 -8.598503229072530507e-01
9.015130422829772949e-02 8.284222458419997215e-02 -8.735035815311642526e-01
-5.024053833602722952e-01 -2.970096537605202425e-01 5.866462708452050423e-01
-1.676746805650846869e-02 2.655516617803579393e-01 8.520000169333208362e-01
-4.830075643246171113e-01 -5.528090046470067742e-01 3.893849557862502642e-01
3.001354763603049092e-01 6.041617388698015123e-01 -5.978599427685364898e-01
-4.782904956257509888e-01 2.899347406596616827e-01 -7.671540971943169307e-01
-6.471748438369454570e-01 1.203041889161091393e-01 -6.610199932145843782e-01
8.268055734411494662e-02 -2.024521390173966706e-01 7.892151220837472225e-01
5.401366039171626721e-01 6.550410061534560624e-01 2.600929655291033815e-01
-9.411772952713054474e-01 -7.822372407416776363e-02 -1.043334276700636498e-01
3.807717119529056837e-02 2.868377445519594282e-01 -8.289012523337770943e-01
3.225530652392805675e-01 1.833436444695552281e-01 -8.062860995458468460e-01
-5.658691480844020294e-01 -2.913529698712902932e-02 7.111565712159227948e-01
-8.037593891774360566e-01 -5.175295087278092981e-02 5.094757455245221278e-01
-5.861419187061028824e-01 -5.316284505458488407e-01 2.486437447301644565e-01
5.799431282854250469e-01 3.364708885820135165e-01 4.947299451079614219e-01
-6.462702874007310028e-01 -3.630667883323389633e-01 -4.173957717380895049e-01
-5.083355336356701892e-01 7.088816348499824005e-02 7.838508720960239984e-01
-5.595165437649947116e-01 -1.661645537158749075e-01 6.339877484244260675e-01
6.381868830559066508e-01 2.587478138856724730e-01 -5.783701373756033881e-01
4.824656662706430788e-01 4.816690969984373516e-01 -5.397064957243062899e-01
-7.437409697240521256e-01 -3.316738898371104916e-01 -2.467844493875701317e-01
-8.858775745026239434e-01 -1.828208587133198573e-02 -3.410937906365783534e-01
-6.026954728887734536e-01 -5.997376693716373053e-01 -3.438087669804739538e-02
-6.282856875960926013e-01 -5.623825647282492124e-01 -5.508926255526706145e-02
-5.135194727426497519e-01 -7.120920130586020358e-01 -2.148358379487327052e-01
-7.866035628182821426e-01 2.507029063787235001e-01 -6.000935354860682525e-01
-4.874258089703697450e-01 2.402584490529254546e-01 -7.613265316446498066e-01
-5.139336544771723192e-01 -1.864196500122821121e-01 6.502557013639651551e-01
-3.616114318627536295e-01 -1.028719112675728492e-01 7.597886357410540414e-01
-7.684517626304885329e-01 -9.155743424076027981e-02 5.113316070396086710e-01
-4.830177284102014634e-01 -7.192287968913397833e-01 1.525465823962927070e-01
3.744841215030830228e-01 4.942762396838724093e-01 -6.192175746767777378e-01
