1.220809180711803360e-01 -2.701124793741153107e-01 6.517764650219151079e-01
-9.576697577466650180e-02 -6.176067967700089589e-01 7.328968858792568319e-01
1.270003255118283270e-01 -2.612935647049797749e-01 6.517293314342356148e-01
-3.131776822808030741e-02 -9.872744212003603526e-01 -1.587531436519911687e-01
1.197651918475172023e-01 -8.060124077408460375e-01 -3.247080776593866958e-01
-1.242089666439547130e-01 -7.401779751803108098e-01 6.017123379750882739e-01
1.668984722607357862e-01 -7.650271141150396526e-01 -4.050608357411434879e-01
4.623983446551594989e-01 3.204496034016008355e-01 6.126736470137230661e-01
3.957143179176890180e-01 -1.762372023780202912e-01 -7.927690625954147974e-02
1.823438459494697017e-01 -6.116761279108207106e-01 -1.744415259653886441e-01
-7.018940255475634125e-04 -7.790342325857902983e-01 1.225771212233649904e-01
2.594110537009488571e-01 -4.007289966116939772e-01 -4.150708321077735408e-02
-1.446363525057598465e-01 -8.121012427654056287e-01 5.370763976966757003e-01
3.059821632045759410e-01 -1.264333046972116459e-01 3.084490747024087320e-01
2.381647570693234961e-01 -5.578204740290517716e-01 -2.598427364483740232e-01
3.947106134808120101e-03 -3.270799820097253785e-01 9.371995505577812580e-01
4.750637012583088237e-01 2.635719327848061733e-01 4.664063033577462991e-01
9.980500661225956416e-02 -7.819907262433601902e-01 -2.146925971204386996e-01
4.851288756723065032e-01 6.881679516771573024e-02 7.552477204256440035e-02
1.301416639795499597e-01 -4.693853683265754584e-01 2.592164611586627587e-01
-5.303679841663719308e-02 -6.261435042387758498e-01 5.761391689696405694e-01
5.175588942826765404e-01 1.099037676326466983e-01 4.390402308576287632e-02
4.856648686752015331e-01 4.182524048684062301e-02 2.418762522248488547e-02
2.952310051690625881e-01 -4.115109323433703281e-01 -1.795726826802923892e-01
6.312948558203262950e-01 6.060553128704455200e-02 -4.221459529573161062e-01
6.524714321892436386e-01 5.704294388142322481e-01 4.441801455578119895e-01
2.279142534341261628e-01 -3.464228281736381199e-01 1.622131065704006114e-01
2.295306201649126021e-01 -2.522923822105500591e-01 3.297381967502018285e-01
7.447812214487823379e-01 3.310612394923199142e-01 -3.001735110019073671e-01
3.845536650855642113e-01 -9.738664242653781444e-02 1.023735700399668186e-01
3.047062555137526330e-01 -2.477857530176486023e-02 4.993411397460845169e-01
5.470434510568362718e-01 4.642944604862943025e-01 5.973613098756442863e-01
6.211634358646003218e-01 -9.320484739475513869e-02 -6.711538039264947075e-01
1.672069181992189846e-01 -7.199931946813467043e-01 -3.233786234591416453e-01
5.859489039439206293e-01 1.887254396122781119e-01 -3.714840803640388073e-02
5.376030931868943652e-01 2.943787984347667752e-01 3.164959487411411754e-01
-8.294005805622975402e-02 -9.236958830442530965e-01 1.284425693941406710e-01
2.757171844231749991e-01 -5.897538670592030741e-01 -4.424710768346747924e-01
4.404895956846960337e-01 -6.438288203839763468e-02 -2.169995667095873937e-02
7.979587547537720926e-01 3.955056048446417560e-01 -3.574019838705320140e-01
6.622213766198161711e-01 2.747252469578220224e-01 -1.310441361529216531e-01
7.093038408101611791e-01 2.060049178314206086e-01 -4.126932734487070431e-01
1.555738382829898181e-01 -6.868275825824590175e-01 -2.240645012308332962e-01
-5.466434828588108419e-02 -5.229655268161139681e-01 7.709895427724695605e-01
1.428864270204875386e-01 -3.390804265326759492e-01 4.564303761296984452e-01
1.741768538256197318e-01 -3.634541756000142509e-01 3.083596630294183072e-01
1.759642791699820019e-01 -4.327763862769250514e-01 1.751543956105136024e-01
7.477380985376962386e-01 5.322059520464609284e-01 5.944739195020280059e-02
5.032733417633392659e-01 4.971895852297791157e-02 -1.945362470971477228e-02
3.654592746839200879e-01 2.301640976269055394e-01 7.669333270864712171e-01
2.331942460700928144e-01 -5.742021909195552665e-01 -2.735152577206883540e-01
2.969310939066511223e-01 -4.332640113997476838e-01 -2.251333143137886628e-01
6.767301936795786510e-01 8.919811373960723211e-02 -5.196507285894766959e-01
6.323716152742093755e-01 4.635193473083816795e-01 3.142126382167299004e-01
1.343159398095768176e-01 -1.423646199068173135e-01 8.459775329058970561e-01
4.505247753037355252e-01 -1.250496396518637476e-01 -1.662416351144592463e-01
1.036736089371530917e-02 -5.594035269934273247e-01 4.893614521761781022e-01
7.628889907617929511e-01 3.061380540885101365e-01 -4.057284575710908836e-01
7.349768494697768162e-01 2.204728904753095742e-01 -4.708879342284840175e-01
5.040650574752664204e-01 3.767212285999951837e-01 5.784416029581780361e-01
4.415075198257768507e-01 2.320149927594255534e-01 5.192462846797465392e-01
5.793963782866338175e-01 4.345905108477666756e-01 4.359941565222216764e-01
-6.208491170106670426e-02 -9.488101299123047339e-01 1.346583004790401564e-02
3.598335218475747777e-01 -4.380864212123706247e-01 -4.416721388743663490e-01
6.343436841319428643e-01 3.216424377498861009e-01 4.715779297761355654e-02
9.976019547425639400e-02 -4.966737225501493547e-01 3.094134553946099597e-01
4.155133337839874708e-01 -4.303103899845999725e-01 -6.112284215851904179e-01
2.972754895385015250e-01 -2.059566733518284065e-01 1.911583591936834026e-01
4.213238493721616629e-01 -1.933143607103574718e-02 1.243117540941164889e-01
-7.102839371614198816e-02 -6.714534226783875903e-01 5.523339942979367256e-01
8.375402187164417145e-02 -2.141635261631494314e-01 8.810641835329745541e-01
7.896168222460779873e-01 4.864587360616516309e-01 -1.628327407624460821e-01
3.043458497441401400e-01 8.091424121002421810e-02 6.946260924714151574e-01
7.504748272368462203e-01 2.485699729706569994e-01 -4.704594328508432954e-01
3.573586609442940265e-01 -5.870774765654263733e-02 2.631926257921115009e-01
3.429939953503585715e-01 -4.885898531720753168e-01 -4.788184657861728755e-01
6.592229749801779004e-01 4.053170373983246977e-01 1.186752488477479384e-01
6.018406414397284854e-01 3.507444154984223905e-01 2.079151124085867053e-01
3.291688917188661904e-03 -9.237044664788568449e-01 -1.562817718415335788e-01
1.621087970157957525e-01 -3.358326538261631189e-01 3.989287289723016938e-01
5.950046109172423270e-01 3.996474565274468205e-01 3.202912936729192528e-01
6.232465858689147931e-01 5.294436796684447444e-01 4.654043493439240509e-01
1.320382593946179198e-02 -9.631897168235744600e-01 -2.615193393931128929e-01
3.277754371632302793e-02 -3.979353140827838198e-01 7.118918069611082089e-01
4.946822061336531573e-01 -1.604413899619707984e-01 -3.770284535194396991e-01
4.420721078636592472e-01 1.091446851639329835e-01 2.917423275893976098e-01
1.427780412605752780e-01 -6.657258337534334158e-01 -1.430656346126995271e-01
2.723582880323142108e-01 1.233936287052800895e-01 8.782478319124636945e-01
2.222186850765852373e-01 -1.251607429039925702e-02 7.942066322590538574e-01
-1.072023896185127362e-01 -9.347382404336712636e-01 1.882704664180497311e-01
4.962982062034886066e-02 -7.415643441323273022e-01 2.520848181310007818e-02
1.844336899543731756e-01 -3.691205540738907720e-01 2.640892216363340261e-01
7.614746855484182397e-01 4.003635617554687220e-01 -2.280225235886187418e-01
-1.448279064194221144e-01 -9.665605287492359254e-01 2.540587536969953208e-01
6.792896331137908694e-01 4.301201822436563904e-01 9.797047589425407488e-02
5.028646180835412149e-01 1.075129043140124752e-01 8.802904323131817421e-02
-1.178123331983349231e-01 -8.971435616172104277e-01 2.923401008691945968e-01
1.237146787953180699e-01 -1.599936957777152724e-01 8.486052188219042058e-01
5.593855608669562329e-01 -1.571868137522669240e-01 -5.846807075143152232e-01
-9.314944112248871311e-02 -7.699767633268069789e-01 4.444414052520795355e-01
3.088678363434196328e-01 -5.400843670981486655e-01 -4.607101052399208974e-01
4.521944403327917139e-01 -3.555784370761522761e-01 -5.950989778427179244e-01
2.046151103228070200e-01 -1.386622911871616681e-01 6.206720101578372395e-01
6.516684119882311388e-02 -9.106600477944898353e-01 -3.366181071772939570e-01
-1.916301150902505190e-02 -6.383087804854404856e-01 4.419587822755609574e-01
4.796160363843747221e-01 6.774700079582580796e-03 -2.020819286483339569e-02
1.052155736341862796e-01 -1.227520011673604861e-01 9.780740210755484165e-01
1.743619916954288473e-01 -5.238931223340531629e-01 1.311721793038500387e-02
6.687837401588182518e-01 4.831775651677500116e-01 2.300923855504644622e-01
-2.169456819538592967e-03 -7.237922034312064268e-01 2.288693669259644903e-01
3.911703140070496021e-01 2.959530310079810933e-01 8.028592657213787787e-01
3.203304013386653604e-01 6.385898768971645656e-02 6.105300294174832443e-01
3.417124990240038573e-01 -4.670773474383347890e-01 -4.350816777183870721e-01
5.353555457892734681e-01 -5.155117412833277318e-02 -3.113515689593911451e-01
4.787408472400273562e-01 6.890636650808618091e-02 9.678040896753213607e-02
5.405086211244811700e-01 1.490679836019054572e-01 4.005308457578751063e-02
7.387470430991294190e-02 -8.791505669685548696e-01 -3.075043514965130065e-01
6.168469613506184779e-02 -8.574121794704437916e-01 -2.273364707683840080e-01
5.218913817908148456e-01 -2.763608924149288382e-01 -6.797394802324625562e-01
2.112179646172785419e-01 -2.704932493113454406e-01 3.567763040202960867e-01
4.161201714822341247e-01 -5.111939356933143941e-01 -7.617670957283039224e-01
6.934612950297892597e-01 2.280023198359877601e-01 -3.199902710646704840e-01
3.274953232507570311e-01 -1.229287840420862088e-01 2.438554935899086840e-01
4.994813037763394248e-01 2.897245949404058663e-01 4.338144204580673402e-01
6.416351391816804695e-01 -8.936286624104309781e-03 -5.839932041457785994e-01
3.978903412765226744e-01 -5.348174137989820665e-01 -7.449605702327003476e-01
7.013423479700857666e-01 3.317883305880651168e-01 -1.554175479928797676e-01
1.247337966150832561e-01 -3.900396052255825086e-01 4.227825456279698524e-01
7.445643767664938961e-02 -7.933973394626744335e-01 -1.519472270877303965e-01
2.003582779811922954e-01 -7.280601934086344817e-01 -4.476476908817098588e-01
5.261775813040933114e-01 6.175352518195052764e-02 -7.297545319316212087e-02
1.198622677859655095e-01 -5.439354495937817058e-01 1.562513319518046839e-01
4.945693070326168117e-02 -6.908602513547862367e-01 1.188926503590616301e-01
4.669942888719347263e-01 1.525741301532817229e-01 2.892116965616569058e-01
6.573431922449437526e-01 3.293205802458056275e-01 -1.467874786915538028e-02
3.478797633633042286e-01 -8.578112802648642232e-02 2.447710550402074636e-01
3.971830342243345968e-01 1.530709655228727761e-01 5.206176569411512522e-01
9.825298776713700666e-02 -4.693988018261570083e-01 3.644776058317915624e-01
6.932048168832867230e-01 4.299830363253919763e-01 5.177530661431296866e-02
4.515860171272950696e-01 -1.719413024859069439e-01 -2.558576740292908269e-01
5.288249178572559384e-01 2.467915488623666498e-01 2.580890159289121466e-01
4.159279771244872026e-01 -2.725331591565267053e-01 -3.228542481011128507e-01
2.350922432720455590e-01 -2.308074534525347277e-01 3.508306354842333774e-01
3.290222096431772436e-01 -5.991751743094573396e-02 3.545285438779712806e-01
7.454614518504281140e-01 5.921220123462347384e-01 1.769943866843133873e-01
2.357915947621912478e-01 -2.569651344097716450e-01 3.004854646351799996e-01
6.280887551583989037e-01 3.965335041692427676e-01 2.053399579324852176e-01
3.233154268113703211e-01 -2.133733910552095270e-01 9.156302670040146474e-02
3.267134026682807502e-01 -1.783852683299919639e-01 1.445964677432619860e-01
3.736118908473164968e-01 5.611817430137153173e-02 4.203969707367818387e-01
3.982739389732852658e-02 -9.570538641750276909e-01 -3.381535934227531404e-01
6.557127537316052857e-02 -4.177427372841966968e-01 5.672433128198313135e-01
-3.092954734386647170e-03 -5.271314167321282662e-01 5.930676667394280122e-01
3.368190569939262247e-01 1.187134860254773355e-01 6.568251433882019708e-01
4.320175291298906095e-01 -1.515241934766309029e-01 -1.537549092524016225e-01
5.201612217151958539e-01 -1.348144371097446254e-02 -1.912734452317410017e-01
7.491173133946907869e-01 5.230674926229235133e-01 3.811175321119674581e-02
5.582404617648951684e-01 1.210524799828707615e-01 -6.993942478028331022e-02
7.011145809265036943e-01 2.295382350048110753e-01 -3.424383131975821670e-01
3.667318398788333988e-01 1.728945935998923433e-01 6.575616299181222812e-01
2.804058850768704758e-01 -4.953386935876764180e-02 5.341120976166634504e-01
4.604422613524726815e-01 2.993487704801532368e-01 5.803822699897499549e-01
4.546572869341098388e-01 -3.601883015624330331e-01 -6.116960657918621980e-01
-1.594085620577220530e-01 -8.567862875520290133e-01 5.037894031659658767e-01
6.371700174036513120e-01 2.804385756593129608e-01 -3.784087519149991613e-02
9.501014027392960803e-02 -6.637122105792657711e-01 1.834593526192705368e-02
4.743737091459249711e-01 1.959121905247213358e-01 3.444336136693691985e-01
2.979487784677902207e-01 -4.663722714637192901e-01 -2.892936063070959962e-01
4.197676818055910419e-01 3.095791452173329295e-01 7.334633480656367333e-01
6.079332532150008017e-01 3.572643839031531821e-01 1.997726472216769522e-01
2.130112262823097291e-01 -1.888870576522694578e-01 5.007177194595494596e-01
2.859915587147828231e-01 -8.424595108711789571e-03 5.911634120473334697e-01
3.126981113466849038e-01 3.535589253118824604e-02 5.833860358938565138e-01
6.895474089457676037e-01 2.790197741791162755e-01 -2.133791167709458703e-01
7.866910201252539370e-01 5.314843068256086545e-01 -7.048744750124988356e-02
7.452240470899539060e-02 -8.911788265376683338e-01 -3.317316213293296512e-01
8.676010830629757309e-03 -3.955309086128930285e-01 7.958825276525753889e-01
3.863272716096913806e-01 -3.604484313012573660e-01 -3.865707614381997947e-01
3.231369041279659182e-01 5.831006926323311496e-02 5.910738178215295680e-01
1.297483841000163785e-01 -1.456311029581405236e-01 8.550594924550157794e-01
2.638164762964986809e-01 5.593240476273828726e-02 7.825638023024972245e-01
5.100569775282990381e-01 2.737885216496483975e-01 3.696319452190139354e-01
1.847729481688347719e-01 -5.635873903265923301e-01 -9.415112716022817907e-02
2.087778002229786767e-01 2.146406676280407030e-02 9.009853323130524450e-01
4.027971715585946799e-01 -4.845570289259732433e-01 -6.688627783165526086e-01
6.468472373374128948e-01 1.932920171636381967e-01 -2.298283775056020328e-01
2.871106392626278092e-01 1.127521392427907193e-01 8.099983653434689179e-01
5.762334828967175665e-02 -8.727113113386156806e-01 -2.420226801564184238e-01
-7.737301684819286596e-02 -7.092953604037512960e-01 5.037886381276791559e-01
2.759527939383586426e-01 9.137714304424968126e-02 8.075846739668841590e-01
2.133160217819966287e-01 -6.284141850479645353e-01 -3.074392430985378177e-01
6.581430806613793871e-01 2.431111658193344793e-01 -1.756352731584220894e-01
5.936027208896529350e-01 -1.368565819895986302e-01 -6.603198245319186199e-01
7.824307714803878655e-01 4.173057738295624097e-01 -2.660997624422112851e-01
7.502142066152555078e-01 1.850089068100468914e-01 -5.863229276661899858e-01
6.520120798423245656e-01 1.430132687314860651e-01 -3.392132096811042441e-01
-1.058474166645863856e-01 -9.794852580773825146e-01 1.016230660270703995e-01
1.072142653300354326e-02 -4.449648029503894264e-01 6.983485022190689673e-01
8.429264536267211394e-02 -8.609904072537384323e-01 -3.085514897957399305e-01
5.751439182570136088e-01 -2.897126817868235244e-04 -3.485826562894991376e-01
2.088319415946465196e-01 -4.727447258776539818e-01 -6.761838413290732416e-03
8.732708130158649273e-02 -6.596779349654563473e-01 5.112141472763379046e-02
6.992539760016147632e-01 3.548401653487945895e-01 -1.061898902590396182e-01
7.801451953362777969e-01 2.421409231004758855e-01 -5.802274817679666796e-01
3.186171488156380738e-01 -2.399509211528587649e-01 5.826802124677641498e-02
8.164445560796677048e-01 5.518554327513949254e-01 -1.313140625346281010e-01
4.241744255930965379e-01 -3.882263521011218854e-01 -5.625410535506745191e-01
3.377763515090725921e-01 -6.019794849002811921e-01 -6.698210361819497694e-01
3.008413655343910587e-01 -5.331875315409532190e-01 -4.215439692870518451e-01
4.312096696946366436e-01 1.773844365901119657e-01 4.529224366533549651e-01
4.500201329045459553e-01 -2.715196936613634149e-01 -4.335540846040693008e-01
-2.012830144725918230e-02 -7.386979545359028121e-01 2.607904816885119326e-01
3.235407390566457653e-01 -5.913330100047073934e-01 -6.032685140908851107e-01
6.297683582736088859e-01 1.480939133950907316e-01 -2.564417007151602590e-01
5.229592678278017770e-01 -2.284245936356515683e-01 -5.952347375146597175e-01
4.354859833929595192e-01 3.095148911220102494e-01 6.814487418687109610e-01
5.528735070578568722e-01 1.962266274945034805e-02 -2.384859349991417243e-01
5.334665372065170441e-01 -3.075035455120847527e-01 -7.751473792297824961e-01
4.637818541359928215e-01 -6.439896889937515856e-02 -9.863279739437993965e-02
-8.135710454614418149e-04 -4.992821559090536709e-01 6.366844725519849035e-01
4.946981512014773652e-01 -1.578857524768591536e-01 -3.723879086428192320e-01
4.774257475459249278e-01 3.720381509690129929e-01 6.577957177464263117e-01
3.982317923911267710e-01 -1.547300468660835204e-01 -4.809288277280820284e-02
3.029286269684446364e-01 -1.647519488787478059e-01 2.481622160412216560e-01
5.301586605607695457e-01 3.262598152068749702e-01 3.996215096067310402e-01
1.751688620852198397e-01 -5.744892048429188769e-01 -8.246179270281782381e-02
7.278567551786614409e-01 5.652726691852379970e-01 1.858129282511311875e-01
3.709093073358689097e-01 2.112541114443047818e-01 7.142127017815098622e-01
1.558612557216595106e-02 -3.830172928948459843e-01 7.960477142853400467e-01
5.852687893118367901e-01 4.444390232182888201e-01 4.346912820029709135e-01
3.776490646523329997e-01 -6.300508331906772008e-02 1.883087974427592737e-01
6.176211581001709305e-01 3.773709706741712466e-02 -4.189956954159403946e-01
-9.784393392043799764e-02 -8.053990594998619024e-01 3.948913132937822978e-01
7.083577043308975085e-02 -3.481790324299805506e-01 6.776089635817068579e-01
-9.065720274281882651e-02 -8.520293146962196751e-01 2.855309944640921360e-01
2.006124681389463149e-01 2.920453166645889040e-02 9.421591887739301230e-01
-6.998642024107881721e-02 -7.670047725738992073e-01 3.734225902552382181e-01
4.187711350362206542e-01 1.510133063569913114e-01 4.455622211747348738e-01
6.497217894980995556e-01 4.300836763445951005e-01 1.955266321023230169e-01
1.213518360198180407e-01 -4.015190673205770167e-01 4.128676930119907773e-01
3.298324602509323245e-01 -3.729319475516506555e-01 -2.229684791718319348e-01
4.439031043735690019e-01 -1.046875520488902978e-01 -1.069860004837104722e-01
5.760426218806949938e-01 2.746705829991612502e-01 1.533890943849740840e-01
3.072777309799070711e-01 -5.721291027474134649e-01 -5.143072777995019162e-01
7.286786310821365964e-01 4.592242927234154171e-01 -1.164859826480157436e-02
-1.472682470747827543e-01 -8.341817974330067997e-01 5.052171572109164233e-01
-5.588777364635546391e-02 -5.461683863775267378e-01 7.324189965162029026e-01
2.086410740088973093e-01 -5.776841487599635450e-01 -1.988431324516571064e-01
2.958889064923729273e-01 9.716482260189934772e-02 7.523907883659455287e-01
3.259435195152557974e-01 -4.203158535278972430e-02 3.975392040562027995e-01
3.837264418028671353e-01 -4.674857702409895288e-01 -5.745477883432636990e-01
1.926463669508269444e-02 7.691653267359999102e-01 -2.234176542727769610e-01
-4.517700013903651161e-03 6.890378595126001038e-01 -2.920429099587819599e-01
-4.797788053772289452e-01 -3.636657238135502790e-01 -6.560807177342506957e-01
-2.048663597363338251e-01 2.420428763294870944e-01 -4.514228507554653436e-01
-6.142519102363525052e-01 6.285260321503469139e-02 5.711659756114491060e-01
-5.445779544030188157e-01 -2.162861933124350655e-01 -1.714866768657393181e-01
-6.581938803566493856e-01 -5.531574186333784171e-01 -4.149972644883921924e-01
-1.707955221974706839e-01 7.678673268802796992e-01 4.017141882822210519e-01
-1.686232988258802579e-01 1.749037564251121890e-01 -6.943801362914731046e-01
-6.374280684718227619e-01 -4.795389960122674045e-01 -3.483657001720822932e-01
-6.383355902521260505e-01 -4.142172593207925080e-01 -2.254120798237752021e-01
5.606062338939616502e-02 9.858735550798004565e-01 5.305869865289115223e-02
-3.880290393475640531e-01 3.150226110716323191e-01 2.873399477401964441e-01
-1.113714553540205987e-01 8.599325691393961968e-01 3.745849046941525651e-01
-7.107130331011728419e-01 -2.622947992741585521e-01 2.925456363620065336e-01
-5.378744564380716353e-01 1.611576539685885545e-01 4.995210680375834489e-01
-2.953824163184249896e-01 9.361599830421515889e-02 -4.251410413659945098e-01
-7.538474643483890070e-01 -5.434388308669995116e-01 -8.133362926037962515e-02
-7.624608755429576057e-01 -5.542254351948405766e-01 -7.270360136144173036e-02
-6.528718858825359461e-02 3.037834704267370345e-01 -7.988860494514603561e-01
-2.012347557278628130e-01 6.742933356478849616e-01 3.303745053419614996e-01
-1.033109492835154741e-01 2.489350038463004899e-01 -7.740683247247625021e-01
5.083033420109228651e-02 8.262175009031640371e-01 -2.228660962833679815e-01
-6.993008967678595589e-01 -2.503415675169385346e-01 2.768175505204225062e-01
-1.913178220814884811e-01 4.343951692337245096e-01 -1.429185516849494353e-01
-1.497340660626718944e-01 6.088545322191730724e-01 4.016407173694815785e-02
1.353106954967158437e-01 8.813741534731174276e-01 -4.005021264194851827e-01
-2.711807900659961579e-01 4.660761096414551830e-01 1.789415307301285285e-01
-3.380746589139140279e-01 2.156329113891101157e-01 -6.011274509939706218e-02
-3.543542376579268405e-01 2.380896577674538606e-01 3.487673808532092135e-02
-1.589624882223418800e-01 6.400682281016247810e-01 1.279543006678414696e-01
-3.693275561667443974e-01 2.520897391212862937e-01 1.100235063606109370e-01
1.092787464252250153e-03 3.848360889553518738e-01 -8.692050918859096642e-01
8.878756215761196904e-03 6.552198202391806836e-01 -3.983772366382793417e-01
-1.033661166340791165e-01 4.866571759308274125e-01 -3.373315543978737119e-01
-5.138901489619622787e-01 2.081460783127296876e-01 5.066227178894444627e-01
-6.709831069397712566e-01 -4.370973914962820173e-01 -1.596380581885671612e-01
-2.239964042910670416e-01 3.079203990435789295e-01 -2.672838652620573296e-01
1.152685671240440968e-01 7.019535621178949469e-01 -6.638188810408114371e-01
-1.156285963950657025e-01 4.372212523159164088e-01 -3.876293892974507771e-01
6.095462010296161248e-02 9.519334837748514300e-01 -2.542743205152223421e-02
-3.403076185424406819e-01 7.221003186357446762e-04 -4.474039406512141381e-01
-3.433318667352244224e-01 2.005009275933101465e-01 -7.054367029813601864e-02
-4.392019851922042695e-01 -2.649584872868376850e-01 -6.087852509393918421e-01
-6.139648977895515586e-02 6.462355307730153209e-01 -1.828505336168229078e-01
-5.343224006156386263e-01 1.881621125479303602e-01 5.373845326721954363e-01
-5.061466304186912346e-01 -3.903101770635866163e-01 -6.179529765475665348e-01
-9.142953604299232720e-03 4.162194977218048875e-01 -7.777773686898602490e-01
-3.803801070390427919e-01 2.618473406709848628e-01 1.644342835616960652e-01
-4.509848390966552656e-01 1.512714111148635507e-02 -5.553101454466486536e-02
-5.092316323966872282e-01 -1.846380836099291156e-01 -2.300696829797106713e-01
-6.260345342012513248e-01 8.139183759984271183e-02 6.441138623261977170e-01
-8.027556671031800262e-01 -3.111448439848290559e-01 5.067312763533017295e-01
-6.136602112416860155e-01 -5.443085272570251654e-01 -5.457824791079565196e-01
-3.090343180121490341e-01 2.345945177457364403e-02 -5.089029606013508733e-01
-6.428082391342228030e-01 -5.064898189728339606e-01 -3.800948401667202381e-01
-7.591667061809985462e-02 3.258288638923605984e-01 -7.233067197164348983e-01
-4.845714492971990306e-01 1.396997206786830814e-01 2.841267522857567895e-01
-9.335748221158017557e-02 6.722360089647332337e-01 -2.957849909278846556e-02
-2.372895245697275723e-01 -3.075301191958436375e-02 -8.453365716750722569e-01
-4.622123261955515261e-01 -2.194899283561563830e-01 -4.493139767427938858e-01
-7.262672074063042382e-01 -6.233001036750283053e-01 -3.190522630388583636e-01
-2.803996612285699630e-01 -2.125250122492393715e-02 -6.855544205436936434e-01
-4.661662320973739559e-01 -3.709113900446887047e-01 -7.143309031391911201e-01
-7.009650352631466852e-01 -2.307776894255126887e-01 3.182392227421741437e-01
2.659164935982569200e-02 4.239262121429907548e-01 -8.816084919015123589e-01
-5.142178796426223331e-01 -5.362580788070867716e-02 2.698508982994125491e-02
-6.057233531338919175e-01 -1.729574560255819349e-01 1.099643046849491934e-01
-6.482947429064888079e-01 -2.985905356284307421e-01 1.980744122173326571e-02
-2.687355429829200726e-01 3.212161139341025984e-01 -9.515375164720259182e-02
-1.631582154365065762e-01 6.307100516850124849e-01 1.246217786168783842e-01
-2.707147038375692372e-01 3.474431088074983465e-01 -4.045578693438552781e-02
-2.168854741816847176e-01 7.061955980749682338e-01 4.406335111908155078e-01
1.093263657593987609e-01 7.126390193508158610e-01 -6.245768594971188303e-01
-9.189264745015894575e-02 8.779355038905979347e-01 3.433330654671480353e-01
-2.731178706281424118e-01 -1.220636509808867148e-01 -8.947267601070497678e-01
-4.187108809066744097e-01 -1.180068984922766490e-01 -4.065771644442927601e-01
-2.705996129660207528e-01 3.613901977842400859e-01 -1.522324896962885116e-02
-2.832874725323908383e-01 1.109186095379510462e-01 -4.332998934249537304e-01
-3.939590558624285199e-01 2.096154451895998749e-01 1.133484502196860505e-01
-1.616444817306999515e-01 2.191389317053433483e-01 -6.361880926182299500e-01
-2.619132910924329982e-01 9.675917005235654816e-03 -6.897931135461844443e-01
3.469819494509423369e-02 6.281407269464353016e-01 -5.333526774900467782e-01
-4.038337687054907588e-01 1.791984864488561620e-03 -2.356969556590451653e-01
7.845927301429944656e-02 8.209698938865687134e-01 -3.237244141958158794e-01
-5.088636041438275859e-01 1.673354631311469165e-01 4.150818435191236944e-01
-7.275753411854278818e-01 -4.304025301439410867e-01 3.950518615244001663e-02
-6.442010874967615819e-02 9.106799208783619148e-01 3.127599420270167352e-01
2.128223275931795042e-02 5.572245955554431251e-01 -6.192884974365087114e-01
-1.070711252797618002e-01 6.863586887388432034e-01 4.163437997589933270e-02
-3.325137277224817223e-01 3.288797939707347462e-01 1.294942590101076096e-01
-8.562041450681322219e-02 7.420407179259511654e-01 7.306611988618426368e-02
-4.425585165170423663e-01 1.958792397688078127e-02 -7.516011988419053769e-02
1.258543837294495427e-01 7.945988949619152697e-01 -5.286352062146114639e-01
-5.217227431051487674e-01 -2.686710061371510583e-01 -3.431468203678237905e-01
-3.955089288513092827e-01 1.956195583342171598e-02 -2.305499145072404665e-01
-4.113528716075114944e-01 2.960099729481427411e-01 3.294325537131905235e-01
2.607579822236973099e-02 5.843724860123067355e-01 -5.852606858686464353e-01
-2.634144755163878027e-01 6.649870113794391635e-01 5.185810835995929846e-01
-9.649578984326508124e-02 1.739208361709840278e-01 -9.343262485378237558e-01
-7.941056197134488404e-01 -4.271497805207647436e-01 2.651394332916687802e-01
-4.539948574662001635e-01 3.469186915349303790e-01 5.637113432102166533e-01
-3.795144092194565610e-01 1.217826213141116470e-01 -9.563977358793565586e-02
-4.766727957646017116e-02 8.838675762549603743e-01 2.082092926908385155e-01
-7.929543322350366408e-01 -3.723404525321123981e-01 3.619904901044461165e-01
-8.229335567799245243e-02 7.314778741904691683e-01 4.268359839837206071e-02
-7.891580831424832576e-01 -5.273822070229724490e-01 6.473679634208583111e-02
-1.021129316804721826e-01 6.348624876708933717e-01 -6.930390453531135031e-02
-3.059639997338179929e-01 8.077642846434807122e-02 -4.137828426430295026e-01
-7.045830900991517654e-01 -1.918726695510906133e-01 4.016302828711054707e-01
-4.214924612524181269e-01 -9.291058292323110812e-02 -3.513062643943583030e-01
-7.092828961429036294e-01 -5.704122811443994301e-02 6.647528640795016264e-01
-2.592297263982863420e-01 6.761075428283045419e-01 5.251862525360281309e-01
-2.632356949008705094e-01 -1.343835553743295830e-01 -9.499787779321483550e-01
-1.186775072382626750e-01 7.364380762041838890e-01 1.719209274209091420e-01
-1.578820163800530307e-01 1.014378580309281269e-01 -8.647575615205261856e-01
-4.348125556930477198e-01 -2.112556869210861776e-01 -5.246574981374235724e-01
-4.165142230646532995e-01 3.734745984179779210e-01 4.887301905214623821e-01
-4.402541907162063617e-01 1.991108000901053166e-01 2.469088019880239515e-01
-7.621231140934187076e-01 -4.535179619508218352e-01 1.111211166234725572e-01
-7.598383510706721022e-01 -5.154621117994172552e-01 -1.017707310092122105e-02
-8.442895958736423845e-02 7.380256531936864040e-01 6.175903920356721338e-02
-5.861585548341242680e-01 -4.768603179574091439e-02 2.754171429923428227e-01
-2.546322405295310953e-01 5.282433447503506047e-02 -6.345946738594736569e-01
-6.377654686957882901e-02 6.755709562101313015e-01 -1.211205995369406402e-01
-4.417677077699764254e-01 4.464669210429232371e-01 7.061524082362841126e-01
-6.486013409385030792e-01 -4.532427539708385744e-01 -2.631846676273932872e-01
-1.124297444072709928e-01 4.225057060230931749e-01 -4.252146658292884074e-01
-3.336910700894281101e-01 5.245351634212096492e-01 4.926843137401530903e-01
-2.134892083158959897e-01 1.918603426281228486e-01 -5.151086184515438759e-01
-7.202972685750826942e-01 -2.841560644731285779e-01 2.840434203563135807e-01
-1.762529299650172632e-01 6.878206961453474655e-01 2.727345542539448275e-01
-4.407809677750623156e-01 4.138054532967633814e-01 6.429147773940740995e-01
-1.122417988297856190e-01 8.435731096204172053e-01 3.474158661035089413e-01
-7.106658018751452754e-01 -4.880185169804255318e-01 -1.221308876657681425e-01
-3.787267381937206578e-01 5.075512134682549359e-01 6.101876849121572466e-01
-6.417834448281052317e-01 -4.461655295500708829e-01 -2.726984319507374521e-01
-4.694047155163038609e-01 -2.038461691652027341e-01 -3.968387902371626197e-01
-8.313295422647820621e-02 6.476691225777934102e-01 -1.084512919974332940e-01
-3.119914197086585128e-01 2.936152634020164909e-01 -3.023609270146017554e-03
-3.430662195618650601e-01 -1.112886116997207353e-01 -6.439931958377570487e-01
-5.310827329068261715e-01 -2.348635184985843893e-01 -2.501589418378398766e-01
-6.097692604513433867e-01 -2.149054158455864505e-01 4.628902551301607160e-02
-1.898889526311496878e-01 8.577127071140334957e-02 -7.878515204459189958e-01
-5.223786836828327174e-02 4.813183957326909179e-01 -5.159442156823257353e-01
-6.190137352385524094e-01 -2.167628967729188783e-01 7.340011913716383563e-02
-5.729715176985019642e-01 -3.063745177287301447e-01 -2.431793808303746307e-01
-1.214640601744607223e-01 1.872474563005433745e-01 -8.274162189119987909e-01
-3.281197124011112076e-01 7.027321190359600567e-02 -3.599202193868591970e-01
-6.898162817039245054e-01 -8.805287954327899180e-02 5.435305616358457881e-01
-3.902461697691720355e-01 1.770469870504971233e-01 4.128079418527511729e-02
-4.997676403642699050e-01 3.197387334534918663e-02 1.364710420007147762e-01
-3.312051955954904980e-01 2.739053415427125659e-02 -4.284830223299483931e-01
-4.143021602642938395e-01 3.988506477358812474e-01 5.280274449826736216e-01
-6.643230665287048753e-01 -4.084466882924447928e-01 -1.290129511464428169e-01
-5.509234956326746202e-01 -5.061753927609173864e-01 -6.828903206375460666e-01
-6.451118865608398423e-01 2.116782460325026399e-02 5.965051512716198490e-01
-5.197598390589490691e-01 -1.249555621040773640e-01 -8.570765097815001565e-02
-3.236925707416185016e-01 -2.255221270504619291e-01 -9.177377579696087695e-01
-7.470686123365662956e-01 -3.842610173798999829e-01 1.886000812528272064e-01
-2.148295179578894598e-01 6.470790291476118394e-01 3.252833544797776866e-01
1.015014094752370553e-02 6.708184781660945228e-01 -3.739294442894208204e-01
-4.185002506863516603e-02 7.731214642559787187e-01 -1.437226803068669158e-02
-2.347956879800780772e-01 4.635042551390560206e-01 5.408704112622318011e-02
3.838278251445518142e-03 6.353897455737697042e-01 -4.181513380894031351e-01
-4.950079698292015329e-01 -3.903675445724406612e-01 -6.548344831514596454e-01
-1.231674857225321940e-01 4.627126627111828872e-01 -3.159258807287886328e-01
-1.851642423335377596e-01 2.462011452205995765e-01 -5.088364230258078935e-01
-3.980982026763602022e-01 5.136291620111437251e-01 6.853074109480206122e-01
-1.636024918817275964e-01 2.570968512908342399e-02 -9.849381877317059386e-01
7.380310987205648821e-02 7.278570408760330901e-01 -4.793443919057600588e-01
-1.946734913810480583e-01 7.641318590438532787e-01 4.736914704870738846e-01
-9.002915031018358938e-02 6.583090587345279410e-01 -6.614309206636399818e-02
-1.373068768940269857e-01 4.787964353821950181e-01 -2.397059584386748154e-01
-7.289411901773741320e-01 -5.213763746230605234e-01 -1.230502257689024131e-01
-5.794965375900246185e-01 -3.744505182783797181e-01 -3.466511670186658844e-01
-2.531768432069233521e-01 2.612471578058699756e-02 -6.884312750307338691e-01
-7.561593523986075149e-02 8.447650825790610218e-01 2.286783805500069156e-01
-3.088538187657866030e-01 6.619795952627098856e-01 6.630838585084015691e-01
9.795999441653811812e-02 6.924557854860957651e-01 -6.241135067240863865e-01
-3.883441041628084012e-01 -2.900233493953666697e-01 -8.227303614516001673e-01
-4.364897873836243725e-01 1.112170956233872188e-01 7.307139161351204615e-02
-1.423552741398586285e-01 6.224726439243397080e-02 -9.879915804900969434e-01
-4.572269655932242327e-01 -3.511998199771318441e-01 -7.076469287546200970e-01
3.697754917772134303e-02 9.329385640273275548e-01 1.885448910694087488e-02
-1.254743047766355701e-01 7.313750615650846942e-01 1.850639399169001220e-01
-2.955156252442707118e-02 3.277785726438899316e-01 -8.728084436161001047e-01
-2.258637727527417760e-01 1.978560648572596781e-01 -4.632413326575363088e-01
-6.134471496264288781e-01 -3.473030900336577242e-01 -1.847038026633412433e-01
-3.324459371035869970e-01 6.303143293120050394e-01 6.828268835164101880e-01
-6.720697096632449741e-01 -1.394089453723549310e-01 3.906266456815444821e-01
-4.697912058867200202e-01 2.295603935496622616e-01 4.003480547138068557e-01
-3.254624671645909295e-01 8.054987078597738992e-02 -3.498214335015192300e-01
-4.063048794812320064e-01 -3.261350606464059609e-01 -8.297456427393331557e-01
-6.890089078059599692e-02 3.375066184873713460e-01 -7.250253852189864068e-01
4.197838770810292247e-02 6.949199774735481672e-01 -4.347555818507942149e-01
-6.945488408334220543e-01 -2.832714688606651973e-02 6.688366443057065513e-01
-7.185142670409569998e-01 -4.754875037390356995e-01 -7.320582469200889730e-02
2.734940540470666426e-02 9.536272530568381534e-01 8.863627128140395828e-02
-7.480368519130899951e-01 -2.584078060556911915e-01 4.229145864641064567e-01
-4.595383526589933987e-01 9.114833050420398375e-02 1.123156786059864159e-01
-5.822272844029835470e-01 9.297437968578563250e-02 5.207471378405594820e-01
4.069921557501858522e-02 9.736327872958018270e-01 8.129793367442651741e-02
-3.603288581292977133e-01 2.071454690377550201e-01 -2.223170409550551032e-03
-7.434970895993122664e-01 -3.332488254219452273e-01 2.704872387179034221e-01
-1.567558290630375883e-01 4.235440515851509047e-01 -2.769578364486941502e-01
-1.695521901111807228e-01 6.810965052472875425e-03 -1.000000000000000000e+00
-2.137483509876093174e-02 7.847451459008152330e-01 -6.062873392333058969e-02
-4.129754389331584674e-01 -2.068610485443722613e-01 -5.886860584016140319e-01
-6.123126809563639306e-01 -3.801893261072701313e-01 -2.488419506059895980e-01
-2.249963554154188750e-01 7.438681931142960835e-01 5.365951579584027353e-01
-2.857378979908514194e-01 -1.166845759175568348e-01 -8.431814523668650363e-01
9.817720336270369108e-02 9.044890095168490740e-01 -2.354513927009594665e-01
3.654273569072192390e-02 4.466081910711487968e-01 -8.728103312246178191e-01
-5.228252441280202278e-01 -4.414815548395217837e-01 -6.568572042974746283e-01
-4.808807050149148665e-01 8.944463463712272466e-02 1.796523564578803300e-01
-3.214625526112166454e-01 -4.673554198521129993e-02 -5.967756267846007212e-01
-5.530531912378008341e-01 -1.865776113312913320e-01 -8.894721712038197725e-02
-4.721033162909283876e-01 -1.082143816276994325e-01 -2.123100370181415231e-01
6.067649858234908100e-02 6.711699155610777456e-01 -5.401053080983608812e-01
-3.753079761508907319e-01 -2.731112291310058837e-01 -8.347137914143843984e-01
-5.031528786546604071e-01 -1.637405782860883452e-01 -2.117633862092113406e-01
-5.050197735616870354e-01 -1.618890361802332034e-01 -2.021993348772641863e-01
-3.392497328123754152e-01 3.432369502446587228e-01 1.780998900015258180e-01
-3.753742605110450548e-01 1.193052261632960714e-01 -1.138586745190599270e-01
-5.217118219788288158e-01 -9.387186256017449049e-02 -2.218053303350475333e-02
1.067060015957967262e-01 7.122520720850576970e-01 -6.166358802390210503e-01
-6.289880173150400600e-01 -1.152522123161676126e-01 2.927468013101730548e-01
-1.272578630240478736e-01 7.650148355575832060e-01 2.527289681867483373e-01
-4.258103975612245740e-01 2.855299194456965006e-01 3.579208589136450569e-01
-4.664593016660108504e-01 -4.116526679848361847e-01 -7.881808468270095069e-01
-9.392924823860471228e-02 2.077976876404866169e-01 -8.805884339829512797e-01
-5.150042244331771712e-01 -2.282148176698337860e-01 -2.910351150664683417e-01
7.119352389294929424e-03 5.898457409428827791e-01 -5.126216770203106954e-01
-5.096656076611847386e-01 1.658094050477750270e-01 4.149273291496086702e-01
-6.712100030144276808e-01 -4.488720263090362206e-01 -1.805119428033888362e-01
-4.406720635298799760e-01 4.717961406453440310e-01 7.490497074500646058e-01
-7.547589077323496598e-01 -5.873548351369960452e-01 -1.589719972511410562e-01
-2.622969659341660154e-01 -1.313400321475307331e-01 -9.474890021807583773e-01
7.092944379027088520e-02 6.098859503043121411e-01 -6.864994205113593706e-01
-3.355290102068532732e-01 -8.517943185245623050e-02 -6.209314801252940885e-01
-6.447923551682711585e-01 -5.300029219520219215e-01 -4.167235716921578459e-01
-5.807739230540596154e-01 1.465365677339405259e-01 6.143105907609214267e-01
-4.057605978799450619e-01 -2.747959666429832248e-01 -7.372632156681323545e-01
-8.232785805937836709e-02 6.043812092998326335e-01 -1.906036726740159282e-01
-7.468112402005138151e-01 -6.087712858632763346e-01 -2.245418717724811108e-01
-3.568367183534971732e-01 2.215465217165790424e-01 1.269313613013578652e-02
-5.120161975841580615e-01 -2.958060152235112983e-01 -4.250255253984014936e-01
1.078282239723829701e-02 8.774781682029424434e-01 3.492922910719008320e-03
3.486540259523460833e-02 6.952467607107676306e-01 -4.106707612756358983e-01
-2.493082266893255072e-01 3.629621221048507929e-01 -8.263363993211836345e-02
-4.406552593872601342e-01 -1.486243297200723623e-01 -3.903501781271633830e-01
3.798970965928415849e-02 5.513384271627336242e-01 -6.852604351851210307e-01
1.432057078904176439e-01 8.609443895943598157e-01 -4.640861926799114690e-01
-5.284662397043876636e-01 2.333053893977470039e-01 6.009508580155417112e-01
-2.200464867954887715e-01 5.895837222536005201e-02 -7.375207528280691704e-01
-8.103123693086919932e-01 -4.933709058873452236e-01 1.970398073907616288e-01
-4.407788262913308608e-01 -3.262499070623710307e-02 -1.769202200882969422e-01
-6.036241638574257884e-01 -1.756906291146392018e-01 9.801426134355541164e-02
-5.759093646405860634e-01 -4.703287132718004249e-01 -5.345661946772978235e-01
-3.155579546501389165e-01 5.762481608985843273e-01 5.277808941584261060e-01
-3.880963231904683841e-01 -1.264872063592070196e-02 -3.141757826351200822e-01
-2.658833703628962208e-01 -4.631974807997159271e-02 -7.795160539619996332e-01
-6.989927325437137462e-01 -4.229854791486368781e-01 -4.124436791169238531e-02
-3.888154140935770053e-01 2.899275806891495888e-01 2.438516100983009194e-01
-4.023163720875580496e-01 6.832152574594009542e-02 -1.185315903057633652e-01
-1.392494858769478816e-01 1.765756201606089038e-01 -7.882924853644686092e-01
-3.318327685760207313e-01 5.538329904277304871e-01 5.403515498615462098e-01
-3.708301969152415500e-01 2.476938254376913895e-01 1.069120408530241650e-01
-4.332317397562112093e-01 -2.892372271872278855e-01 -6.730826621424236267e-01
-6.153468228518136351e-01 9.651764938778142899e-02 6.366037348077319136e-01
-1.266260315844409123e-01 5.431584222608543122e-01 -1.567757671940064601e-01
-1.369918564278383155e-01 3.928721335299039108e-01 -3.985380281652474710e-01
-5.245239671380513835e-01 -3.161786883760228650e-01 -4.211415425612631269e-01
-5.642406409340519069e-01 2.401087484488113322e-01 7.315597802476971889e-01
-3.960385608713561933e-01 4.196738203903798564e-02 -1.876557673025003037e-01
-5.956968119988310661e-01 2.938837541891686778e-02 4.484492687697508306e-01
-1.402801167925591119e-01 7.961383857965695920e-01 3.528796245361675576e-01
-4.052260691392898795e-01 4.290686118920537528e-01 5.535536840390555824e-01
-6.416733469639773757e-01 -2.811087927899431071e-01 3.004938409733775434e-02
-6.547569369809010942e-01 -4.147192676429570235e-01 -1.721161403365945586e-01
-3.161291793179834553e-01 6.319779292117198022e-01 6.320094167046477196e-01
-7.554403436090053603e-01 -2.715309157538742801e-01 4.232590876910120592e-01
-4.042883344066899864e-01 2.260094049700346608e-01 1.775582762339640852e-01
-5.534957346074290685e-01 -4.561000476393194947e-01 -5.824389351761566358e-01
8.741760673988141495e-02 8.540900482268194427e-01 -2.924797773862500283e-01
-9.482392035230195748e-02 4.464899144733973646e-01 -4.392984826600243586e-01
-4.961227375414181129e-01 -2.086294217148084718e-01 -3.174087561673826774e-01
-2.411490165030429067e-02 8.404812722396118874e-01 5.077225986086252724e-02
-2.637166770622923484e-01 -5.248451913719049972e-04 -7.025716818468168423e-01
9.207591921465362039e-02 5.829166575332067612e-01 -8.058446506620082772e-01
-4.617703885399014885e-01 1.697250511452997879e-01 2.639839478223151015e-01
-5.881968573098724784e-01 -1.553443925239950119e-01 8.444238906752311868e-02
-7.208037640929437773e-01 -4.038931324976053894e-01 6.582972792846643328e-02
-3.143260041103151381e-01 4.705892778349375360e-01 3.296807057837908284e-01
-4.470581865935718824e-01 1.673795605604089937e-02 -6.553740490053082401e-02
-2.076582674761663361e-01 5.357357734355739920e-01 9.713475010174953128e-02
3.789898106716030335e-02 8.797926459036736757e-01 -8.178530113427465165e-02
-3.609432802181251621e-01 4.067448398079948624e-01 3.663510996429744648e-01
-8.232726493304266813e-02 2.888116073438106168e-01 -7.701198107941684690e-01
-4.918451913379670581e-01 -6.028954693506825835e-02 -5.911942983874708679e-02
-5.838972089095431084e-01 1.928552005426257265e-01 7.096824977022946346e-01
-8.203449638742261740e-01 -4.918974719078503810e-01 2.328699256387572469e-01
-5.325313517963434773e-01 1.648440452417838653e-01 4.886496259221610461e-01
-5.793651136246268374e-01 -2.633800646727122441e-01 -1.431145430557702602e-01
-4.793523882328668551e-01 2.474843922100563864e-01 4.648316561623831444e-01
-6.456081388686207845e-01 -4.377433975872330185e-01 -2.446041021008655003e-01
-3.937353504687233774e-01 2.501572052518346578e-01 1.870610153689123145e-01
-2.053148444614692203e-01 3.337911313001592495e-01 -2.814549789669679725e-01
-3.969330839107443887e-01 9.165539875492710598e-02 -9.345493498808726818e-02
1.006698934811296221e-02 5.490118986472527496e-01 -5.973413427744879156e-01
-2.530660284868752608e-01 5.516074786269943298e-01 2.762029987112861740e-01
3.725033132310525547e-02 4.658081566356067627e-01 -8.398876285575048728e-01
-4.562834738959693492e-01 6.703459590060608167e-03 -5.350598935332749606e-02
-4.351077684669522050e-01 -2.102292244408205876e-02 -1.743380511792114451e-01
-5.543071017916952892e-01 1.388863052312998558e-01 5.128769458938334802e-01
-4.831550981020711899e-01 9.249112221229657815e-02 1.927562374414543422e-01
-5.021794343117088610e-01 -5.957946966326902599e-02 -2.369520225735223876e-02
-3.555558886115251505e-01 1.654404014042206161e-01 -9.456940199982059869e-02
-2.262717478627981615e-01 3.421515203788697002e-01 -1.969091709306990401e-01
-7.097258461106081828e-01 -2.699966271491822667e-01 2.751425834109526014e-01
-8.274880829228342671e-01 -5.121010529961339541e-01 2.193521367040394410e-01
1.235810073938062026e-01 9.288115349468932802e-01 -2.746602609634319903e-01
-5.116604364832452179e-01 6.413850197712954448e-02 2.348044479421190489e-01
-1.920206888715279281e-01 1.550031478514974914e-01 -6.536753419695900957e-01
-7.677939157467443820e-01 -2.459142903256182622e-01 5.110890249962503074e-01
-4.792150953520686874e-01 -3.405261244946777288e-01 -6.154481821699551158e-01
-1.620843017319130441e-01 4.037159291942652994e-01 -2.957774898994495194e-01
5.170884926188077518e-02 7.130027555286124752e-01 -4.336749954653796868e-01
-4.562823452157503401e-01 1.803814979775206218e-01 2.654338241309247559e-01
-1.991587064707216748e-01 1.866091462606325468e-01 -5.720665073251103294e-01
-4.067413715282758302e-01 3.956336546622191142e-01 4.971565244718442744e-01
-4.268767651286199949e-01 9.212612345453162835e-03 -1.459893461947445181e-01
7.810771473470563830e-02 7.069965653814779261e-01 -5.318650871518514345e-01
-6.293762544615844057e-01 7.923259335175730778e-02 6.511818614248050530e-01
-6.926388104453378158e-01 -5.628426229609161391e-01 -3.190575250495993886e-01
-3.639538093132140828e-01 4.789915625523993858e-01 5.089652432824750550e-01
-4.678810471440397190e-01 1.978030105057813071e-01 3.357218693099531248e-01
-9.302884263675430254e-02 8.104838723184182303e-01 2.232157659752607992e-01
-5.412399912490579723e-01 -4.098389521900702714e-01 -5.379491351156356904e-01
-6.269207362684723339e-01 -1.141245775726408146e-01 2.879921223067161140e-01
-5.833565837143644961e-01 1.359910759058600149e-01 6.034718647212180542e-01
-1.578046951883031457e-01 2.444503870756646879e-01 -6.023836619204199216e-01
-3.152460012281285140e-01 -2.480063175079297300e-02 -5.770191945547737955e-01
-6.618294932525011776e-01 -4.775157839091479506e-01 -2.640848621918248096e-01
-7.434395560017285076e-01 -4.450172426791887403e-01 6.504499442868395820e-02
-6.699690534033726497e-01 -5.222037412100550835e-01 -3.192760099506109506e-01
-5.656448447088227027e-01 1.653875409863226065e-01 5.989774570822240518e-01
-5.174315944729217520e-01 -4.245221727345765417e-01 -6.435209179228357224e-01
-5.266617279137399965e-01 -3.854780381856678373e-01 -5.413451676765208553e-01
-4.967116678582513822e-01 -8.779841937260550455e-03 5.154083405934447443e-02
1.162544251989556209e-02 6.977596227416787977e-01 -3.293254973799065177e-01
-6.161684181790275661e-01 5.493918552660768256e-02 5.629613936123241125e-01
-6.909918163570371030e-01 -2.823554344616966971e-01 1.905932429759262525e-01
-4.834056497440867295e-01 1.298581384403696137e-01 2.622045204183304223e-01
-4.901692386284126068e-01 7.829815253748967363e-02 1.898505322724286237e-01
-4.308134193118894339e-01 -1.481720135954088802e-01 -4.220140277360416858e-01
-7.169935875788451263e-01 -3.071506940168466371e-01 2.309082680440519009e-01
4.239308606420032904e-02 4.700519041040696622e-01 -8.490740491291393077e-01
-3.809643428615727134e-01 -2.090650257659591171e-01 -6.984234610220719786e-01
-7.689989556489169598e-01 -5.790632463212658232e-01 -9.672935966756772419e-02
-3.335565685826464843e-01 4.262111964111903184e-02 -3.927500183829497060e-01
8.505196240989047751e-02 9.448286558070226882e-01 -1.180362049341447117e-01
-6.626339013678492207e-02 3.666387093151978749e-01 -6.802351647966786707e-01
-2.697791868043929453e-01 1.661647213823732455e-02 -6.510768562851366736e-01
7.638044419919290395e-02 8.058764089653395191e-01 -3.445785912797427741e-01
-1.060408419616340886e-01 3.340005058096068291e-01 -6.088402552822949065e-01
-1.763541156937365462e-01 7.002636287842176621e-01 2.959189226885375890e-01
-6.830768103484018416e-01 -1.926421244736569935e-02 6.476030460700191727e-01
-2.039826161362676693e-01 3.663691926646458485e-01 -2.260269791062629874e-01
-1.104543983461082624e-01 6.382742454824049672e-01 -3.549777757673008155e-02
-5.638865114515280164e-01 7.899884264591644500e-02 4.345272271573477618e-01
-4.196977875094010102e-01 4.260826513520419301e-01 5.958510515607087221e-01
-3.448162046815070880e-01 3.637964382714245493e-01 2.342341154070565201e-01
-3.729479961354897899e-01 1.398232396369931407e-01 -8.418997281128175192e-02
-1.032269783103370170e-01 2.689604625007364080e-01 -7.375706794602557848e-01
