-7.324025771474643176e-02 -1.155023572841638868e-01 -2.372183782594878762e-02
6.848541046030556800e-02 2.409802168688977009e-01 -9.772405604926934775e-01
-1.538374881895619162e-01 1.982416265549629408e-01 6.859859769826566200e-01
-9.523900907805208371e-01 -2.777605162454330201e-01 -2.028241041460688843e-01
7.798329469812739223e-01 -5.718961414733952919e-02 -7.477442265553707612e-02
-1.982203883739600547e-01 -7.630149466117844836e-01 2.488502215279252694e-01
1.148031286285017133e-01 1.740442525243827976e-02 6.867904157467633747e-03
1.915108656660931274e-01 -5.182320460685367891e-01 2.502111502098600671e-01
7.358931098142502680e-01 -2.093718595544512839e-01 5.179456878523778229e-01
-8.680341637333441884e-01 -4.612904827266197660e-01 -3.093703456555589870e-01
5.503457653675224437e-01 -3.156006966317820295e-01 2.236220538732563712e-01
-5.320341696991598424e-01 4.047049732310278869e-01 -5.808755202691200381e-01
6.277593865258730699e-02 -2.040203711793948105e-01 9.988577362775664659e-01
-2.499389967764899800e-01 1.187048933839594117e-01 2.670533295573560006e-01
9.795657242057209495e-04 3.475975087612148684e-01 1.861471052182810115e-03
4.914700190234336241e-01 2.138065092764534769e-01 8.442783131096108784e-01
4.061238355737893380e-01 1.846083656701633796e-02 -7.465821160665949696e-01
1.727014509339211135e-01 -5.785480495635602072e-01 7.487061633702012386e-01
2.562182422171243798e-02 2.210018534873142426e-01 2.211104229321759693e-02
-8.079139569957619615e-01 1.133193399047556227e-01 -1.486590213239443736e-01
-7.739531396280656395e-02 -5.238068322606433957e-01 -3.618664224362558995e-02
-2.235520232410687091e-01 1.049990056094545210e-01 2.331486915349700040e-01
2.138188154725345624e-02 -3.139694613392799982e-01 -4.526306375305760854e-01
-3.270563819811178607e-01 1.142928381789494879e-01 2.225023764163114037e-01
-1.418793983362865441e-01 6.775160500904507666e-02 1.826702568753789946e-01
-3.648539559556366468e-02 -2.823442815210766565e-01 -1.811062112983457817e-01
1.778530148089129403e-01 4.746635175744707835e-01 -8.880638524652512134e-01
-8.418182130105458238e-01 -5.918911839120221119e-01 -3.063106462949531650e-02
-2.654347386152835497e-01 -4.290287859760094635e-02 -9.590477829774356477e-01
6.359220342612396104e-01 5.196415531235905050e-01 -6.004149265690317261e-01
-1.398895139270049104e-01 -3.192432859519402921e-01 -7.580175253524460421e-01
-8.084952824833657736e-01 -6.159123844461164010e-01 -1.012289371172503671e-01
-4.509648248338671978e-02 -2.299386757446040264e-01 -8.560475873115910850e-02
-8.356347828188984139e-02 -6.820646085767283484e-01 1.715299825354394680e-01
2.539575466755733882e-02 1.629971626076361368e-01 1.425817439536892772e-01
-5.342909618485776058e-01 -2.056102121783674047e-02 6.182988915323690549e-01
-7.322589626015520992e-01 -4.385530037776982359e-01 5.467713101377427165e-01
9.110296014743878290e-01 1.744920440091357328e-01 -1.159056982636273991e-01
-6.460583901262679785e-01 -3.253500105247460472e-01 -7.047407593322327912e-01
-9.529262426865152680e-01 -3.336745453129264516e-01 -1.831523699141643716e-02
-9.598104761856250666e-02 -7.471609624162012242e-01 4.331897066597806267e-01
-8.288004946903940739e-01 1.119826782587586278e-01 -2.643607503147051285e-01
2.970737177172126375e-01 -5.082254926481115653e-01 3.258239873734153913e-01
-5.686211127428748568e-01 2.473591060900045824e-01 -1.153400735387681703e-01
-1.321151156209961729e-02 1.823889282599515660e-01 -4.749505167072605449e-02
-3.433254490344136295e-02 2.182749242935849709e-01 2.747522130853447542e-01
8.967129664225906849e-01 1.866894006870738476e-01 -1.764385440716946807e-01
-1.016326790704275562e-01 -3.872868538695470875e-01 -5.992822626453379042e-01
5.258023095853033013e-02 -5.443987811592545523e-01 1.550537296736451964e-01
4.065131351001146642e-01 -3.135382618914110964e-01 8.716750844045516589e-01
2.691570412441751659e-01 3.539804427323743341e-01 7.645690656176117317e-01
-2.867224252446541333e-01 3.106688677762934336e-01 -1.325643727999742116e-01
4.347256467792931511e-01 3.729308113732520136e-01 7.504412921524343805e-01
-2.433682083584150224e-01 3.212544122012648273e-01 -1.319631059792441274e-01
6.671748097713213303e-03 -2.590007461080703344e-01 3.425610669833142191e-02
5.735730663907685489e-01 7.377638250545424103e-01 6.001635779365449563e-02
8.640328824682032283e-02 6.068707458253727594e-02 -1.412285027966078861e-02
-5.771950968875608767e-01 -3.375185079086783779e-01 7.344843601139517952e-01
-3.161157358492934222e-01 -4.545741633919131996e-01 -6.522747562946766831e-01
8.695124543261241179e-01 2.574949968517099494e-02 -2.297169556027294987e-02
-6.379908952405738409e-01 -1.803724467970987677e-01 -7.804803165130776987e-01
-5.273541542303609164e-01 3.509465185819780064e-01 -7.162827739562455109e-01
-1.520561845095879105e-01 -6.261684307362532786e-01 -3.596205322475665850e-02
2.529191228537908120e-01 -1.614664678057796676e-01 -3.832073645479549540e-01
-4.972028139872606833e-01 -4.884616515424990424e-01 -6.203016777142003058e-01
9.479501731773294360e-01 3.134196638316699146e-01 9.891755867177763617e-02
-1.666031011808474099e-02 -3.475792240886517726e-01 -4.993123946864879703e-01
-1.477647818069763308e-01 5.976511528371333815e-02 -4.428061483329583103e-02
-4.754496891198502218e-02 8.452610654209578855e-02 -9.860697649915778351e-01
-5.658764503138916657e-01 -1.394524024626759284e-01 6.941663360873647770e-01
4.802877455217530733e-01 -4.023350429737364564e-01 3.220521315879588120e-01
-3.727868165230374120e-01 -3.820440732210262369e-01 -7.482385828921299664e-01
-6.204265864563271449e-02 -3.552341376439005494e-01 -6.193915802731044806e-01
-3.198378990662846255e-01 1.117030277572218372e-01 2.066531239669033571e-01
8.011417530286432664e-02 -1.296933213702160526e-01 -8.482009779564678720e-01
-1.569449361651823749e-01 2.541737667496189387e-02 1.046681831552647712e-01
-7.311479530463435572e-02 -5.600814006372112352e-01 9.657958264895830439e-03
1.147687483977923306e-01 -5.469946821952694771e-01 8.246523543434598480e-01
4.469184060507487566e-02 3.567651325457174005e-01 -9.570309390894016222e-01
7.667921434689590754e-01 2.340230381533066339e-01 6.396239117034669963e-01
2.124954157373825092e-01 -3.798207311467495240e-01 1.587971390916639580e-01
-8.142900277688084332e-01 1.062358080937839677e-01 -4.713788889683294125e-01
3.385971839842326966e-03 3.790266950626156039e-01 1.328915094655823935e-03
-4.272153202731324151e-01 3.919197655244419654e-01 -2.583958220712023190e-01
1.503620372697774769e-03 1.242816673647064857e-01 1.660501218382914590e-01
3.341040873559868452e-01 -4.824286452158176031e-03 -7.874273215799195702e-01
5.205794822830572821e-01 -4.003991332082080731e-03 -5.953660446953451535e-01
9.069252885184891921e-01 5.100081358818325805e-02 9.594833017902516803e-02
5.838609704384633003e-01 -2.334230009827072960e-01 7.718851034994349547e-01
5.801419755871649597e-01 6.197270833070327445e-01 -5.666897797184681229e-01
-9.322311596502873554e-01 -1.149315311988106797e-01 -5.332124654406145831e-02
-1.790357946023569680e-01 5.809761256935497276e-01 -7.246199565905359075e-01
-6.109407391564180001e-01 -7.572671449482941686e-01 1.721687527808781482e-01
-2.591875197074259840e-01 5.402779463293020390e-01 -3.398613504778671413e-01
-6.105464604142005758e-01 1.794540964162094354e-01 -4.199496130661430071e-03
-1.074189419883682661e-01 1.464248629623398634e-01 2.678390507459906811e-01
2.984678740888720982e-01 3.591889452384940395e-01 7.643785700013685513e-01
3.658940324674498923e-01 -1.286328845156054501e-01 -1.737070486422582771e-01
-4.052998682267439090e-01 -1.673106206296578746e-01 8.416022943649776877e-01
3.484402182613795251e-02 -3.544502906430677669e-01 5.571052644184004005e-02
8.985083337776537254e-03 3.009360761854433242e-01 2.987977037161489435e-01
2.504043695749124110e-01 1.045081240806936124e-01 -9.030410486841681239e-01
1.130921672751213219e-01 -2.509029731514442751e-01 -4.924713138639054133e-01
-4.582979792661336926e-01 -4.189610612650887522e-01 8.096593402238754233e-01
-9.506235474067216418e-02 4.331809578626537038e-01 -1.149438633934103948e-01
-5.961905380557565026e-01 2.943048210013561317e-01 -2.284898512457157749e-01
3.919817720496530655e-01 5.226688052141656993e-01 5.674796657627301233e-01
-2.998225277335022851e-02 -3.983751223659621199e-01 -2.494281810282206191e-02
8.003954639440244989e-01 2.593122201238212132e-01 5.862526326152630585e-01
-1.728064329102628471e-01 1.684548968375039479e-01 3.481761238978954842e-01
9.018046531703557411e-01 8.212017964472406728e-02 3.824482558269041710e-01
6.784071220424612303e-01 4.647074645498325274e-01 5.544043105971503405e-01
-6.174490083664926909e-02 2.416792913679427779e-01 -6.437306290359615102e-02
-4.823723829300374799e-01 -6.896819860105242173e-01 -2.638391872643082725e-01
-2.294925508737912651e-02 3.018585338793283168e-01 -2.935264893664604399e-02
-2.778707225340188991e-01 2.979405281785473814e-01 -1.234650093751612776e-01
-3.081235092743581649e-01 4.196507034783091283e-01 -2.239978004932898781e-01
-1.814641983440100914e-01 -2.574204366786821963e-01 -8.397227187117899394e-01
-8.377505340233195597e-01 -3.906294681499080101e-01 -4.531707815650892202e-01
-6.981369296545808165e-03 -6.959598583376486181e-01 3.238407625397485279e-01
-5.860567696728952169e-01 -6.951584729765393211e-01 -2.281540599714715623e-01
-9.040169740060322034e-01 -2.046640607759118644e-02 -1.649317569918075932e-01
-1.968493891325612810e-01 9.234484318673789882e-02 -2.331985369776270675e-02
-2.908437929125740062e-01 1.150923633554589015e-01 2.496672237768428615e-01
-1.531324910228296088e-01 1.432773546966192163e-02 8.241341672139462782e-02
4.199289920520408170e-01 6.859665155867835651e-01 2.435960331876240170e-01
-1.371910312741156102e-01 7.419468011255279938e-02 -5.787607776038845159e-02
-5.995991698057433900e-02 1.005965431722326553e-01 -8.334054429883358539e-02
-8.873060273926448860e-02 4.864636452480717299e-01 -1.381971619529657469e-01
4.536874849066505067e-01 6.668626439476285084e-01 3.029349100057007194e-01
4.798448525063760961e-01 -6.259682784279303747e-03 -6.418139092941573809e-01
1.525182197531294893e-02 2.188596436109190302e-01 -3.402873327629079843e-04
-8.950662654467493595e-02 -5.264858475278636485e-01 -5.827678206412924278e-02
2.972493166759855865e-01 -4.654924226537490717e-01 8.164456526104829637e-01
6.688544036828725226e-01 7.148426938524200525e-01 7.131495150163404996e-05
7.555484184495520061e-01 4.842902540469852801e-01 4.543226597754120299e-01
-2.549946621732271726e-02 -6.656143019774981573e-01 7.038308850425963881e-01
1.881972222332456424e-01 -1.630949342689360648e-01 -3.305547251883567683e-01
-1.031161484055980737e-01 3.742862189718126897e-02 -7.003888653649474605e-02
-1.299282978975853653e-01 -2.262625638932478089e-01 -8.529489551662334801e-01
1.870089188739080532e-01 -3.006076474854184055e-01 1.168584154496535021e-01
-5.446371596626640652e-03 5.757132008394839628e-01 -1.258351663695697897e-01
3.427643068807358362e-01 -1.832646337155687255e-01 1.203257586113380163e-02
2.388579960639119204e-01 7.749205824077672888e-01 -3.558257290683623508e-01
-3.926179594434727610e-02 -3.551593152392562014e-01 -5.910851399300084963e-02
2.147417659363347331e-02 -4.209678917669835152e-01 5.511366308731827784e-02
1.658006293425035582e-01 7.344918725429752104e-01 -1.924209228313628617e-01
5.015619577249185168e-01 -2.668409976158251928e-01 8.296268135413330524e-01
1.283090694437621360e-01 2.103150564804593947e-01 8.676067226655979070e-01
7.870580920826034110e-02 -3.834074061874304107e-01 9.536054206943053724e-02
-4.239932168441595262e-01 2.419001844951207125e-01 -7.410145748710968150e-02
-1.773358264707562693e-01 3.041244835259275248e-01 -1.110112610968909119e-01
2.420917579892785665e-01 -5.325756458937048743e-01 3.108404683280953096e-01
3.761009226716477416e-02 5.235898350212797592e-01 -2.012695895856517203e-02
1.188647710533159152e-01 4.661508194656445725e-01 3.201981275451000752e-01
-4.319989780020563885e-01 -7.740227834717702260e-01 3.355335432240896809e-02
-9.491205336874288800e-01 -2.263629155862176001e-01 1.431154617432380156e-02
-4.728616998075140659e-02 -1.139334436385912169e-01 4.963302966355008505e-02
-7.815897860738642011e-01 -8.915498106981288584e-02 -6.543828294054218064e-01
6.315017975627489344e-01 5.321834743990493388e-01 -5.962368409864924335e-01
6.197203180987236326e-01 -2.976754981033212233e-01 6.478105858448218735e-01
-2.191456801147274591e-01 -7.605536126192463664e-01 1.988872817527103931e-01
7.629652948581873151e-01 -1.687145107470747196e-01 1.956306727910143706e-01
-1.756952652288712724e-01 6.187638644444458658e-01 -6.300035442771402261e-01
1.667923737031068443e-01 -5.730998772041671074e-01 7.621092557067447038e-01
-2.325829920742748108e-02 -2.740618760062329407e-01 -2.197475035405649646e-01
-4.903046928040062369e-01 3.320040865988412859e-01 -2.102082141796460524e-01
3.697060003840890174e-01 -4.556699784421195387e-01 7.666998071340108689e-01
1.573971907513878055e-01 -9.301334780055404983e-02 -8.355408506036239302e-01
2.895072285052436856e-01 -1.260234545882303048e-01 -2.557571480342524795e-01
3.927739381524494866e-02 3.227618284715350061e-01 1.083050429156924011e-01
-2.692860019034521435e-01 3.377799971524789169e-02 8.167735773831555912e-01
-2.713315496901535506e-01 -6.185112317406336047e-01 -2.759983544317490822e-01
5.096967846846095496e-01 -4.012659519774853245e-01 6.630724883633409839e-01
-6.002777416885960449e-01 -7.186878903274855901e-01 3.994606161203879680e-01
-1.520464805954815923e-01 -7.318103394003154794e-01 1.963775582339590819e-01
7.770551484813630339e-01 5.544272702931750674e-01 -3.602682497118114835e-01
-1.270853302540161933e-01 1.412294188501028724e-01 -7.556358562324229367e-02
-7.471175413527246512e-02 -8.894110945077798869e-02 -6.196584947843988139e-02
5.206491932147601087e-01 -8.866168513090254971e-03 -5.876044903080150927e-01
2.674244116350775191e-01 -5.863400436007962790e-01 5.826844690685973882e-01
-2.787862633304178939e-01 1.235996128494019491e-01 1.874962582095954927e-02
-3.447098123388278590e-01 -7.647531622644324623e-01 4.952936481310504235e-01
-3.807532284724494676e-01 2.298371294593516689e-01 -6.343314421653388491e-02
-5.598511004535846602e-01 3.650871772262783699e-01 -3.500471662403236150e-01
3.011340670438298894e-01 6.585360037879190998e-01 2.141584074766825496e-01
1.206546479929775095e-02 1.172726932376770698e-01 -5.917931043446975764e-02
-2.299538607889878572e-01 -2.573054369543363862e-01 9.432079503385555341e-01
8.243104812496873102e-01 7.337241425430804376e-02 -2.324999279655260154e-01
-3.181634051994832180e-01 1.169454736530869399e-01 2.503782949127740798e-01
-7.282686020891648848e-01 2.003287546811485242e-01 -2.022597419793267237e-01
-2.570155578873610791e-01 -7.238379973980150206e-01 1.584373298652736253e-02
-5.967599318295693234e-01 -2.484810046335584888e-01 7.084002875041335301e-01
-2.844831560359194489e-01 2.317916016745858176e-01 -8.098523707527756355e-02
-7.307035034919770466e-02 -3.998658399693387211e-01 -2.376794622695454773e-01
1.034705566747999156e-01 7.115143795278388028e-01 -2.167765582209930653e-01
1.455875238300468610e-01 1.135160574956793206e-01 9.347738845353441572e-01
-8.394879627572892078e-01 -2.070244636094356883e-01 3.530514367796536712e-01
2.164132687629756469e-02 3.460402314743459828e-01 3.925126120928044138e-01
-5.418251992563113406e-01 -7.403144989592451708e-01 -1.051245095097152193e-01
7.882716902941018233e-01 -1.651374566548737544e-01 3.186563368351825742e-01
-8.288395623431935588e-01 -8.974876452473972907e-03 1.178659249494796724e-01
8.626712922573840370e-01 -5.693858467676723295e-02 2.913419951204216374e-01
-8.472760839140528466e-01 -7.987499400653042328e-03 -5.129826390272990144e-01
1.059263530855428237e-01 5.534714105483483637e-01 7.088536117916688362e-02
3.805932114749142059e-01 3.320855768576683742e-01 -8.607824548278406596e-01
-2.644883787015044341e-01 -4.852875654450731213e-01 -5.746168790492875988e-01
1.317062471834102855e-01 -1.003290156792313453e-01 6.824128053832800855e-02
-3.138122297903008784e-01 1.291125398486919484e-01 3.224105954757086612e-01
5.161773688404745070e-02 -1.210399194825403230e-02 1.004829197299468430e-01
-1.309068085139357407e-01 -7.423211542372946115e-01 2.730167069738748675e-01
-2.165465176083546939e-01 6.118815354164394704e-02 7.388171559719891590e-02
-7.448061199618053463e-01 2.025028221990435862e-01 -5.041717820251820914e-01
6.772903216913518376e-01 1.691854030673556331e-01 -5.743507093432274058e-01
4.588596258067953459e-01 4.277423299127882106e-01 6.922649266414957481e-01
3.849931022136198200e-01 4.567195163088966225e-01 6.609686416744621207e-01
2.535673718167695267e-01 6.954235410328710731e-01 5.280459943670666456e-02
-1.947193469383578512e-01 1.571226115544195057e-01 -6.215295547910527907e-02
5.793105040149765239e-01 3.764932561350111118e-01 -7.141839718698118622e-01
-5.730288499864715224e-01 2.129464377588452806e-01 -5.344514821681345396e-02
-3.755934564461115011e-02 -6.597716575077160472e-01 7.191664799504776662e-01
3.192658314775701500e-01 -1.224669683363600325e-01 -1.119337085466355214e-01
-1.944634639535235687e-01 2.462043402571932327e-01 -9.463604436494546523e-02
9.357513366069259986e-01 2.108283207231570477e-01 2.817810681075287871e-01
-5.475542536784544501e-01 1.128537262101370064e-01 2.193706488355445516e-01
2.266915262768234851e-02 2.874611059332363161e-01 2.288660786416868986e-01
1.006330902315422382e-01 -1.317972799419256380e-01 8.333136159558229838e-02
-2.890694618001561356e-01 5.271894506731893415e-01 -7.221379196605284267e-01
6.085660240761132656e-01 -3.503209308854921544e-01 5.086501268892283933e-01
-5.310628351059101249e-01 -6.325003367918669017e-01 6.196049841629349686e-01
-8.696181166562657605e-01 -3.290676644630728398e-01 3.280880730623444430e-01
-2.371610089307962799e-01 -1.127078022644463773e-01 9.193823173782650349e-01
4.275038782224280243e-01 -1.182025308200836955e-01 -3.762054637630001253e-01
-9.240812142879718527e-01 -4.527757119045930922e-01 -1.212079337045634392e-02
6.074396682093341493e-01 2.760851887520137174e-02 -5.288729413872704788e-01
1.068173277207132149e-01 -2.467032114584295777e-01 -6.252002765925370742e-01
-1.568991322675102884e-01 1.169488518716478229e-02 3.451154811767138259e-02
3.049769327697736121e-01 4.958619292943584056e-01 5.790564636589043968e-01
2.240213682224306835e-02 1.535381865910336874e-01 1.463086981899107963e-01
-6.561735239461925495e-01 -6.274117492240733895e-01 4.944423852053698720e-01
-4.225754373128740582e-01 -6.147605706115412127e-01 -4.169088832258855959e-01
-1.022096940446558383e-01 6.646763548864940141e-01 -4.489642584822935989e-01
4.270658434070563891e-01 -3.701489501011249739e-01 2.284147502692484843e-01
-1.064915508447793063e-01 -4.819547022159241800e-01 -1.752778769716394625e-01
4.479982943849345478e-01 -2.032419754014286664e-02 -6.589379779207443777e-01
-3.305066428356084884e-01 -3.227090341678395258e-01 -8.030353052174664663e-01
2.135455553608559542e-01 -5.288006198286033799e-01 7.958870230287150571e-01
-5.123084145036653769e-01 3.486654917684300359e-01 -7.394908585675056267e-01
5.758390775047693699e-01 -6.319231138855117315e-03 -5.177011405179614556e-01
7.092978435904050138e-02 3.146084441603386878e-02 8.151693769654450028e-02
-6.060078994079346471e-01 1.943226359483602450e-01 -3.360219456810824984e-02
-6.856526423011488625e-01 -2.009713614907525092e-01 5.928456659674743445e-01
8.383159287215308231e-03 -1.775824499560512415e-01 6.022165909123057548e-02
-4.214006649329499754e-01 -6.161891465974792537e-01 7.118716429204179352e-01
6.012331328365045913e-01 -3.476565488313508867e-01 3.893357928222640485e-01
4.053003096684863471e-01 -4.767175920458869287e-01 3.913837741407997228e-01
4.879462163190077528e-01 -2.386577588719038245e-01 6.817545867173234464e-02
8.779118546615716223e-01 7.809602861783151995e-02 4.616187946484046067e-01
1.462384403006218858e-01 -2.700680303302884222e-01 1.011176285523182894e-01
3.975830877126807494e-01 6.962187029694621998e-01 2.040767821560385553e-01
8.983460212917463439e-01 1.536377332719276317e-02 2.680777170445511892e-01
6.182099878569452533e-02 2.223838875154729444e-02 9.267921300979781174e-02
-6.394242046481611874e-01 -6.934719465922491999e-01 -1.915417374660078331e-01
2.534100066863500395e-02 1.784899616536781974e-01 1.459556521612222491e-01
-1.275932267365849082e-01 4.539983042197585084e-01 -1.487566142658945101e-01
6.987363868610579898e-02 8.598136047398102777e-02 -1.439070373983528106e-02
9.534348190858779951e-03 -1.707868294605353332e-01 -2.001188153987502327e-01
2.248578493963858671e-01 -2.135633742040392857e-01 8.079799741078665110e-02
-9.261080263493912113e-02 -3.990027991857472145e-01 -5.431921906756477236e-01
1.914994302238923890e-02 1.891161127726976865e-01 -1.021398856051581802e-02
2.448833554493712872e-01 -9.567669610231387123e-02 -5.676499137203486894e-02
2.880849851441472098e-01 1.561761238740719537e-01 9.165983975715701337e-01
1.701598688584251007e-01 -2.554819959216776959e-01 1.004069381034758679e-01
1.032096488008466956e-01 -2.118478977264024177e-01 -3.479702703244340611e-01
-9.186068323014277143e-03 -6.810046934382451012e-01 2.771752977617135127e-01
-7.740329097320335361e-01 -3.316956785265099961e-01 -5.868343628097152376e-01
9.981726487680933624e-02 -2.455290935798734864e-01 8.790146784804564462e-02
-2.879295779510492384e-02 2.929108617883304788e-01 3.958479507678886455e-01
-2.749777975171353583e-01 -6.746802617281302261e-01 -1.404471437672925871e-01
-2.990843617956307487e-01 -6.816979563757459282e-01 6.854616171660288249e-01
8.577607743065694956e-01 1.621632402302563836e-01 -2.606422666310088121e-01
-1.851506259855577319e-01 1.956624546350349270e-01 4.418062612997225025e-01
8.700562160135443257e-01 3.230133746700985520e-01 -3.019597986027172665e-01
1.823097544771938860e-01 -9.445577214224079587e-02 3.064328767369445608e-02
2.485108129517902067e-02 -2.569415649465202622e-01 -3.053787548902053284e-01
5.158330043026880807e-01 4.284625635424293977e-01 6.785193478516171606e-01
-4.194658100773539233e-02 -3.659439759684384730e-01 -5.184479768400923616e-01
8.887776378468876803e-01 2.494223730759493468e-02 6.231833185559616795e-02
2.154473010742535138e-02 2.427758818760855919e-01 -9.833742089472716774e-01
4.028557420472078654e-02 -2.131725457098576915e-01 -2.731225646744637192e-01
2.292452451952920744e-01 4.988173220197786861e-01 5.088365932505161116e-01
-5.222443817752623341e-01 -4.923342890699654029e-01 -6.100607014635283099e-01
6.423491436168459190e-01 8.722164075659367966e-02 -5.546779912329646844e-01
1.838071198108709725e-01 -6.570718073894166178e-02 -8.429563066798814175e-01
4.270916189919227168e-01 1.987555804931361858e-01 8.724556326503064563e-01
-9.021492505725452471e-01 -2.904229706199320526e-01 -3.971168622912520374e-01
1.245117997397000159e-01 2.792776774149421937e-01 7.994449787909346794e-01
-8.449286893375529406e-02 2.551431724647201249e-01 -7.441056597553646901e-02
-6.322936001789147831e-01 1.368435384502593999e-01 8.260788624657727786e-02
-3.691892334472650083e-01 2.620008672272933770e-01 -9.778190238057815620e-02
-3.358897218609698809e-01 -4.760638541909350541e-01 8.515303494172793419e-01
-4.096665242665237239e-01 3.107696313910647823e-01 -8.653186921254518715e-01
6.349538003426082877e-01 -6.657598344264056833e-02 7.968521648075812536e-01
1.278467636201670588e-01 -1.362079550470100264e-01 7.783634780950335341e-02
7.597719067640464896e-01 6.245575512548126040e-01 -2.712655883025864023e-01
7.728236455888986001e-01 -1.790509764432497153e-01 2.868409472294814466e-01
-6.987504377884963189e-03 1.597173926382415843e-01 -5.175043081489347913e-02
-4.283384168945617021e-02 -1.880662174477000792e-01 -8.999225306335739347e-03
-1.181801594313783704e-01 2.550487991577701785e-01 -8.591210056405289286e-02
-8.773056232343165450e-02 -4.382223205989826953e-02 7.601048067224165650e-02
1.081939445500111896e-01 -1.898530279398517040e-01 -3.161158607093472184e-01
2.076807359159404676e-01 -9.583231547319145949e-02 5.644325377172756952e-03
-2.072765121966649027e-01 5.932370274522923426e-01 -3.868610975966423893e-01
-1.949327950736750026e-01 7.048649024165883070e-02 1.664997469349136783e-01
-1.002637506632199499e-01 1.882388352965382317e-01 7.677741409280701701e-01
-8.390504968030839672e-01 3.546396973038344613e-02 -4.967279406760234384e-01
4.054182634069500302e-02 3.273418593341602678e-01 2.084632385599636539e-01
1.838979910259106731e-01 7.552188908262069678e-01 -4.806978250213018167e-01
-6.076709377480256080e-01 -7.530126604646766308e-01 3.413820719418325655e-02
-6.057910867404986410e-01 -7.529051393101903189e-01 2.826381939051540032e-02
-6.660218075753376876e-01 1.352535749453568324e-02 3.710279041607557060e-01
-3.359381053152274976e-01 -9.518717101728421670e-02 -9.335221196477028194e-01
-1.232029637510772624e-03 1.759858227621875493e-01 8.489307477454467454e-01
-4.220774047451555933e-01 -2.731786989436865709e-01 8.499462172511831337e-01
-9.402689814947248759e-02 7.592410135299072771e-02 1.906100119615520005e-01
-2.868670588383783263e-02 -1.427208079278207697e-01 -1.386746555444501317e-01
-2.170927245410197159e-01 -7.145280092382314541e-01 6.431561420600815371e-01
-4.685705257350432085e-01 2.895974817632913090e-01 -1.410664706990471529e-01
-1.421227350036869397e-01 2.321745802948971260e-01 5.433269333899101161e-01
-1.677343012700049929e-01 3.693000612249561776e-01 -1.311342284467638120e-01
-5.063866373600969251e-01 -5.436085668397814263e-01 -5.445617184111878339e-01
-7.902325729501633589e-01 -2.917326851299673618e-01 -5.913141506739809650e-01
-1.792134854502520636e-01 1.407623461081625171e-01 -6.103442119301025898e-02
3.703669034881746369e-01 -4.612799290548043607e-01 7.577871887563095710e-01
4.039216417984211605e-01 -1.253347216765399175e-01 -3.394182273468675515e-01
-2.505717177350317848e-01 5.765089233479633313e-01 -4.132031695181023756e-01
4.373083995666592338e-01 -1.669766102302795430e-01 -6.282286215766784421e-02
5.875518699377797471e-01 -1.506039727295021280e-01 -8.779182446201892753e-02
-8.530319972948107177e-01 -2.885967382487415744e-02 -5.121046715343600120e-01
4.122928564356312386e-02 -2.764094335429841953e-01 -3.765083757205182069e-01
-4.696418377238216757e-01 1.065764339282803119e-01 3.371253098521537761e-01
2.970353794487888277e-01 7.273127192499773130e-01 1.818106202689625389e-02
-2.417878496378518816e-01 5.902919776148128905e-01 -4.467769588019879778e-01
-4.109234565788766891e-01 1.496895450041799969e-01 7.777424920607700631e-02
-5.312661919672147931e-02 -3.996590636792035078e-01 -8.250467483025837601e-02
3.893107404448472031e-01 -1.277115518635702496e-01 -2.956365272175004999e-01
7.928310239119118474e-01 -1.432580403129082858e-01 2.112314411340858178e-01
9.277527194039885128e-01 3.556074091708906204e-01 2.229128908470723314e-01
3.200813800781924234e-01 7.756709094822679118e-01 -4.100256251582877209e-01
-1.196777331673282291e-01 4.786712333919148632e-01 -1.580523573063907505e-01
-6.768146445484497786e-02 2.554333669146691133e-01 6.721640783447231371e-01
-8.273527008417070894e-01 -1.053965817836150648e-01 2.822904153209823130e-01
-3.189787064048679177e-01 1.321630265459123044e-01 3.453328749377759799e-01
1.017201841418235997e-01 -1.319994568215936692e-01 -8.332544310957885614e-01
-7.271145139743508123e-02 -9.145644268039283820e-02 -6.518609560239745082e-02
-9.478029951967882616e-02 1.936037904349715288e-01 3.186633651062677486e-01
-4.345937074767424191e-01 4.273701611386621774e-02 -9.271949548349670556e-01
-2.487884457498851232e-01 -4.692305734880509727e-01 -5.923690107689063566e-01
-5.412046387281194137e-01 3.957468719081163600e-01 -5.867569628075886001e-01
5.904772454260485276e-02 3.846631177489935327e-01 4.727941651316704408e-01
-1.232923745504646701e-01 2.384582278559958524e-01 6.062129132183400326e-01
-1.408433534583558577e-01 3.680799583982861667e-01 -1.184749335754743671e-01
8.555986360825635906e-01 4.047975243763899389e-01 -3.170812139308928912e-01
-6.814049615984435482e-01 1.729900727134768557e-01 -5.284869779638540210e-02
-1.251280305390511938e-01 1.505900235292532974e-01 7.989969002881559534e-01
-3.356667760411020246e-02 -1.222260186679232363e-01 -1.280981870282439095e-01
-1.193630261106113227e-01 9.554437482437823370e-02 -7.144943265653222464e-02
6.659297931584068353e-01 -1.889630823180662167e-01 6.896081988210442382e-02
2.151022091867399733e-01 6.709485043264384885e-01 -6.988497480092986658e-01
1.779531128486595837e-01 -1.394382620934052908e-01 6.050442779290356177e-02
8.889563502910537984e-01 3.003435538867523791e-01 4.058011004405484567e-01
1.737753906335771092e-01 7.562035541921611204e-01 -4.645442509140452758e-01
6.117926508620625398e-02 -1.381741666536408786e-01 8.561634359995873300e-02
-2.558277274702006610e-01 -6.755148855128543239e-01 -1.094702787952807760e-01
7.490350292757146367e-01 1.695049928161266317e-01 6.808106510214037010e-01
-2.097049463229705701e-01 4.451174696743320225e-01 -1.938543666241640817e-01
7.883787013440742841e-01 4.201652327755338312e-02 6.351390527045055467e-01
3.237948388964852209e-02 2.069971285782219172e-01 3.179107812108060427e-02
-5.372423194444787831e-02 -3.677991278297582101e-01 -2.822434582560371941e-01
-1.263354049812377700e-01 -1.398634896030893221e-02 -1.289084594225121602e-02
7.614152421241853208e-01 4.160027611477820630e-01 -4.923487389795694336e-01
-3.879176145334443659e-01 1.226277545145745967e-01 1.820251353938940608e-01
-8.242435593555754725e-01 -4.099681719305339755e-01 4.090517656888463804e-01
3.158553332616338000e-02 -1.984043747602874941e-01 -2.472936265852415105e-01
6.880214804358205649e-01 8.883440137761494312e-03 -3.787320237119380928e-01
-2.680692330862700645e-01 2.348746945103003803e-01 -8.527988866940629242e-02
-6.428854656279091306e-02 4.616437854990685929e-01 -1.027543967413168391e-01
1.880054855411314452e-02 2.818484696022200975e-01 3.064209868478757690e-02
1.044516394513173296e-01 -5.274981245741459934e-02 -1.541457609936936479e-01
5.089313766688320362e-01 1.617756642513260568e-01 -7.501054038819255920e-01
8.873574454651218801e-02 -1.465600846776785871e-01 8.502566314820619864e-02
-7.877988820870382991e-01 -6.501516369648163707e-01 9.936953906327583574e-02
-3.060436733742361026e-01 -7.735416206643715986e-01 4.700963163115207122e-01
-2.598603063057434714e-01 5.786597675179958600e-01 -6.246751070991946042e-01
-5.660092849158022965e-02 -6.835899603828833326e-01 2.136585441722793910e-01
1.755520693406730642e-02 6.687552094897943056e-02 1.341203344080555138e-01
7.341577570815734921e-01 5.654778676728974274e-01 -4.277075855338365318e-01
-1.788638148424313568e-01 6.282683568181555989e-02 8.528046484798563753e-01
9.230672276391592712e-01 2.556388589237902353e-01 -1.268320505938023424e-01
3.327256205366355690e-01 -3.971548232758269070e-01 2.156772675529305128e-01
-1.824091159260924494e-02 4.041828776187885164e-01 -3.372044654052203799e-02
-6.424686933526353450e-01 2.368340281422367244e-01 -6.885718254517810832e-01
-8.531496010392602969e-02 6.746864123997584617e-01 -5.108049912714081042e-01
2.353404834118859035e-01 -4.830527267908439337e-01 8.367661290461528845e-01
-9.550796162199028938e-01 -2.668248986507680276e-01 -1.076931878615456500e-02
-5.756450420401768020e-02 -9.711721062033046303e-02 5.273585057449210051e-02
-4.881842962717040935e-02 -1.381472822407905088e-01 2.613361021348701435e-02
2.363517813121820133e-01 -9.443308590993651497e-02 -4.109161263443256162e-02
-6.731988198610691088e-01 1.899903839411997697e-01 -8.320219101036435694e-02
-7.147862128998726250e-02 2.637509484880962152e-01 -6.823905380919782770e-02
3.326304793384133873e-01 -5.707015145784481019e-02 9.658170760430647706e-01
3.096724538626011852e-02 4.575459064872522408e-01 1.676037968919466895e-02
-7.741831534512647606e-01 -5.991206475708600321e-01 -2.484207789891537954e-01
-1.411243262592083714e-01 2.667132686182277501e-01 -9.326114141103912514e-02
-1.542590096912385342e-02 -4.286076535859369430e-01 1.023989941284014250e-02
8.849562060061882951e-02 -4.450107290097130019e-01 9.190657095129508569e-01
-6.250492766320222549e-01 1.144561132539005932e-01 -7.909959637455203918e-01
3.316520559369762200e-01 7.796810243350477121e-01 -3.815509938840758175e-01
1.712924071262537321e-03 6.794486022594883323e-01 -2.873063487740357136e-01
-5.036453361631770820e-01 -3.305168422506916115e-01 7.943847610945440341e-01
2.075422011088640800e-02 -3.711600088833118174e-03 -1.209618397532810363e-01
-1.122751996954217124e-01 2.163906042964328785e-02 1.347889217265361428e-01
5.462937176179540888e-01 7.267229892948299241e-01 -4.129223452332829725e-01
-4.087730653096720568e-01 4.230269410349001280e-01 -2.909734192383798823e-01
-7.487124570238947729e-01 -6.787409121478967799e-01 -1.293964226941649032e-02
4.299838173285877030e-01 2.753407475625218592e-01 -8.341601644163915141e-01
-4.462031941229227527e-01 -7.838484690459777138e-01 9.010638506319329499e-02
8.995877121980754010e-02 5.182983390866031936e-02 -2.555029706482381258e-02
-1.599362178864689732e-02 5.142177226680293839e-02 -9.618448319932726420e-02
3.395667493952188309e-02 3.561136746846477186e-01 7.048959564272713751e-02
1.761850504695785247e-01 -1.788530221555433009e-01 -3.576839259931396953e-01
5.732217430550163861e-01 4.176483774613856115e-01 6.674184299291010536e-01
4.899816649760811438e-01 -2.031438100957077275e-01 7.171927617289129350e-03
6.674799247838009153e-01 -4.739456053740463692e-02 -2.898261023676283465e-01
-4.340680331699238725e-01 5.209301609140114947e-02 -9.273961429323712702e-01
2.537382897702336604e-01 -1.555489145834542397e-01 -3.595069069317566868e-01
1.656863912807988726e-01 -1.654321138161267135e-01 -3.199996869149504541e-01
-4.054621161066652990e-02 -2.251875061850880100e-01 -1.247268998446017657e-01
3.094937987453044020e-02 2.641392463047655403e-01 6.347305632431479716e-02
9.407794592657133803e-01 1.615238908799040141e-01 7.689887818257000462e-02
8.071546607655460948e-01 5.442764002641048426e-01 2.756749844797944382e-01
-1.588565997899640536e-01 -6.267819050500729183e-01 7.798573660731096258e-01
-3.046155268425672705e-02 -3.347772515193233600e-01 -3.026345187582292207e-01
8.319153520957561776e-01 4.673461464240025731e-01 -3.324776985006406282e-01
-4.026214473866899235e-01 -4.893501271017810517e-01 -6.229442021099277360e-01
-1.873985728769824236e-02 -2.480144565183680649e-01 -2.062657132314406061e-01
3.413034306947402841e-01 6.356604355063395495e-01 3.151334976485585249e-01
-5.472676803431552051e-01 -4.686874058461667492e-01 -6.302744307464883677e-01
5.939105995550161277e-01 7.315652616673600228e-01 -3.225309754890837155e-01
4.912128198860581940e-01 -1.195388340758574280e-01 -2.582730575794892625e-01
5.963892442317413334e-01 -3.443004412504567513e-02 -4.294244587727665263e-01
-5.282856381097374987e-01 -7.691964194795269938e-01 3.245363361472654029e-01
1.673013495659754490e-01 -5.005331301838200631e-01 2.152843809011488196e-01
3.753955049456565995e-01 -4.886483529110385859e-01 3.766548234508457216e-01
4.521616137450728545e-01 -2.553322097342074493e-01 8.868009512921137816e-02
1.268525605816685220e-02 1.218704162278100439e-01 -5.624928510980071322e-02
-5.227672345614791105e-01 3.589723773508349258e-01 -2.824290561990532855e-01
6.915357934736794665e-02 5.426792408599838691e-01 1.335963126722144144e-02
7.657747767516235315e-01 3.421755775825062740e-01 5.807535453453199770e-01
3.045080835871125657e-01 -1.262593856824445193e-01 -6.613777598841098782e-02
-7.048887904787678460e-01 -2.338929094921782248e-01 -7.078988714714311570e-01
-9.399277362163968585e-02 3.040346092714766857e-01 -8.141745986999532336e-02
5.659467903235632091e-01 6.729145483842147168e-01 -5.061544765901069276e-01
-2.214867370512632605e-01 2.939479106632309491e-01 -1.152452564129477219e-01
-4.993362266174146136e-01 4.062973807599550291e-01 -6.632941989371564651e-01
-8.230580042342667824e-01 8.023624285108514609e-02 -4.873533396838448661e-01
-1.648319215423935113e-01 9.254527773900848853e-02 8.348352095299822473e-01
1.006503855433402671e-02 2.005590761443557801e-01 -1.703896255927404499e-02
-3.010096880233768535e-01 5.252854716450763295e-01 -7.121341353053216583e-01
8.396580583605474379e-02 -6.665120027100083222e-01 6.155276472159452172e-01
4.531665149661525532e-02 7.765522395603646766e-02 -6.103552688917911195e-02
-6.662192102159435192e-02 -1.928890070209717325e-02 1.129708643497529946e-01
-5.429342015246576558e-01 -7.739706281536941068e-01 8.163991693891131662e-02
3.426181148428846801e-01 3.983550139053704808e-01 -8.658533392493391601e-01
-1.188101248154552203e-01 1.637497485807477560e-01 2.978944138990917700e-01
-6.072228245682231851e-01 5.045740598759142041e-03 4.775291426767187541e-01
-6.345956484701803513e-01 3.076107346353835204e-01 -3.284202958118279114e-01
2.151151305407886516e-01 5.358293843204936513e-01 3.915705348508604633e-01
5.123684527875799199e-01 -1.700139819299237853e-01 -6.352367857496159231e-02
-1.387128812257758248e-01 -3.517421719091690657e-01 -7.108329972501953309e-01
7.528868106567566665e-01 6.354161614321729434e-01 1.561183626642063949e-01
1.262216894665726397e-01 -7.883507278864758383e-02 6.486513532856257036e-02
-8.359975051977019955e-01 -5.997530140812715738e-01 7.974236414288718433e-02
2.231154272564246366e-01 -5.839530158318765318e-01 3.848911916745215156e-01
-5.884137322232689815e-01 2.726980687092135924e-01 -7.282195723890281247e-01
-5.068428721232629691e-02 -3.452424937220746060e-01 -2.142636502053670011e-01
7.828978989046653236e-02 2.756718319225832659e-01 -9.718857414295491992e-01
8.256462541815301481e-01 5.789342303345288432e-01 1.225666858976253576e-01
-2.834710084923646595e-02 -6.017960373856570122e-01 8.014961484563487559e-01
1.260622394878341615e-02 2.195105200314984017e-01 1.929329951491969286e-01
-5.808930979605839845e-02 4.430228664994153576e-01 -8.846198829243903661e-02
1.561092471119689962e-01 -1.908061052899424626e-01 -3.655244462310622833e-01
-8.680212783050499370e-01 -1.442275464656842809e-01 -5.110127570437904554e-01
7.258237446860640874e-02 -6.850265039888024932e-01 5.038303523495265557e-01
-3.170402218179669829e-01 1.553884823396842474e-01 -9.622869467971724156e-01
-8.687833322813988124e-01 -3.672471770398135771e-01 -4.170267541136251088e-01
-8.618071306988340785e-01 1.799190380216893898e-02 -4.519634267093043667e-02
-2.461997982185470599e-02 -4.419852753417773394e-01 1.242867590615167380e-03
-1.362036071456475539e-01 -4.857844606766402173e-01 -3.126550278050970189e-01
2.021536958645927806e-01 5.669413839124450849e-01 -8.192759438037857667e-01
3.886900290025360749e-01 -4.934623095795173664e-01 6.678918993144172811e-01
6.564479486366868732e-01 3.004170374621132344e-01 -6.412718867360039932e-01
-6.930949322793210632e-01 8.369983605913984548e-02 1.558786294561715358e-01
1.390847954718178459e-01 4.979322790763338058e-01 2.900262073433173549e-01
-3.500562108590055677e-01 4.893207535325190261e-01 -7.234763858711740214e-01
6.202011053807868768e-01 -3.321659672638661576e-01 5.569808289778607202e-01
-1.923364061279913412e-02 -2.788064731095662996e-01 -6.350202688689267176e-03
2.868349055469658904e-01 -1.187566417264781377e-01 -2.204009210299090193e-01
4.176600998833719658e-03 -2.488814476600421377e-01 -2.561550784892782096e-01
-6.825875231812380539e-01 -7.158409053416895373e-01 -2.557604851277407720e-02
-5.909564910507971586e-02 -3.652243542340928295e-01 -1.883288926112812733e-01
-2.766533899313517453e-01 -8.748346663231928999e-02 8.901206560315753080e-01
1.322695981121175257e-01 7.517031336867331381e-01 -3.871270082450086747e-01
5.872860470163410174e-01 -2.906099277389595503e-01 2.088915333699077614e-01
1.456435355637570594e-01 -6.282848287377679197e-01 6.634480000997002858e-01
2.238105074309392206e-01 -1.235607282097141296e-01 -2.521099564914522917e-01
2.099966169338576272e-01 6.552386639573397620e-01 8.325722293742456037e-02
-9.405624247278024375e-02 -3.953657087038076612e-01 -5.598659147248243872e-01
-7.053579349539847998e-01 -6.543677061267585970e-02 -7.434901976026624393e-01
-2.672498482616871840e-01 1.696090573791340927e-01 -4.037596118641816750e-02
1.950061394646687707e-02 -1.870027624501902352e-01 -2.231450682738491953e-01
-4.420934042504805483e-01 -5.333968181919891416e-01 -5.628357762178894941e-01
2.005572226840320327e-01 3.692282583732360290e-01 -9.261084926564185915e-01
-1.945813271154986923e-01 1.718757155028908523e-01 -6.827906604875291774e-02
-2.551015659881925024e-01 -6.029034911268358332e-01 -2.887955296332569977e-01
-3.251268261897307110e-01 -1.498406691731109519e-01 -9.142671148982306484e-01
-2.758600733382571280e-02 -3.468542930050312889e-01 -3.596081455273391070e-01
5.876489552740378208e-01 6.232886611010756139e-01 -5.546493120335802551e-01
2.315834706603391857e-01 -3.431813672446578090e-01 1.447117233714810824e-01
3.449272720419520599e-01 -1.265196241849158576e-01 -1.449783427812194603e-01
5.737560084135151506e-01 -1.240572180194122881e-01 -1.757115342915187839e-01
4.527383134808113940e-01 -1.720878240352695376e-01 -5.461874740790273464e-02
3.845591606272085183e-01 7.481861654574328835e-01 3.003797380780648049e-02
4.041119174071866604e-02 3.326498569985154030e-01 2.262422761999167697e-01
7.665111789609159454e-02 -4.997000413189042756e-01 1.441238403306644156e-01
5.606474998385133635e-01 -3.912708387565388413e-01 4.928547277856780151e-01
7.644526257311848871e-01 -1.873675516145014153e-01 4.566460620611830223e-01
1.102617019275781568e-01 -4.465807435660451574e-01 1.401929789108100899e-01
-7.689894717093478382e-01 -1.285687688120708827e-01 4.186963556997053137e-01
3.521688399409201274e-03 -2.168113562432139874e-01 4.311385520387406300e-02
4.911654126773741802e-01 -2.173026463154469901e-01 3.299443990753252176e-02
6.654969635046896759e-01 3.570495183772915970e-01 -6.303726485449595573e-01
7.474080879793337795e-01 4.599112441301883743e-03 -2.705584563352065874e-01
6.540171016227071255e-02 -1.478467416190576700e-01 -8.393558035986357080e-01
-6.467393760940208791e-01 -1.813232076827130113e-01 6.299491694711104595e-01
7.094779059360436513e-01 6.125305591518044324e-01 2.958362514406823185e-01
7.076188626200324849e-03 -4.257980910607551128e-01 3.993863562731926609e-02
-1.308109039426391951e-01 6.315462297507998257e-02 1.784797696385772847e-01
-2.786806557627493075e-01 -7.103331592912434100e-01 -5.199290877714656672e-02
1.545704780365404762e-01 -3.102636854192772700e-02 -7.749172182388211656e-03
5.562034704913911831e-01 -2.286297151913105619e-01 7.019741616518396232e-02
-4.692519347481826641e-01 3.202428275285225667e-01 -8.132931146701967151e-01
5.394975259690261149e-01 -3.978967909459401042e-01 5.953135894754241209e-01
3.056613525512461571e-01 2.239855230212284831e-01 -9.010818777703172300e-01
1.018552509538773604e-01 -5.457724056321535677e-01 8.309197658697728972e-01
-3.638173663633908483e-01 1.308594413448088412e-01 9.809606573133808349e-02
3.919256802222136071e-02 -2.071247966757578107e-01 -7.895496900061208523e-01
-6.384020552491053158e-01 -7.360294559119534563e-01 2.578566925176606905e-01
-3.722664547045157618e-02 3.507962108356107393e-03 1.318647521909734333e-01
5.955705735395675493e-01 7.525457245906930215e-01 -1.235860577739746058e-01
6.656051252680472707e-01 -4.984503351750025485e-02 -2.865506240646074065e-01
-4.570270625950105525e-02 -3.200942508463686109e-01 -1.846706054265813968e-01
-5.796506839456461169e-02 2.766231540181396387e-01 -6.000640740619220953e-02
7.550643184797698471e-01 6.207513532471899964e-01 -2.937142928193801628e-01
7.770157941846492222e-02 5.323927153527476808e-01 4.046032989670563657e-02
3.311982973726865231e-01 -2.878214740771251612e-01 1.199452431245881801e-01
6.600338300670879343e-01 4.730452970293825277e-01 -6.015421432192503692e-01
-2.271646232719364278e-01 1.080630433800653933e-01 2.400140243407750673e-01
-3.706321266822973914e-01 8.671403205593937458e-02 6.378016785912258291e-01
7.127032847534966464e-01 -1.762250606953612853e-01 1.028023014915151606e-01
-1.182587909062034065e-01 -4.287920898744964626e-01 -5.010979436428429912e-01
-1.717010168734004957e-02 2.733996510440687699e-01 -2.645368461180928540e-02
-8.309515764201887977e-01 9.861921394504868932e-02 -4.118300604998789138e-01
-6.680131214865620004e-02 -1.314785089342560831e-01 -3.924977365380000888e-02
-2.956682816595519389e-02 6.979659838236833558e-01 -4.697040929150038679e-01
2.071559013103639602e-01 6.948362182978790047e-01 -1.448845571415595217e-02
1.410207312006833170e-02 -3.194244675316436077e-01 3.396257820345656431e-02
1.698370162064688493e-01 -5.329417954778858241e-02 1.044125388247807082e-03
-8.080011592153424349e-01 -4.201436999332726629e-01 -4.709900321445892324e-01
-3.282721829284732662e-01 1.064044675249420646e-01 -9.633184486990622464e-01
6.198651084320108140e-01 -3.392669138584528121e-01 4.297340570551668737e-01
3.624331057981303866e-02 7.154287135036276890e-01 -3.607162899984280302e-01
5.195767305270801995e-01 6.067850689111693452e-01 4.304716741420179238e-01
7.682478098723597437e-01 6.274279382335794519e-01 -2.364767578724073782e-01
-6.917205012453664370e-02 7.457553033889072203e-02 1.835342685855032852e-01
1.645027142164537937e-01 4.709661551218790598e-01 4.738654777497934845e-01
-6.469865828733931679e-01 -3.822167023899320504e-01 6.628721607899669133e-01
3.861395138282576467e-02 -1.462573729489575480e-01 -2.116684300233340754e-01
-6.158502921377780742e-02 2.442353013255238736e-01 7.081483707709934627e-01
3.942387281642949215e-02 -3.325278100868574449e-01 5.820815594881514204e-02
-1.800742579667710119e-01 1.331133299503683975e-01 -5.761958830566906581e-02
4.752809502231445382e-01 -1.411222387608380702e-01 -1.553254429129272973e-01
-5.579352532176437007e-01 -2.123444074605027598e-01 -8.166246463141935141e-01
-9.333724100742852858e-01 -9.956270336275668820e-02 -1.204232365619271605e-01
4.596203310958280053e-01 -1.879379804471196513e-01 -2.104696622561859007e-02
8.969384912925849884e-02 -2.007578045497887542e-01 -3.142270488659095751e-01
5.732730718132155179e-01 1.002273976814756357e-01 8.430821571966140571e-01
-2.530980801133029257e-01 5.070689876774129301e-01 -2.833735296366223788e-01
3.340732727676956615e-01 -1.370082675749970114e-01 9.637033174813115499e-01
1.133704845084293616e-01 -1.860089868610246278e-01 8.593609285024518540e-02
2.709264819593390494e-01 7.345524236275871033e-01 -5.683188088472411748e-01
-5.195354876302409330e-01 8.883171838606182535e-02 3.620877681001011816e-01
-3.902861883173378565e-01 4.338034383394575033e-01 -2.924989957661313089e-01
7.502022601563143045e-01 5.075616034440316726e-01 -4.581798293079992757e-01
3.680213041092612603e-01 -1.349729963550833634e-01 -1.247911266901692434e-01
8.602420902043838025e-01 -5.881240948892013654e-02 2.278561802330847375e-01
2.770167069063684262e-01 -1.053900715518191894e-01 -1.225352933670068589e-01
-4.237472807106600348e-01 1.925576339469236842e-01 -4.728698250298968113e-03
3.946365384756039818e-01 4.083089515421157167e-01 7.185915738609989223e-01
-7.758747029521340099e-02 -4.351443655170064151e-01 -1.396740494455079307e-01
-4.317970377116453484e-01 1.018152879118882359e-01 4.654288373459579686e-01
6.770414775569832955e-01 2.717682382124826934e-01 7.092975868279062235e-01
-4.547047285139989986e-02 -1.956395211146891577e-01 -2.584244538592984572e-02
2.798512908566632706e-01 -1.498473440762495834e-01 -3.608818517642464752e-01
3.678456067148407338e-01 -1.363411443264363754e-01 -1.173719587753090932e-01
1.097148801372292565e-01 5.050276923325189848e-01 1.578367198390413506e-01
2.291462431296317215e-01 6.990307959006455407e-01 -6.501990803838059163e-01
8.578956791095998513e-01 -1.954024646851962657e-02 4.860360625729896050e-02
2.960889753054403162e-01 -1.335230422477071133e-01 -3.600396969305646316e-02
1.597214293307062660e-01 4.783021051668981394e-01 4.378636593232361762e-01
-6.624104397074189743e-01 2.969259157568243102e-01 -3.800272664934055689e-01
8.034859867725821503e-02 -2.000628809434255514e-02 8.237557723521715669e-02
-8.841537682418930399e-02 9.199003317389296830e-02 -8.035903391414633834e-02
1.242574072179141731e-01 5.142137480362055646e-01 1.865519803528574716e-01
1.143365666040917078e-01 1.627676182723257481e-02 1.195601310110650482e-02
4.779490838178649392e-01 1.356391013662115452e-01 8.812713600917718715e-01
-1.471185363939124524e-01 6.123955041485064088e-01 -3.438338667196617626e-01
