1.409155318014362890e-02 1.606748739300945805e-01 -1.932152584306379151e-01
7.957652178348852134e-02 -9.209198674215537603e-03 2.102848832943729138e-02
3.403059397702917210e-01 -4.538099729094812185e-01 -8.644706505417736331e-01
1.913996123485868228e-01 2.962034663156331571e-01 8.109371745538319631e-01
-4.347977965736811445e-02 7.651767085060179330e-02 -2.219667525156637511e-01
2.273980720812953937e-01 -3.470994626055236565e-01 7.791915201298436899e-02
6.189121503326096285e-02 1.125215817430721410e-01 7.814538904027855670e-01
8.362852962697735482e-01 -2.364080737977984625e-01 -5.758766306656333267e-01
4.540660833736362978e-01 -4.574800256906708662e-01 -8.210999699753928072e-01
3.880372338505134189e-01 -1.627355153500818497e-01 1.960529467355956179e-01
-5.940897532055962049e-01 -8.025768594348754448e-01 -1.682252092609970440e-02
-4.165584401391948521e-01 -1.500573684624832982e-01 -6.368932448927638879e-01
1.139098113715326412e-02 1.412116152393093904e-01 -1.085870670433106283e-01
-3.815400665031523642e-01 -6.459038206742416799e-01 3.230212060458818590e-01
7.055485246223220930e-01 -3.795615647404135262e-01 -5.455189381635939389e-02
4.955546519151496909e-01 4.266702155558195764e-01 -5.814637497488666096e-01
-4.310423488660858338e-01 -3.942526974174059284e-01 5.814789216382834081e-01
2.479259718089755482e-01 -7.385004792303709875e-01 -6.878077123591015418e-01
9.637109784097572796e-01 1.735248597505453516e-01 -3.743568933888886674e-01
7.439298671316120215e-01 7.213314873978983188e-01 -3.553050512330998244e-03
-9.322482248749994760e-01 -4.589306608231131235e-01 6.343807776757748318e-02
2.728441141944878412e-01 3.600995132851962932e-01 7.896835643594255494e-01
9.149640453769822823e-01 -2.236773622370525072e-01 -3.221111402221600306e-01
2.277821910480807843e-01 -7.660162837971974670e-02 2.187744790411107199e-01
-5.809445551001668484e-01 -2.057131427367403786e-01 -5.671343268353565836e-01
-6.565269089793379642e-01 -7.809656076087574395e-01 -1.227777527296559784e-01
-6.410228564957695108e-01 -9.136525933878748840e-02 -4.483333403401245643e-01
-3.348493066545971675e-01 -6.911573373427425393e-01 -6.885978373067946912e-01
1.467659443186415495e-02 5.836582673208349226e-01 8.345723432208465020e-01
-3.150988696703405090e-02 -7.140317864153196414e-02 6.637992170418425264e-01
-9.530357461311644851e-02 -3.592364016339082422e-01 3.279714102802919196e-01
4.158374354717535026e-01 -8.868273018463421198e-02 2.970962923070247230e-01
2.404667648032091445e-02 -1.727722817490533538e-02 1.162057905768607846e-01
4.145658246321191065e-01 -7.545766595628149442e-01 -4.062576071750357842e-01
4.523775264974321808e-01 5.158764486537457117e-01 -4.964488785798443216e-01
-3.256891194773822162e-01 -6.552436810072148621e-02 7.963184662026359106e-01
5.997484394416352504e-01 -5.492567443032089769e-02 -8.077619352258597063e-01
9.036697070395938863e-03 1.739982346965458504e-01 -3.489225385970742277e-01
-4.825713598003481541e-01 5.998540889005214011e-02 8.335213283239542026e-01
-8.736494816917748929e-02 2.603429998594946129e-02 -5.349245571385945891e-02
5.136140853252035843e-01 -6.904222339716087342e-01 -4.472748617708048879e-01
2.888829506636771960e-01 8.669371879845415296e-02 6.310389985051878536e-01
-8.402675223959571449e-02 1.177098036226710970e-01 8.378498444302655557e-01
2.065648908787982851e-02 3.611355985001473701e-01 -2.158543960175977605e-01
-2.168071973509135691e-02 -7.115960612537797214e-02 2.391064444642454490e-02
-2.110071348124142043e-01 2.001367576847545293e-01 -1.022647085466544675e-01
-1.034899652733266145e-01 1.059245658756434866e-01 -4.383585693980854292e-02
4.005964182040679805e-02 -1.240686773698515023e-02 -4.418838538224546808e-02
8.519644254562367403e-01 5.931581573409641095e-01 1.300070727882993438e-01
2.462062171845525449e-01 -1.029185056845765278e-01 1.784121945314746105e-01
3.561339155603963635e-01 6.513995341415900198e-01 -3.325194564744153869e-01
-9.408820401219580853e-01 -3.699044033538695375e-02 4.432407256523042127e-01
1.706768921023253671e-01 -6.152513327009494493e-01 2.889036022520223568e-02
-7.451902747407979088e-01 -3.808177711024968159e-01 5.171118591312959811e-01
7.179851288077281346e-01 7.402383708554381991e-01 -9.777562197645835521e-03
1.890526468021964113e-01 9.037397279104433800e-02 -7.637284024065870147e-01
-5.728487357857824092e-02 -1.995480667873807124e-01 4.668562689798504417e-01
7.047867815282564397e-02 4.530117763047406543e-01 -2.610272395590376715e-01
3.695755895328747820e-01 1.246828725059819232e-01 6.226885424183832285e-01
-4.935638704833246460e-03 1.513262846905520098e-01 -7.920922918591814799e-02
1.501803884668463998e-02 1.574858836347374225e-01 -5.060654514952345195e-01
-4.816082749440996902e-01 1.503856957025707930e-01 -2.517093537135015047e-01
-2.498374915333750890e-01 -5.411950653957189328e-01 -7.975578594846099989e-01
2.720548888646668328e-01 -7.411166411726317627e-01 -1.380486174033555280e-01
-6.335834499791010987e-01 -6.400648194731770602e-01 3.044464734302099740e-01
2.112925478931510503e-01 2.137538026510112654e-01 -6.673731983883572916e-01
1.607944095675489238e-01 -7.201713275692329663e-01 -7.400435093206310100e-01
-1.115547319961071038e-01 8.112475213865417978e-02 -5.271025937202547529e-02
-9.417919065080039287e-01 -5.465529823735517517e-02 4.400848313527701561e-01
5.095834089986617244e-01 8.128027314613471832e-01 -8.985395462763956509e-02
4.243306778236136667e-01 -6.174346870235606355e-01 -1.002284846124085887e-01
-9.165436743550284815e-01 -3.329114619495028571e-02 -1.122231585280846072e-01
-1.117654781775100498e-01 2.790540431022612289e-01 -9.303301836675686998e-02
1.815675892824212406e-02 6.105742039135471089e-01 8.222831086856005056e-01
-6.876546020510326818e-02 7.097898651902343481e-01 -4.082046869920372134e-02
-5.916027826819870716e-01 -2.959873117417731181e-01 6.492534226465931368e-01
-3.474990244568180314e-02 -2.736089994267062661e-02 5.160465273867680808e-02
2.986937507017785043e-01 6.354339314342491996e-01 -3.249962183722111542e-01
3.749845478662723608e-02 -4.425755075445404058e-02 1.647400775542044726e-01
-8.026428570728979528e-01 -3.136842294500059580e-01 5.203915655518572825e-01
2.718784705279904679e-01 -2.738769591370839307e-01 9.239351835168675697e-02
-9.495357180141414943e-01 -7.708526633352147384e-02 4.193155132573787025e-01
-3.143894880473239728e-01 7.230537098215009673e-01 1.207045681179744340e-01
-6.283847532094949395e-01 -2.707997512494935699e-01 6.541354989882680604e-01
-7.886454280478551182e-03 1.201507897076621034e-01 -5.604907266607586092e-01
5.862362598686805815e-02 -4.728226231906768051e-02 1.870838497934167732e-01
2.449362627311510998e-01 -3.935227422772523409e-02 4.074913142468434279e-01
-9.007860827469482690e-01 -4.994283066972395324e-01 -1.102105444471922907e-01
-4.499460758128974685e-04 -6.696533537275652093e-02 6.412244610504136411e-01
-4.463006680994106024e-01 2.562935230204514345e-02 -4.198223469013798725e-01
4.954676946572523777e-01 4.764091126206601023e-01 6.714686419848600041e-01
-6.011395487905028118e-02 -6.269940283991959351e-01 1.573888721834952320e-01
5.475769118522137990e-01 -6.351707592559493465e-01 -5.670027129348829131e-01
3.054683896578324048e-03 -1.461209091019907147e-01 7.984894890646997145e-02
3.290775453413419260e-02 -3.120115853910836456e-01 1.379335426958635535e-01
4.736596807489209526e-01 4.291474869963711469e-02 4.756549438021531739e-01
2.289296871175174886e-01 -8.849228966455743861e-02 1.861552486421765018e-01
-9.707302222538022329e-02 3.709669948528741545e-01 -1.172801415058220137e-01
2.402908966578561067e-01 1.099387072176251506e-01 6.844158368652432101e-01
-1.781770203202747982e-01 -2.872281893877411812e-02 -6.555543840495985375e-01
-2.590823336089367324e-01 2.741416008334383037e-01 -1.038848691054688189e-01
-8.477401655035222694e-01 -1.596731975225630928e-01 -2.917168429103784155e-01
1.221565178189763373e-01 -2.772705905894385370e-01 8.211704993805674091e-02
-8.610999906646551461e-01 3.200098503810696049e-01 2.251714093207703438e-01
-9.782244202238123965e-01 8.101383626610014072e-03 3.073334228037065130e-01
-3.051598805678500947e-01 8.017840535851133987e-01 2.636792837353572616e-01
-8.032099777014973796e-01 3.588327429698062176e-01 5.272753879827817292e-01
1.634316166103387535e-01 9.284394834361617832e-01 2.695425712184964517e-01
2.532565756597719986e-01 -2.956238978751641322e-01 8.505510579079479661e-02
6.957390435033184994e-01 3.761195359875104116e-01 -5.726153022492231903e-01
2.114438915006550679e-01 2.422414435223178009e-01 -6.389239789725296159e-01
8.902757698541283182e-02 6.566796583928981024e-01 -1.753987433627856862e-01
9.660499326836009537e-01 3.005783237127748753e-01 -2.760347191238277098e-01
2.826124108368059384e-01 -9.885025075858500099e-02 2.210878232486009898e-01
6.986608915056941038e-01 -4.502743693608748377e-01 -6.155164472562877354e-01
5.113051757454917245e-01 -5.366286335712634470e-01 -7.371268446778383998e-01
6.377469622620948186e-01 -1.210602263419399416e-01 2.317511903922503669e-01
8.014224030377288532e-02 -6.413780541741937770e-03 8.141118200974120644e-02
1.808630188966687535e-01 3.863024332191031252e-01 -4.530538374222660702e-01
-9.811715349057588131e-01 -3.132710457377975710e-01 7.882933861951536836e-02
-1.008329261357739509e-01 -4.420499565669594455e-01 2.878853130323404397e-01
-1.392012843629445752e-02 1.028801721211978493e-01 -2.199009525494219908e-01
5.278923402433398360e-02 -8.138794482590194779e-01 -6.425273777163083011e-01
9.633091465634990858e-01 -9.464459086728867210e-02 -2.900216285877115774e-01
5.540083863887913518e-01 7.684032701894701889e-01 -1.630485705866230317e-01
3.025316007056336742e-01 5.482230099751937979e-01 7.659778650269475353e-01
3.949692870523385801e-01 1.228651366696128025e-02 4.674908987136680572e-01
9.880310413736479447e-01 8.271574866581834357e-03 -1.876633967063912334e-01
1.998001824239347413e-01 -5.252476133875577657e-01 5.330027249251356042e-02
-1.566786952544601402e-02 -7.595896068068154483e-02 -7.961424363825758688e-01
-1.022602728683780354e-01 8.764397158159955570e-01 2.349068125917565808e-01
-1.412983647786443808e-01 -5.756617106012377194e-01 2.503950630351668982e-01
-3.495770811589581917e-01 7.951420182538002646e-01 3.339789035636539505e-01
-7.702090534666342636e-01 -3.084109354496783473e-01 5.518721669570094690e-01
4.376671047080099575e-01 -6.941111916859195041e-01 -2.185768425321743536e-01
4.685522758052909076e-01 -7.197544076751184461e-01 -4.564969813956949451e-01
-1.819170390525114492e-02 1.400480200126388020e-01 -3.409757530433116801e-01
5.407674055596334295e-01 -1.445773311368451497e-01 2.328227800915323165e-01
6.821130902886896052e-02 -4.496820939304856934e-01 1.259677743394689853e-01
-4.572142805793796144e-02 2.472616644854931101e-01 -1.078125229899596083e-01
5.628461141288491204e-02 6.561647694563303990e-01 -1.539135913423123336e-01
-1.184339569163969513e-01 -8.722660142126229532e-01 -9.830341765595518311e-02
-3.669454812306079394e-01 6.592612538276229062e-01 8.426133790045217675e-02
-1.458860842891352427e-01 -4.393133333489281922e-01 3.450701385125926612e-01
-4.909668775768391003e-01 -1.223509621619758292e-01 -5.696887524947151782e-01
-3.570196616900195852e-01 2.530611806056178303e-01 -1.383794455818823099e-01
1.006046581031355275e-01 -3.102786867444128766e-02 4.664153828216333064e-02
-6.503813791108711273e-01 -6.949537384679166374e-01 2.036332930241742944e-01
7.730873809111636907e-01 4.378113443391299375e-01 4.185802848289347788e-01
-2.292400439393939282e-01 8.454008473249913225e-01 3.029831104447539003e-01
-5.021185441166655522e-02 -2.433296359885900040e-01 3.279423733158379761e-01
1.060155617876516049e-02 -7.766770578879722553e-02 -3.736545640798986760e-03
9.340927820544883686e-02 7.000478848456533898e-01 7.594817481909205137e-01
7.720301683789823621e-02 -3.397605357786567248e-01 1.130177626776558419e-01
-1.624100666621007549e-01 6.781698849360377757e-02 -1.914566895336464736e-01
-6.334755054258445206e-01 -2.458743222932567307e-01 -5.459000186712466007e-01
6.941943711707018183e-01 5.938040549561974801e-01 -3.569349851144408281e-01
-8.293108182239809778e-02 6.274458740166211079e-01 8.178245318785852813e-01
-2.425932136257898109e-02 1.179376356733982667e-01 -2.994646578650332971e-02
7.621578386576484121e-01 7.079278829093004211e-01 1.179730998805402914e-01
-8.948926022863689100e-01 2.715849893202330612e-01 3.337786460207941008e-01
4.093726244916656709e-01 3.714464049381384081e-01 7.220939377181904151e-01
4.239816567726086179e-03 6.607439952222141089e-02 -1.393471168043804442e-01
-6.590972833124612018e-01 5.413562124900790362e-01 5.544108237047881138e-01
-2.192199218773717775e-02 4.354470973623170843e-02 3.217192828747540007e-02
6.983875048437913902e-02 5.843104205362798648e-02 -7.295248510157149591e-01
-8.109188346655976654e-01 6.450934373037368885e-02 -1.833550880850347564e-01
1.476220755552553991e-02 5.245051774131537919e-02 -1.108794522285754536e-01
-2.437408181307988350e-02 -7.369290895342672787e-02 4.584041162501070743e-02
-9.617089024714549350e-02 1.579946852705676197e-01 -5.344966644989432303e-02
-3.886537767515944874e-02 -4.864513888793926544e-01 2.037396688574552028e-01
-3.480549925936197164e-01 -2.858268278178213162e-01 6.499498176199731692e-01
-8.179814257427567847e-01 -5.587596067515389064e-01 -2.814733549330853402e-01
9.777386419791124494e-02 8.851502988070917288e-01 5.245244552716034070e-01
-5.282252060111490843e-01 -5.270391858368186355e-01 4.663925282207842526e-01
4.763263106459330598e-01 8.275002209464731306e-01 4.288515002116222163e-01
1.226749698353096635e-01 -4.182384478475737466e-01 -8.977970686551761670e-01
8.204717485517674103e-01 2.091195204500871929e-01 -5.841170831563511356e-01
-1.332176313853043748e-01 5.992370798669928167e-01 -7.054163781026141777e-02
2.255061898651454511e-01 -6.466994710183804340e-01 -7.899763131444033082e-01
5.246204765989357366e-01 -4.879112782861271674e-02 3.431155327378325737e-01
8.248486166388060425e-01 2.511541168575004979e-01 -5.580418841185790235e-01
-1.188145178583508016e-01 4.946071139952477186e-02 -1.645528103172546053e-01
1.824111030823033774e-01 -9.104551017586477724e-02 1.165277908430330384e-01
-7.478947304108926053e-01 3.268750365949373848e-01 1.384178180731592163e-02
-1.662484852971772842e-01 1.226093097995154119e-01 -9.508522208569573919e-02
2.619701461042098223e-01 -4.620105840611422182e-02 3.737333025099767170e-01
1.320773855378659378e-01 -4.804888571013331278e-02 9.771975321056772246e-02
-7.786106397884107709e-03 -6.108929925741587302e-02 -1.344657107312789354e-02
2.065673317437847767e-01 -4.499628344489233628e-02 4.108234754403323197e-01
-5.654932945784373333e-01 4.394899753775112772e-01 -3.002610426435938385e-03
7.894438988817754632e-01 -4.066007183386898816e-01 -4.822283101995996080e-01
-7.551668889308857935e-01 -4.434503908491722046e-01 4.544834322649288216e-01
4.813786511341917040e-01 2.981036288782928367e-01 -6.814045800578484302e-01
3.827929969895199069e-01 -7.290915184762644108e-01 -2.223403855797201345e-01
-2.820944554704521989e-01 -6.107474320857604333e-01 -7.593348596221989322e-01
8.341755321918682686e-02 -8.668940939506965260e-02 1.632401587359503040e-02
-7.663031364809186341e-01 2.606320647507856525e-01 6.562593541372264694e-01
5.610561914391749561e-01 -3.815792798690816334e-01 -7.950090166793988278e-01
-2.063241642673255827e-01 -6.369017109414308875e-01 2.498068496013159390e-01
-1.147833096872759029e-01 2.706195206008307208e-01 -9.024337721447336924e-02
-2.901037639315042979e-02 -7.213385384381758580e-01 6.851872325304966815e-02
-2.040122466036877746e-01 8.454934894033148129e-01 2.574533032783724029e-01
1.473174324325367268e-01 -5.036566826593479040e-02 1.847247500017883681e-01
3.067434891308651324e-01 -1.135587689572658404e-01 2.141737706763933713e-01
-1.569531617311914484e-01 -1.938145438319168468e-01 6.247185536106224513e-01
-9.084008746475562279e-02 -3.746675760654520904e-01 3.103147152446947832e-01
2.511336296741537022e-01 -7.811662159030658033e-03 5.016470168018045683e-01
3.974730716404675269e-03 1.658921273503016214e-01 -3.316691507775596515e-01
-6.111139056070300554e-04 -5.148642698974803533e-02 -2.863278888383518142e-02
-8.990013657053738116e-01 -4.743141499207061962e-01 2.029019459045771911e-01
-1.124685031338093361e-01 -3.538562458987194459e-01 3.625464302122901605e-01
8.515177562071967188e-01 4.943740916212798764e-01 2.693815651124013000e-01
-1.586227952780030759e-01 6.613423774968654745e-02 -1.937824838301021868e-01
-4.861192653011260356e-01 -6.054433882585140703e-01 3.838750735591054952e-01
-6.042568156032873672e-01 1.640688115160255645e-01 8.010535060413245256e-01
1.538027667148545441e-01 -1.153576271000255338e-01 6.947065210897593324e-02
-8.088409478577471279e-02 5.212498663091306300e-02 -2.082261869599258755e-02
7.658368273981468188e-03 -3.870729268222030117e-01 1.732094704445810152e-01
3.356304408095380776e-01 2.051904625859196363e-01 -7.284280315626576741e-01
-5.327262982003536651e-01 3.141053342663999715e-01 -1.093481124103650309e-01
2.486803758610210777e-03 6.313388741136054250e-02 -1.396394205842544367e-01
4.224300424862394154e-02 -8.718682747020233270e-01 -2.042588173572759402e-01
-6.450817225948817235e-01 -1.929338152607963097e-01 -5.119020294227638601e-01
-1.400150695897565793e-02 1.307364567644691000e-01 -2.813887107693726630e-01
3.770488590228375791e-01 -6.366856400524878445e-01 -7.366779677223166400e-01
-4.067486349110301935e-01 4.694267749159213021e-02 -3.946120472577000493e-01
-3.913097598161680013e-02 4.804309525160536665e-01 -1.537339024272195154e-01
1.585520751180063692e-01 -5.446406341252785221e-02 1.796501170184947593e-01
-8.177393009683193714e-01 3.548544570676027271e-02 6.358478717549078674e-01
-5.057597983310875914e-03 7.632589700606048910e-02 3.937686643481202488e-03
2.639871276114934533e-03 8.849567793169833829e-02 -1.635814200505308624e-01
1.754591570794915845e-01 7.905867821253926842e-01 6.609081711216782118e-01
-1.498056587611926171e-01 5.695588402919230520e-01 -7.401999402558152863e-02
-1.568011041727707389e-01 3.007323572448305504e-01 -9.167675995559940172e-02
4.269508151216533931e-01 -1.936632901186993716e-01 1.785418097357977241e-01
5.774696776292139733e-01 1.573913227643967960e-02 3.966103030424232845e-01
-9.232695450662737890e-01 -7.793218676997516747e-02 4.748609091019501127e-01
-8.940400989997547843e-01 -4.193910344899769438e-01 -2.227313226105136212e-01
2.337192634626685528e-01 -6.063742350909629569e-02 3.022733569152061817e-01
-8.495218499871874940e-01 9.806088831982896770e-03 5.972243973185960009e-01
2.603044754055583998e-01 5.106425824354430265e-01 -4.166210949556205523e-01
3.507673022744916547e-01 -5.863090526793826029e-01 -3.415834385061174844e-02
2.770374647615962416e-01 -2.479069784301026619e-02 4.396279812915038221e-01
-1.180476647172697818e-01 1.691374769549734702e-01 -6.268278647395345016e-02
-7.760731080691488648e-01 1.521275203238467606e-03 6.732909298123017638e-01
9.516281331791325293e-01 3.472035900047897861e-01 9.444716253314783261e-02
-2.248099902893456112e-02 2.801729647595334050e-01 -1.441216540521416956e-01
-3.919151644719594957e-02 1.006018113689319433e-02 3.717307128424097995e-02
-2.732908210581507791e-01 -3.984445144438487629e-01 5.090261407376980296e-01
-2.500407105708625857e-02 -2.484935449207633096e-01 2.193736857629274561e-01
-2.205573617867204184e-01 9.113112342125175014e-02 -2.106385898146288238e-01
-8.266005609235436147e-01 -3.339794621815318498e-01 4.815483517678451619e-01
9.099585204243382242e-01 -7.031083245872152276e-02 1.740701315942281072e-02
4.203075997433492472e-01 -5.052215043955828877e-01 -7.866113720787180907e-03
-5.389230072163355562e-02 1.436594165726215178e-01 8.407986399848420556e-01
-8.195884998603988197e-03 -8.863199843455918936e-01 -2.086338495564179218e-01
2.323807202934397298e-01 8.475538694277389151e-01 -3.112868221916402153e-02
1.087138969514426651e-01 4.404745251157632935e-01 8.509208178181594251e-01
1.774007444276974321e-01 3.673377025919656869e-01 8.289164310513992273e-01
1.448626149118132089e-01 -8.943641798682630539e-02 7.028181157446171390e-02
-1.046111768984762380e-01 8.072633938393294906e-02 -3.200785997800534299e-01
-9.872599626268330208e-01 -1.433755970187580997e-01 2.293459634013645873e-02
-8.709737773201474687e-01 -5.544617964195220905e-01 1.005882199089930679e-01
-2.347389749868362963e-01 9.597142212969284047e-02 -2.163917783858671506e-01
5.831375113754529854e-02 1.081079324395144287e-01 -6.644782559951470935e-01
2.974132579943492352e-02 4.235990140991302208e-03 -7.564954168598851947e-01
9.274573889032320384e-01 4.818714637100196541e-01 6.920268981973701390e-03
4.791554906404525693e-02 -8.888005942913304591e-02 2.714039176574127299e-01
-6.968445347243443777e-01 2.131290594956695150e-01 -1.386636472948596654e-01
-1.995344246451050962e-01 3.397353572493960194e-01 -9.154871758971812323e-02
3.869691499872179169e-02 1.100488112634538246e-01 -6.425250603830044982e-01
-1.088363923286378605e-02 1.540293633274973650e-01 -7.384625677754727557e-02
7.570564578420319046e-02 -3.151568660166050861e-01 1.082415802004724481e-01
9.914233300718017228e-02 -3.796191000742935723e-02 3.607499857926311365e-02
2.299514001717150036e-01 -8.398126515997640373e-01 -4.388904369575507003e-01
4.135306361895367822e-01 8.183147769980043257e-03 -8.394028926959322678e-01
-3.466446636117169744e-01 -1.771785784827905608e-01 -6.970454222669291156e-01
-7.488355790353290464e-01 1.009463317533127458e-01 -2.075347230019813360e-01
8.704931797582092790e-01 -1.781689847372730229e-01 -5.462726287297505756e-01
-3.947035905691176350e-01 2.648700558060468335e-01 8.750004760271730131e-01
-9.033925124780375904e-02 4.871426928176200710e-01 -1.216992450946184356e-01
8.231558020989078184e-01 -9.777919496563644564e-02 1.207327529962946566e-01
-5.022570411066969998e-01 5.993033168530755711e-02 -3.594695419864721297e-01
2.068396837120023077e-02 -3.265621031928833684e-02 -4.474017442424570168e-02
-7.137157249930534686e-01 -3.137076898513624368e-01 5.869299882636446197e-01
1.498042815333426037e-01 -5.215348004307793217e-02 1.483455332120229009e-01
8.965312924190748101e-01 4.557673715851707219e-01 -2.756637121517534483e-01
-1.200168419542057274e-01 6.154544154813607060e-02 -7.850276723535433432e-02
3.484274298138432396e-02 3.754208957445876599e-02 7.369537448742469188e-01
6.444252386010904110e-02 -2.905666250572834231e-01 -8.954052115469411932e-01
6.466521548140707898e-02 -1.437197352569026879e-02 1.202116550855473753e-01
8.554759641277605992e-03 -9.381535901577269312e-03 -6.995233322352534255e-02
2.984269604713142288e-01 -5.635204470927815956e-01 1.427432851513740341e-03
-7.407865270907777466e-01 2.229943212988536039e-01 -9.963380663414696248e-02
-2.164923583321563538e-01 8.446161659014912726e-02 -2.280440520785999292e-01
6.855229835610414657e-01 -1.676275271591881888e-01 -7.628804491481702144e-01
-3.593731091597583971e-01 1.758702843663329796e-01 -1.950383530202579319e-01
-4.445633510795710674e-01 -7.155840025577009378e-01 -6.023038753391842803e-01
4.766313209458634681e-01 4.831979663844208073e-01 -5.301798123655339090e-01
1.243294991948721562e-01 -4.475038023115336661e-02 8.385013706894492436e-02
-1.766137820691267013e-01 3.173815727409994292e-01 8.951604304891386255e-01
1.299162034587242158e-02 -4.141268479180271016e-03 9.392826697570381966e-02
-7.740782376174065726e-01 -6.713116991582664950e-01 -1.886926764674325963e-01
-6.887548120161183802e-04 6.050137213760338126e-03 7.528358091047517020e-02
-1.029920802496138432e-02 -4.780275968390872848e-02 1.087607191655351885e-01
2.177791945471095059e-01 -4.519474516221024668e-02 3.988264989209576172e-01
-6.587333760526784682e-03 -2.974972513379225414e-01 1.823849281954069701e-01
8.597892862366486588e-02 -7.997002952543171006e-02 4.735669049230010752e-01
1.280361887839939483e-01 1.780849895763760016e-01 -6.403305425748079260e-01
7.999950372395567832e-01 5.667748843425949312e-01 -2.853009588814174879e-01
-1.517486340970759517e-01 -4.153853659672716025e-01 -8.504195299428743970e-01
1.378964592278092149e-01 -4.629751741468854931e-01 9.002322767419680682e-02
-4.884290931289970161e-01 1.467683248294186782e-01 -2.559001328247177409e-01
-1.482989531968352814e-01 -4.593061902492440174e-01 3.337888446047089230e-01
9.356032844353715438e-04 1.219781015494952187e-01 -5.409673325193801313e-02
9.082324916941330040e-01 -1.916073490271889834e-01 -4.404381022191492523e-01
4.794816023850873021e-01 -3.846225207775123556e-01 5.142996073032602561e-02
-4.627923444636855912e-03 4.581408999717706543e-02 3.535083273090014466e-02
-5.027835320189355528e-01 -8.144915006733766116e-02 7.834438846243427790e-01
1.504372894024514351e-01 -6.341430126579209459e-01 2.857301834158019679e-02
2.137632382916856630e-02 -5.066501891604511254e-01 1.492839204258345209e-01
6.633704382033465130e-01 -1.359462673968495350e-01 2.066114532605970444e-01
3.830752214998519589e-01 7.354711080793217004e-01 -2.391975638898474477e-01
3.083610702824020056e-01 -2.296127708595367689e-01 1.174854065629418742e-01
-1.471777006392958366e-02 -3.787161603413772420e-02 9.462799909984061231e-02
-4.024049411390247938e-02 3.108501010676513743e-01 -1.381112853386901318e-01
5.391285066409602644e-02 -2.948361825353684393e-02 1.496876526842237376e-01
-4.393050511635305799e-01 2.320715246917259000e-01 -1.704559782816432723e-01
1.223601431942905257e-02 1.669246538835669480e-01 -2.439618677503719024e-01
-1.305673639038903711e-01 5.851127593161010998e-02 -2.073096540491314033e-01
-5.236702392271409545e-01 1.220132316882628770e-01 -2.818197022606519497e-01
-6.872397638231245720e-01 5.460408555263784880e-01 2.929784677982150143e-01
1.167869808072012211e-01 -3.033002561752340398e-01 8.908856802675739484e-02
3.885313430969909998e-01 -7.466694411190748504e-01 -2.737853510930410850e-01
6.980402596180935726e-01 5.578105314173499307e-01 -3.990267524278556799e-01
2.351960531034226198e-01 3.215573095582758834e-01 7.989484593721808414e-01
3.445319787444938719e-01 6.342045181916823593e-02 5.688841957642887248e-01
-2.307109707934249521e-01 2.716787436531241662e-01 -9.792119629367328215e-02
-1.299987142083027236e-01 -8.815365453357461023e-01 -5.135036373597651194e-01
3.050389618749143050e-01 -2.308292846967384057e-02 4.320764175602061496e-01
3.562818898768814191e-01 -6.497317871693646385e-01 -8.980893287242572298e-02
-1.897626021528838747e-01 1.605343237871587891e-01 -9.995278724815363780e-02
9.804403357488911119e-02 9.262410451052700555e-01 3.187976462538039124e-01
9.368642442338542820e-02 -9.185792947132433162e-02 2.403579326639801103e-02
1.864954918113534976e-01 -1.169742459881877583e-01 9.862483436031613260e-02
2.359696573717570967e-01 -8.876758585487488917e-02 1.946013947738607641e-01
-4.524604443952496835e-01 1.431255788146412744e-01 -2.572688681902175478e-01
-3.853669114106758609e-02 -2.967688071465974242e-01 2.444229163521628445e-01
-1.348252449194015934e-01 -2.254395207763327802e-01 5.615257693378277182e-01
-1.622064378211148239e-01 4.273199866666757551e-01 -9.619242145612599826e-02
6.744868786948194916e-01 -1.532159132289341585e-01 1.851363453397207592e-01
-8.306379864344244357e-01 -5.458477007963461469e-01 -2.671006847763720549e-01
6.785881864718575907e-01 -5.373695604572579221e-01 -2.780742454458267621e-01
2.001084622876608266e-01 -2.993251510243696289e-01 8.025399609569881798e-02
-3.203067593336604846e-01 -9.061097285087407194e-01 -2.892863031249994221e-01
-6.549949149341036669e-01 -7.779866593658305574e-01 -5.921168623044793106e-02
6.776479270585783476e-02 1.368194940609238908e-01 -6.342140695843910825e-01
-1.527289692408322630e-01 1.822188388478680754e-01 -7.721515768118854262e-02
-1.654573253799614813e-02 -9.711292843557349508e-02 1.095959731535311593e-01
3.021149687411969764e-01 5.750057405013149214e-01 -3.849720724812440431e-01
7.585212927565663232e-01 6.459216093772897072e-01 3.030209454064007324e-01
1.724805637208223497e-01 7.952582892697911410e-01 -8.893461270907954130e-02
9.072973286557155237e-02 -2.449471681855724947e-01 7.962599917950154149e-02
-5.738294047537543380e-02 -1.092939259416548549e-02 -1.554697448833446301e-02
7.238323420250583062e-01 -2.249486708395211088e-01 8.920765401590571853e-02
-9.323266178079169242e-01 2.847511141262437998e-02 4.585304913253664960e-01
2.044370415986778433e-01 -5.208338470470559312e-01 -8.661422755940332285e-01
-5.337735102272552767e-01 -8.397482021447028044e-01 -2.672067171042923905e-01
-9.574337601711181422e-01 -9.261874521704277496e-02 3.967911410609655798e-01
1.575982759425473834e-01 3.060930315609773911e-01 8.263145853407980468e-01
1.488446522817348516e-01 -6.132978203219568297e-02 3.845511488240142550e-01
2.755081333648948250e-01 -3.673337582976228099e-03 4.948209234566465220e-01
6.244311931596151499e-01 6.665287439700399164e-01 -2.995708763592016544e-01
-2.729427808798797275e-02 1.311544924740866702e-01 -4.680377583823255305e-01
-1.556090899101523865e-02 -8.211548894439571478e-02 1.140515754642160290e-01
-1.341683149006179798e-01 2.210333906836718376e-01 8.813325618693058638e-01
-6.928573529469460590e-01 1.336463982778743065e-01 -2.148342578834088468e-01
-8.486317577608160079e-02 9.110657202619577844e-02 -3.366064400271065460e-01
1.103636114652408462e-01 -3.386909678422359016e-02 1.469572229585688894e-01
2.286642762594058020e-01 -5.992616719445389983e-02 3.036605096208020993e-01
6.627548661245925565e-01 6.187376653015250749e-01 4.749768101010237165e-01
-3.131798413950436788e-01 1.824203370470888277e-02 8.348240183995278008e-01
8.440619324961338155e-01 -6.187752205268080841e-02 1.282769718532864589e-01
1.855352699506701009e-01 -1.179121345146690869e-01 9.714014714840342457e-02
8.140072019504319099e-04 -8.365241962996239344e-01 -9.191788469799469508e-02
-4.103229907961444822e-02 2.591708903144526177e-01 8.734434199219610617e-01
-2.011731954214570073e-01 1.669401502561756734e-01 -1.055652174422429812e-01
-5.550807984927165206e-01 -3.338412998474923898e-01 -6.332412288737971906e-01
2.767072017834195097e-01 8.909922069376569054e-01 4.530372724925297301e-01
9.096998458446222680e-01 3.536393085138300751e-01 -3.692546834936964451e-01
7.393967920661533022e-02 -3.090992172137217442e-01 1.075929183973365205e-01
8.671060500943196248e-01 4.209289433382190082e-01 2.767521991770665601e-01
-2.504197756430032729e-01 1.234906541411382591e-02 8.253706683418278178e-01
3.233400365482059780e-01 -3.121658877127903020e-01 -8.973500058503932619e-01
-1.148029028120658296e-01 1.399909109496828286e-01 -5.547096529924976788e-02
1.942236314521406937e-01 -6.768502986884490646e-02 1.967569592674100198e-01
2.218220609451216074e-01 6.759521577664073799e-01 7.425418575250887221e-01
-1.702872060055824754e-01 5.352101097134034369e-01 -7.595907597163491232e-02
-3.135761303419352108e-01 -5.325469659952273282e-01 -7.730608086574370930e-01
5.751948445760858286e-01 7.985175138402333950e-01 -7.636221325883296718e-02
1.207988527417933056e-01 -2.319549570386792714e-01 7.079446947176000482e-02
1.745825776448958200e-01 -5.794272066424754203e-02 3.193370979661872000e-01
8.207297397838687614e-01 6.310143155362822887e-01 1.574682893744561996e-01
-7.209356920971448091e-01 -6.519201598957593546e-01 -3.595349660912590672e-01
5.774793659269356408e-03 1.283791825045965673e-01 -7.110404459236309427e-02
-2.871817504360367757e-01 4.798325092503418765e-01 -5.646507753962826809e-02
1.773312185413766784e-01 -8.258923917954703597e-01 -2.091533713599138256e-01
2.322810109670133197e-02 5.545554381666408655e-02 -9.583484216892014518e-02
-3.751769071535066558e-01 -1.922444706893470245e-01 -6.903896267230019701e-01
-2.127754954730966958e-02 -1.889347153742241547e-01 2.645209463443219389e-01
-3.513590439685435607e-01 -1.941391205480153537e-01 -7.050761294310129434e-01
-7.147222829513449893e-02 1.046418996121051964e-01 -4.069821940666700777e-01
1.512879898478167451e-01 -5.223638991965467299e-02 1.573543454382421991e-01
3.969670096789609248e-01 6.648453426535908539e-01 -3.291427791870384922e-01
2.736925622950805437e-01 7.994423113260794578e-01 -1.228807819748227725e-01
-6.645726126104105624e-01 -3.752923655177148876e-01 5.675300397297610155e-01
-9.213560050472717755e-01 -3.612313173263547172e-01 3.103480404968318451e-01
-2.973492025437973665e-03 -2.408951851862152771e-01 1.611163088429638235e-01
7.635178558530557325e-02 1.399535424395219052e-01 -6.388772789733585533e-01
8.324402568597633056e-01 1.123389769548314987e-01 -6.094251686360729892e-01
-5.187751159179712079e-01 -1.188575116237117618e-01 7.641154814213885205e-01
1.588489419301330474e-01 8.517142124362513389e-01 3.534086916588027785e-03
1.662366291252430073e-01 -4.500695526990022288e-01 8.097867814350472038e-02
-2.369216213832414306e-02 -6.482462787894402445e-02 8.054234233875137705e-02
7.131043779731157661e-01 7.513878254699718484e-02 3.634736644389883753e-01
-1.185498391641408023e-01 7.220922788923295199e-02 -4.934086793410516480e-01
1.920792257799785463e-01 -2.825849830157033393e-01 -9.062889897841653886e-01
-5.571421655357348124e-01 -2.223248508264891524e-02 7.913541899956902936e-01
-8.867021020582078750e-01 2.873645224704420298e-01 2.715385997662478901e-01
-8.642073832257147759e-01 3.240118394513636924e-01 2.619777256612653149e-01
3.549264851435696144e-01 6.191940820564570958e-01 -3.660607819221863291e-01
2.890779784070056091e-01 2.812214555102679481e-01 -6.498029951816709504e-01
8.977349375803268527e-01 -2.160580883106292538e-01 -4.466985686761522079e-01
-1.907525472341239370e-01 -1.798040766102456944e-01 6.657533244134391515e-01
-1.030664659801865529e-01 -6.026205033234350861e-01 2.032528543192967663e-01
-3.738757028791083736e-01 -3.374390124970294558e-02 -5.377491584503722999e-01
-9.019521818228272148e-01 -1.864652694055958793e-01 4.751026197544681029e-01
-6.827531843157292890e-01 -3.568709724428200114e-01 5.730281533194750976e-01
5.891937932932950900e-02 8.082876487818603239e-01 -1.382774461180453010e-02
-1.772555282506900476e-01 8.876319870656984579e-02 8.469698393381351886e-01
-5.417208637979140651e-01 2.747254403833032099e-01 -1.381022028818061909e-01
1.364187188330255041e-01 -4.175735222572568572e-01 9.367581882466848031e-02
2.485518255212871772e-02 1.986900405996127883e-01 -3.440154185031324974e-01
-9.672198565100554868e-01 4.887581316737915627e-02 3.359520415873042953e-01
-7.168949859925286550e-01 4.586951400761895004e-01 1.511979750385669119e-01
9.535889261993533150e-01 2.092469301585429819e-02 -4.257247903006745049e-01
6.781760559123684029e-01 -2.134253779756100367e-01 1.276269084091028738e-01
-7.418198989587253545e-01 -7.137494828030841454e-01 -1.396500745971362978e-01
6.477708854281390982e-01 7.228436220347025376e-01 3.860859725931736763e-01
-3.023877425672365504e-01 1.483449395337240184e-01 -1.924456490842097467e-01
2.385589338854032515e-01 7.760622727493351469e-01 -1.426935867079998921e-01
-4.155559536248581293e-02 -2.837491964929229893e-02 3.136546733553603056e-02
4.835785200225298786e-01 6.225674828773548608e-01 6.361849349051276192e-01
-9.938079536061865393e-02 5.453257983679479434e-03 -6.681711315315794764e-01
-1.391542074972171028e-01 1.350260516736200567e-01 -6.963629927622633220e-02
-5.595138846121516796e-01 -3.200778880417392003e-01 -6.269093394488439719e-01
-3.149730926866900482e-01 -3.889128416853515069e-01 -7.854845195096965549e-01
-1.739340418479955880e-02 -4.716572305082809835e-02 -2.583243859251217397e-02
-2.717851868359399264e-02 3.843997109278271540e-01 -1.643485148431611254e-01
-2.207018038256485515e-01 7.160807755525286922e-01 5.121018435451885759e-02
-2.742914252791778251e-01 5.533030383687057574e-01 -3.171671545494065408e-02
-8.901998194380350560e-01 -3.774635094442257283e-02 -1.609414102284871528e-01
6.764088115041169136e-01 7.683989689866018713e-01 2.160039347451992164e-01
-4.139800009347812115e-01 -4.960921739578239703e-02 -5.380571553522700556e-01
-2.253715231785038270e-02 -7.380324144128358466e-02 3.383833875318636303e-02
-3.377495000492382604e-01 7.219237856772362516e-01 1.374581290838027547e-01
5.321659981442881104e-01 -4.814858314916388715e-01 -3.664575989522852323e-02
1.001274428270376299e-01 -3.700194192306310165e-02 5.850183859824162891e-01
-1.909781366744170705e-01 2.250930812840875317e-01 8.875544377851584121e-01
-1.401981819735083901e-01 1.246576770186952482e-01 8.541083426187886518e-01
-1.820548545259491335e-01 3.548804830484809658e-01 -9.296436997315868367e-02
-1.900217577884157627e-01 6.971257640132308420e-02 -3.019889882605786835e-01
-1.886881255915992817e-01 7.387334309489032580e-02 -2.334399339544647456e-01
3.789975025074134862e-01 3.956866268921449548e-01 -5.875020938600002962e-01
6.062423980587430261e-01 6.555666186497464132e-01 -3.241264078046252051e-01
1.103894639856682278e-02 2.308736354281950426e-02 6.213854408128469814e-02
-8.212109530010910929e-02 9.856363273049059681e-02 -4.026429082057600417e-01
5.124929205911255004e-01 -2.325851792230699058e-02 -8.319028036128305326e-01
2.426758545237562570e-01 -7.701528235962361579e-01 -1.583844727119527451e-01
3.171848565678069831e-01 1.130751571282307688e-01 -7.857028445478514422e-01
-9.520016569756705183e-01 -3.032152855167709674e-02 4.158465696222330421e-01
1.736351241953897340e-01 -6.513777096298571656e-02 1.564436783514453477e-01
4.163387251583172133e-01 7.931765779542292449e-01 -1.543820680854006699e-01
-6.693918649718241798e-02 4.594087885286295969e-01 -1.374452273632281174e-01
-4.359461138501250499e-01 9.871566607782583658e-02 -3.123973773384875474e-01
5.398336325150637771e-01 -6.527161915489668731e-01 -5.368836534557971385e-01
-3.595519786949492591e-01 1.384910371775568416e-01 -2.369198640761026042e-01
-1.849790014276784522e-01 -8.296838451032430006e-01 -6.035843055286124192e-01
-1.623898651397517878e-01 3.768329418243853701e-01 -9.673391628438993139e-02
6.921400276962877962e-01 -9.655337494604898652e-02 -7.602807400507202162e-01
6.193372904575525917e-01 -3.166787292346350813e-01 6.265865918507562693e-02
8.508312214099450488e-02 -8.734828517420324678e-02 1.752055972791244365e-02
1.463607345061867203e-02 -6.319758516322679931e-01 -8.193698022679145598e-01
-1.458286898133960841e-01 1.869938731878497407e-01 -7.494744984383971964e-02
3.601172216385747360e-01 -6.767630901550899525e-01 -1.214171759644756265e-01
3.131262848226203932e-01 -7.859986881399441128e-01 -5.429544431591744047e-01
-4.390818528017397804e-01 -8.347939265340571513e-01 -4.395487874655643612e-01
8.070475844264320131e-02 -5.632285805431976045e-02 2.254132998736489424e-01
2.787494598337741936e-01 -5.357585065642577193e-01 2.203033746876841004e-02
-1.005574036936528054e-01 3.628630744685894249e-02 -1.277595368298500844e-01
8.339256324297964484e-01 -3.659401747138346650e-01 -3.041681352707004682e-01
4.362879227938367133e-01 6.287109583085662146e-02 -8.162611684593196193e-01
-5.998121724229284191e-02 -3.580655006153146431e-03 -5.903028682221430484e-02
5.853643690007953593e-02 -3.905639094735362526e-01 1.316148569993317308e-01
-6.395943332268540227e-02 -2.023527406966602604e-01 4.779451895327750388e-01
-7.650593020501930686e-02 2.719291524869164173e-02 -2.184193211931181877e-02
5.446725830185140671e-01 -4.674694014094218364e-01 -3.093452025450145124e-02
-7.207911802318651973e-02 8.536808625344537160e-02 -5.388205471054502427e-01
2.464759096736393162e-03 7.136689209493376485e-01 -7.929535130288069278e-02
-2.304869088804958367e-03 1.175588244001088828e-01 -5.761739262449792065e-01
2.728019188091534430e-01 3.340689514710931118e-01 7.850620007613391405e-01
7.476938819291987226e-01 5.814526770247597787e-01 -3.275435422939234620e-01
2.160249464296800162e-02 -8.572605272876991644e-02 2.109617418230226304e-01
8.413227306135123706e-01 3.704931704507943846e-01 -4.578183740972242566e-01
-9.504011953596426254e-01 -4.079309537920206008e-01 1.174236347857677137e-01
7.448901762934314608e-01 3.950262147434731030e-01 -5.274827203506720075e-01
-9.485665994398448028e-03 1.134986665714505516e-01 -3.350814686004478793e-02
-1.436517640647997363e-01 -3.446268180490986710e-01 4.232441954098158932e-01
-9.275019693498587348e-01 -1.774352356699380739e-01 -1.673146154193078383e-01
2.449989364773897116e-01 -3.808013788678180078e-01 -8.994800110485594580e-01
-2.224397132111645414e-01 4.869289284074485580e-01 8.682999035667452459e-01
-5.951806724583011965e-01 2.916856363093744964e-01 -1.126703215775306244e-01
-1.406698886766717498e-02 2.369977534311798750e-01 -1.338487464767706969e-01
2.028036489347403715e-01 5.776953108153769501e-01 7.953202534408724267e-01
1.544065544436464543e-01 -4.846586955885312520e-02 4.727604281142357423e-01
8.727121758421786321e-03 -8.297327728851079665e-02 2.678305379874195216e-03
6.526809558063895178e-03 2.721469439014601033e-01 -1.832257055395893064e-01
-2.096807083781967659e-02 -2.412201634546518036e-01 2.073089094661196286e-01
-3.364850963251602711e-01 2.306736111626352670e-01 8.842141997826109545e-01
2.335728709211749576e-01 1.394309954120123707e-01 7.135888842976377822e-01
-5.501653611979253622e-01 -8.393442328853738532e-01 -1.668345196952394083e-01
-7.808286115914543635e-02 -6.117255921769235716e-01 1.793083709240421153e-01
6.698040763210375559e-01 4.009849871099553931e-01 -5.659772398037387076e-01
3.297907921334624071e-01 1.055499174946258334e-01 6.270890054133950731e-01
1.489308055097837528e-02 1.679761847526128893e-01 -1.935210364418021856e-01
1.921836324539938912e-01 -4.426579767558647127e-01 7.399990556465237124e-02
-9.606519211878280506e-01 -1.664439870851747716e-01 -8.331195679127195719e-02
7.735934587171163779e-01 -5.179408854683207816e-03 2.496848176020911025e-01
-7.358160432303924026e-01 -2.691176637381497913e-02 -3.268604667970523847e-01
-3.099365691091783281e-01 7.070085219877281224e-01 9.804349869910519710e-02
-4.506504800066998828e-02 -2.371632782141856466e-01 3.156635701788381154e-01
2.522180279018855845e-02 5.922314726600064324e-04 7.062772349351470469e-01
-1.306014456619797592e-01 8.410461193725737861e-02 -7.535363593603172649e-02
-3.728404615572382119e-01 -8.104043979625474847e-01 -5.411502129979575137e-01
-3.842373873862386935e-01 -1.958384839918921039e-01 -6.873531422977664507e-01
-4.005147691865865861e-02 6.543353110595426236e-02 -1.971598115401881068e-01
2.896682290374717472e-01 1.008722664112201989e-01 6.460537065763507503e-01
-1.433886581120371456e-02 5.776431388855449156e-02 2.268751660993875013e-02
-3.085539744053747424e-01 -3.585956450268020790e-01 -7.854131873708612988e-01
6.559467434044224639e-04 -2.740919088884072874e-01 1.656202813565904874e-01
3.562919782477764197e-01 5.039558634636988055e-01 7.498992955290419982e-01
-4.203430832712727883e-01 -2.991987573068286693e-02 8.147585404830993694e-01
-8.353036947018798175e-01 1.140168183976408983e-01 6.113331657793799057e-01
8.340504063326449613e-02 4.119648940740641141e-01 -2.943634607047970753e-01
5.635319411563716185e-01 -5.622555074996419266e-01 -1.444344333475893749e-01
-8.200433163367726319e-01 3.457720579070132638e-01 5.035440705460142441e-01
-1.332426184943961700e-01 6.885118698421638372e-02 -4.771407223868416869e-01
-1.441451239138512030e-01 -8.821763387694205871e-01 -1.122583098030092014e-01
-1.987447969397702907e-01 -9.168133533026523452e-01 -2.646686011429206786e-01
-9.402696955088776232e-01 -2.800264968625825746e-01 3.444360019537144324e-01
1.740165474891133823e-01 -3.692767013539659943e-02 -8.388979718489369963e-01
-3.950911650172484468e-01 1.272969263568901332e-01 -2.650785434114904526e-01
-4.217032613665758767e-01 -1.427001179684005095e-03 -4.682277552102500073e-01
-1.310647162231275420e-01 6.977365639917785245e-01 -1.502193331988994386e-02
-7.651257364522651497e-03 1.211886627346667328e-01 -4.324956266270484767e-02
9.477256649851061032e-02 7.274545514453376605e-01 -1.223873603268443577e-01
-7.720827167466132526e-03 -4.944961811761067888e-02 1.145305890217634265e-01
3.213129255669362472e-01 -6.828060623399179185e-01 -7.191047450396237384e-01
4.509014938389387939e-01 -5.128223992076692550e-01 -2.462607300284694670e-02
-8.139934524132949600e-02 1.874962608153646695e-02 -4.927449884664145824e-02
-3.842505217552415475e-01 -8.617574332262585290e-01 -4.283354148231189318e-01
9.349737140197603713e-01 4.678497828817934634e-01 -1.792263786816515603e-02
-3.253450558294705419e-01 6.258920634530308613e-02 -3.674731648217112179e-01
-4.564245135350492727e-02 1.731961772672049871e-01 -6.396883624441881966e-02
-9.220616460663800806e-01 1.124503912342128820e-01 3.639505868636478542e-02
8.696538533777616042e-02 -1.553652125095414220e-02 1.048511563836184712e-01
8.152199667342385769e-02 2.970272906122060075e-01 -3.747907023584487463e-01
-5.785979757518099342e-01 6.339873560485715931e-01 2.731405984208105653e-01
1.125332567519794491e-01 8.084428871282998141e-01 -4.214482475845277021e-02
-3.950123041043335781e-01 -5.369961292723303137e-01 -7.306905072218873309e-01
4.604584120893699950e-01 -6.812868984721212051e-01 -2.218722010735105499e-01
-4.986028036079971915e-01 2.791526778274893705e-01 -1.385405213919015666e-01
-4.551514974912385623e-03 6.832020256228445165e-02 1.231317366817705553e-02
2.457496758196960757e-02 -6.252319291187964471e-03 6.991760929959296433e-01
-3.231397172302056808e-01 -3.418315411315773350e-02 -5.664949914076736759e-01
-7.161436036986527920e-02 7.528490452479268125e-02 -1.451126373712141072e-02
-5.492901615069847171e-02 8.946822568026825684e-02 -2.689807352926181783e-01
5.106118941719620663e-01 8.651586627511808070e-01 1.184340219009075018e-01
1.834487352608012711e-01 -4.473431783909576076e-01 -8.913374707135762742e-01
-2.906416095215977879e-01 -7.311061844045539937e-01 1.942924151090079377e-01
-1.854324225176947338e-01 -3.498874662828461157e-01 4.746559405554071631e-01
-6.647109336072608565e-01 -1.970030104461185927e-01 -4.981299096616045863e-01
-1.701226380749170652e-01 5.883573300488984525e-01 -5.773464362026534125e-02
-2.558561720879229048e-02 -7.151323956228830547e-02 5.431018179354882985e-02
-5.349810233338815335e-01 4.987983650281306858e-01 3.278759361171414838e-02
4.373923163965660610e-01 -3.426486212062629377e-01 8.110222624744646558e-02
-4.813335456882492785e-02 -8.013604853252492832e-01 -6.665548839573990358e-01
8.558183647355902535e-01 -3.063554136560483476e-01 -4.546525048452522144e-01
5.539270502561954163e-02 8.545471762727525622e-01 6.016468428467648677e-02
-1.939759286020382723e-01 -4.658063234185698398e-02 -6.676368667616641162e-01
-1.641998188841866102e-01 -2.065289041143354709e-01 6.165454208628666777e-01
1.434670765038540893e-02 1.600632075144975408e-01 -1.745054587866425866e-01
3.419451024226776159e-01 4.499009825216594982e-01 7.623996669459673914e-01
2.079267545250416127e-01 -6.121993751199869549e-02 2.761746623579763860e-01
-6.963335145852348473e-01 -2.381327296310037922e-01 -4.890813480155521975e-01
-5.115520399127505835e-02 -3.668030953864112598e-01 -8.779763697675748713e-01
-8.539348616247400825e-01 -2.795906289650740839e-01 -3.191204959147078690e-01
-3.320915221276008605e-02 -1.552379629680934736e-01 5.185058390307023535e-01
5.095104834867060228e-01 -3.898254911394836986e-02 3.590181622470321465e-01
5.788551287404528622e-01 2.209901228616690250e-01 5.603884149806318549e-01
2.997578794697035587e-01 2.047755208542184346e-01 -7.181283932373885293e-01
-7.592149792253984897e-01 2.263566947370045102e-01 -8.112440709301126096e-02
-8.378203551398019089e-01 -7.424779581022071528e-02 5.976627641681497849e-01
-5.982073406112237840e-02 -5.457850435299503866e-01 1.998416121048518512e-01
1.294311431107747767e-01 -1.980875237741578920e-01 6.266065513946163235e-02
9.041633524979033609e-01 6.451872118348521423e-02 1.395555712015464633e-01
7.618024438826986877e-02 -4.616645884867245364e-01 -8.878385692380799110e-01
-1.166676557105037204e-01 -4.256650900150775185e-01 3.173100689846607980e-01
7.531764579469904519e-02 2.731141319847779081e-01 -3.923861378184319570e-01
-8.986180811400049095e-02 2.653215900244413339e-01 -9.427336566270994034e-02
-4.381327204869407410e-01 1.418139286449095204e-01 -2.566687857965932462e-01
-2.847798945548215069e-02 4.410151994934881636e-01 -1.647647716303748677e-01
-2.156722171902027488e-02 1.411434931610772159e-01 -3.971956626136654567e-01
1.346341222880869104e-01 1.927157603222401927e-01 -6.285468711232348182e-01
-3.943037220503100015e-01 -4.475149643551862289e-02 -5.421228944631841795e-01
-2.251609987544518354e-01 7.810202421572914888e-02 -2.714320848529188090e-01
