-1.194952834786169732e-01 -4.675672563537686677e-01 1.516683805626452101e-02
7.392850636348372584e-01 2.723494235561259025e-01 2.180476493133837734e-01
2.999710341637262800e-01 1.955415576811815603e-01 -2.585323486163348602e-02
-2.477594992226515025e-01 -6.458906927942243970e-01 -8.137515696951642674e-01
-3.910620480208144012e-01 -8.266613109205779297e-01 1.098641885159584580e-01
1.902679675368762202e-01 5.668101646817021999e-01 -1.391640486583050063e-01
5.417357603011554446e-01 2.015984383031514116e-01 2.571367010599269198e-01
-4.805267720019004013e-02 -8.651748207414075020e-01 -5.822957943915436640e-01
-4.898479591773622355e-01 5.293380983423756625e-01 7.845861811468738400e-01
8.201001184031155022e-02 -1.023685623286508944e-01 -3.246749446477873446e-01
4.783617200923062640e-01 1.943143374344531993e-01 2.595266343895716865e-01
6.784160094618874037e-01 -3.558020420620819912e-01 -6.465396685120977649e-01
-7.636709965327026506e-01 -8.577563881938300716e-02 3.180418631741629282e-02
-3.660844420759075679e-01 -8.947656976314862787e-01 -4.853336997239676709e-01
-8.796581562491051498e-01 -1.196637024471258887e-01 1.399891701305109037e-01
-2.545325817178729563e-02 -8.477100203492052843e-01 -3.157423981878738628e-01
3.581276580621688965e-01 7.932284772864064415e-01 -1.589972671072633070e-01
2.712719221101090317e-01 -5.021639654182099566e-01 -2.770045604802582884e-01
2.833512088517560756e-01 8.400281027007842072e-01 6.679847630617371523e-01
-5.615101946433805058e-02 -7.996512738180668045e-02 -7.584131314643898225e-01
-1.733643996515363550e-01 -1.224603346362923145e-01 -6.070999790199707036e-01
-8.884517560387805712e-01 -2.455661336605280964e-01 1.659662119519074441e-02
9.597229958186580534e-01 2.762095583608034643e-01 -3.574997947416421185e-01
-3.937916604138649301e-01 -2.631798167195416593e-01 -6.006624710266367240e-01
-2.786621137015020677e-01 -1.703210201778057875e-01 -3.947908019928764167e-01
-4.428105745162244644e-01 -4.764881963991582370e-01 6.171011723975020624e-01
-2.750745712246982499e-01 -7.018483604266392839e-02 8.927797912977829542e-01
9.476833020688347764e-01 4.063545527255772449e-01 -8.354070960863649309e-02
-9.796966554830321972e-02 -7.162897562972198040e-02 -5.776957292519345755e-01
7.076424079431490322e-01 8.160573271044899712e-01 2.439933810793296909e-01
6.972625754931920383e-01 6.306027032217014217e-01 4.546236448184605705e-01
7.953259765630185107e-01 2.908434326852369356e-01 1.708916928771190002e-01
-6.049458397539429072e-02 -2.541187876494507836e-01 -2.182604536424565811e-01
1.573581237014196332e-01 4.909434823060543907e-01 -7.472730604667447707e-02
-2.794995001239406474e-01 -2.049709572477251551e-01 5.478436428783996746e-03
-1.209797781263352995e-01 6.951127646537311744e-01 2.644262167219407211e-01
-8.988467528451393740e-02 -7.028541320618053589e-01 -5.815074529752461974e-02
2.394949501691797933e-01 -2.007748869740046405e-01 -2.434535634066808119e-01
2.789509606667260957e-02 3.121696832071659267e-01 9.427989895942617826e-01
-5.472315684183783890e-01 4.836610546189640814e-01 4.810548536762611627e-01
3.763253071089707191e-01 4.511284004048824459e-01 7.646129456031397487e-01
-5.192310897081312548e-01 -8.939664511329712404e-01 -3.249903686696838934e-01
2.640788710141093176e-01 2.886141141963853296e-01 -6.745840234442582739e-01
1.623642549165545679e-01 1.803491086225924578e-01 -6.591327744485928619e-01
2.108715805764298235e-01 2.101588344889880333e-01 2.812787159149277572e-01
9.223855978169277492e-01 1.481801559113513078e-01 -5.198621746874779737e-01
-9.106998497735642462e-02 -7.282739180006975177e-02 -6.642213536925136719e-01
-7.416030530783115360e-01 -2.007666695183566996e-01 -1.358028936464942826e-01
7.773390023775070823e-01 -2.230345630939881418e-01 -5.880565703895025420e-01
1.935820545815868654e-01 -1.485443440062904075e-01 -2.609480999499013132e-01
-3.894754293683322377e-01 -7.941564943946031185e-01 -6.340178967899042783e-01
-5.665470319126466592e-01 -6.465121914261910963e-01 -5.872947923276624627e-01
-5.644565186441611315e-01 -8.745777784941575206e-01 9.945281361251995592e-03
6.514995040895666945e-01 -1.749982685050812392e-01 -2.511762171825275280e-01
1.740106116204188924e-01 1.470340225634069464e-01 -3.657066559747518264e-01
-9.293738487429213935e-01 -8.481762455180251459e-02 3.774151396169363459e-01
5.873278455832677825e-01 2.174474601330371459e-01 2.664101526627463135e-01
-9.618874447958532248e-02 1.806226574187453637e-01 2.948567890678279180e-01
-5.924966099160965394e-01 3.095034383272865508e-01 3.295894593333555944e-01
-8.384458660883469250e-01 -5.704970139139027285e-01 -2.138088266962464012e-01
-9.612722519614917971e-01 -2.487422911364584044e-01 3.231053033437037980e-01
1.588146611095657412e-01 -1.406511275481820700e-01 -9.560749783873766505e-01
3.721791113383560168e-01 8.689278894705314282e-02 -8.240482793805660455e-02
1.534170736479357859e-02 -6.751519751738631614e-01 -1.535533822593800612e-01
2.826618743613958443e-02 5.920202264996517888e-02 5.018891383764576553e-01
2.858917376620219719e-01 -6.294477206558853899e-01 -8.211730029057742186e-01
-7.187910616777016225e-03 8.602054953369336898e-01 6.258133074106470017e-01
-3.050377730908164775e-01 5.525363067928060756e-01 3.223490502944241776e-01
-3.129577156195523790e-01 -6.384079481937156020e-01 -7.843709887616675536e-01
-4.295222467578834746e-01 -1.613629832794452323e-01 -1.822088200114255763e-01
5.564938831047530066e-01 -4.838921095650750015e-01 -6.958985056340386555e-01
3.788802794229828574e-01 1.556747214890394637e-01 4.266617174415710673e-02
5.069557194226170793e-01 9.199811191437621272e-01 9.097878219255205179e-02
3.050519622763323696e-02 -2.995066920030633496e-03 -4.687611605776323964e-01
-9.588325385037739512e-03 3.438336109582896261e-01 1.972774011351812740e-01
-6.066432552770547465e-02 5.224011417167465643e-01 1.677959489739356824e-01
2.815060053980860677e-01 3.250278116062195743e-01 -6.497721860040760467e-01
-2.614770962168432300e-01 -3.438675925416618817e-01 5.665047400423591784e-01
4.078272152678600465e-02 6.783127671223833088e-01 1.006673864971826676e-01
5.351144621865364659e-01 4.290168923006759671e-01 -6.995720456721075120e-01
-2.664673418952081541e-01 -8.405928884711416638e-01 -1.887019031604238173e-02
5.900878419320352286e-01 8.985126559583909156e-01 2.368417167191122774e-01
-4.448065193741131962e-01 -2.433979140073454783e-01 -4.955152600371252047e-01
-9.439390887900040994e-01 -1.921642757558838510e-01 4.562406184608652215e-01
4.404523157170464609e-01 2.023857867172436098e-01 3.048884283178485144e-01
-7.095224041942617410e-02 -1.894640787587898584e-02 4.697760742168471948e-01
6.665421012629340058e-01 3.505208074176727195e-01 -7.400737772880038312e-01
8.693532133625676839e-02 3.452641813095606027e-01 1.391666762922380840e-01
1.559447379892919539e-01 3.700046766634730866e-01 8.930696309335484084e-01
-4.650371556311775345e-01 4.195652879439317195e-01 3.382760273599353384e-01
-9.545382857829699530e-01 -2.254312334926156514e-01 2.549762160947862122e-01
-3.651238541066442744e-01 -7.640982216778764713e-02 9.200746955968022722e-02
-5.131065031024040907e-02 -3.747023068782067701e-01 -1.194911222372981863e-01
-8.202306582068447094e-01 -4.483040116164245248e-01 5.621908772078068051e-01
4.232437893486573621e-01 -5.189363711952241776e-01 -3.893007936826891058e-01
2.216427419879476723e-01 4.828603354075452492e-01 -2.473609589286406563e-01
-2.505922068409377479e-01 -2.601402851763735535e-01 -7.606560959764963048e-01
7.109317387843844260e-01 7.828593774843567443e-02 -1.592969297936379369e-02
1.569427808924359624e-01 7.825697142749395985e-01 4.355460517899100575e-02
3.077549293801952555e-03 -3.751167932634595914e-01 -1.564889158835221783e-01
2.303987749854203779e-02 5.170401972250562167e-02 5.103662459671295393e-01
-7.575233061292035996e-02 -8.863731789128983518e-01 -3.801939052244354689e-01
1.705233846025736022e-01 -7.809538878693687014e-01 -4.843103136194256697e-01
-2.970793913634744432e-01 6.429546876528534627e-01 8.284765860765821444e-01
-3.154399343264978617e-01 -4.179847778785976686e-01 -7.963387271017423608e-01
-5.394322964536222287e-01 -9.002092690711794853e-01 -2.398203314151002574e-01
-6.308365360950098609e-03 3.072950010940235233e-01 9.557149200142761591e-01
4.441598580023620735e-01 -4.533604286342252099e-01 -8.802696252241669628e-01
-3.989328325153316812e-01 -5.066940376583031203e-01 -7.495865049078201947e-01
7.527653359251704202e-02 7.124428997976723910e-01 8.048654481579337050e-02
2.060513652613864821e-01 2.314519118380524709e-01 2.225544636231613083e-01
-3.054131197261405334e-02 7.973448096239693639e-02 4.016179770909834579e-01
-4.640979790868902666e-01 -6.545799149168654019e-01 4.175999724636730859e-01
-6.520626437045001778e-01 -3.261399603199376385e-01 -3.911819630673940007e-01
9.121153684768082970e-01 5.324098027830257429e-01 3.957581812062812426e-02
-2.524925357444171015e-01 2.765483157407309656e-01 2.505687929480508447e-01
4.912009952010287783e-01 3.866404104584946766e-01 6.238609488595106001e-01
4.062990038282701111e-01 8.206835106504289934e-01 6.235889745595916134e-01
2.559492959067444229e-01 7.314931544311369382e-01 7.825812551047701682e-01
4.904923677828522122e-01 8.296978220843009844e-01 -1.739675336517001181e-01
-2.918937757391547594e-01 -4.641040047247863565e-01 4.569560228010756120e-01
2.347967714590285249e-01 -4.451044131313196955e-02 -2.537328213202283966e-01
-8.875669631571939666e-01 -5.505434702471501129e-01 -9.281622090405300396e-02
-1.968920882049687571e-01 -2.555013654937827727e-01 5.049912169042009014e-01
2.267089603420946453e-01 2.577111419703297379e-01 1.090278647461333100e-01
2.128964853363690957e-01 2.019184445277834583e-01 3.064371866434106306e-01
6.845241558571132368e-01 4.383737310861947067e-01 4.417857452740799884e-01
6.406111699366887624e-01 -1.527138384210998401e-01 -8.745373431028401479e-01
-1.682623804822574454e-01 -1.465308935183775862e-01 7.188144993261981197e-01
1.476833027797355147e-01 7.732307806078426715e-01 4.477583638877297156e-02
8.954792446288158958e-01 6.286828943460893993e-02 -5.707089714587536555e-01
4.688602656055290141e-01 5.211673300512621732e-02 -4.738056322822036676e-02
-8.815721302003616255e-01 -6.095936669215846759e-01 2.301959426067520242e-01
-5.771705690203612349e-01 1.881008916981299073e-01 2.290580313313889671e-01
-6.364738023535225775e-01 -2.758679414370578953e-01 -3.446266457474828626e-01
-8.208350389264983393e-01 -2.171631198964041679e-02 7.271780272407526446e-01
-8.207884585975664393e-01 -6.741681720753405216e-01 2.481904004945931219e-01
-1.720797833534384036e-01 -3.811114785417443751e-01 6.519908087525126683e-02
-2.211299859040558313e-01 -2.745113619409255135e-01 2.026723661651142760e-01
7.308098532267279790e-01 7.179117408612524509e-02 -8.136039049140751933e-01
8.226738947766207843e-01 -7.787374579679862130e-02 -3.194201513543644677e-01
3.482785221981164470e-01 9.471176339974770597e-01 2.565165187878552522e-01
-2.162116458226087112e-01 -2.537440989660550983e-01 2.672629341247890200e-01
4.571212303886348916e-01 4.527514149485292738e-01 -6.570554609225667253e-01
-3.900784174784763803e-01 6.313915831203328333e-01 4.884409770643423632e-01
-5.915848556447680373e-01 1.030790420677652613e-01 1.652969757195453804e-01
-7.614016629550094395e-01 1.168236073543536258e-01 7.757523728799728957e-01
-8.796378023507446242e-01 -2.096569141845647521e-01 6.239649053015777769e-01
-4.517566958907064389e-01 4.621309794559594897e-01 3.597944969226629097e-01
2.137006918759333240e-01 -4.810026959842363392e-01 -2.422883970776735785e-01
5.905980889419585322e-01 5.655577120765135218e-02 -1.060625041125115575e-02
-8.811043613714611977e-01 4.990380737018243473e-02 4.568532434341180393e-01
-1.880307138988447091e-01 1.025687936913374232e-01 2.864904180947299706e-01
-9.878279373683521158e-02 -4.672391375762112165e-01 -1.542042396064903856e-02
-1.410886021033435078e-01 5.849066642167732866e-02 3.302955654145916520e-01
-6.143376974074697960e-01 4.414063181544016223e-01 6.947360876095715065e-01
1.043965665896411099e-01 2.712605709146051220e-03 -3.786332104308827162e-01
2.628851616349637821e-01 2.222375529421641016e-01 -9.380808572314397464e-02
6.067781421372134276e-02 -4.028513344265313156e-01 -9.670656392463136131e-01
3.538217061228398630e-01 1.981349303108665139e-01 3.010210337013956017e-01
-3.716818188992350724e-01 -2.173483166601223593e-01 8.263251538796481110e-01
2.585740471211926406e-01 3.629711032694604156e-01 -5.450692961963857774e-01
-6.326355810075258435e-02 -2.978213644126547280e-02 7.354500456100425687e-01
1.173307629843487604e-01 4.635515683094872386e-01 9.029492570649978733e-03
-1.555465785098941603e-03 -7.037180679955505891e-01 -1.535979220106206133e-01
-9.193391827698649266e-01 -4.436912419438784339e-01 -2.149291974177239967e-02
-4.827514425173323742e-01 -2.360479806152572246e-01 -4.314905009377766887e-01
-6.091285261961967290e-01 -5.224830913683889966e-01 -5.563914761497776862e-01
2.570770774176401319e-01 7.438264983435517452e-01 -1.158412498546521063e-01
-5.989223324864366704e-01 -7.917903574235475306e-01 2.258522988261071895e-01
-5.219568469310452707e-01 4.951118342173255193e-01 4.606170247480355084e-01
5.601207309585536365e-01 2.252612433754104804e-01 -8.409266738653249362e-01
-1.961404246315122668e-01 -1.798388339830532812e-01 -3.105058961246527915e-01
-1.838040795879879452e-01 7.317751935393057572e-02 2.956032818390113559e-01
-4.285433450678751144e-01 -1.679876693305837609e-01 -2.123511635287515242e-01
-4.094613121739257844e-01 -1.547376669797393134e-01 -1.356166844528348125e-01
-5.557996141963140735e-01 4.049793017998206679e-01 3.897239503133064220e-01
-2.402936642394122024e-01 -2.374167090864766627e-01 1.349890194528390042e-01
-6.236352248420340416e-01 -6.011927589624280754e-01 5.166336029287170728e-01
4.784493455561049102e-01 7.640219234489503686e-01 6.225237586418540525e-01
5.333358695093008972e-01 5.197561625302644650e-01 6.426605030011203201e-01
1.935866337216079480e-01 8.988726970389856463e-01 5.875929778276373083e-01
-1.398762012265419852e-01 3.979546043185015480e-01 2.230418187768098692e-01
-4.077476950826997015e-01 -1.312710327654134923e-01 -5.479980549853779442e-02
-4.370562836007085283e-01 -5.168477391248481601e-01 5.685880094817962194e-01
2.148664815801115402e-01 1.841236670187307578e-01 3.682872343575153695e-01
-3.935217949570418705e-01 -1.271201475854300544e-01 -2.616572277070410707e-02
-7.850640633887324693e-01 -4.405867036920791402e-01 -3.023469106904224657e-01
3.015538396418040445e-01 4.397717825853537654e-01 -5.217029402906191438e-01
4.945463880906298959e-01 6.229131183958017681e-01 -4.845620016482500847e-01
-7.735070915789158397e-01 -4.774640747102641414e-01 5.792627567073533879e-01
3.483860286577005611e-02 -8.367577161325502333e-01 -3.858914200151009055e-01
-3.400733704755802278e-01 6.384535363429452159e-01 7.985773643075069206e-01
4.273701944722058110e-01 7.476067669272083993e-01 6.744986209157325385e-01
-5.421375900316685037e-01 3.497756944278989505e-02 1.055415290436245573e-01
-3.575258217738153110e-01 -2.484739483924292280e-01 -6.220863134262789584e-01
-1.594033032163711672e-01 7.444769195798141004e-01 7.766291408628641646e-01
-5.521410400384431372e-03 -7.496096356370293146e-01 -7.872579830284873736e-01
-1.719723535769673572e-01 -2.423473931911976631e-01 -1.738335622799835611e-01
-2.344453558598220966e-02 -5.192516204245082312e-01 -9.302981401797451033e-01
2.462463439585836078e-01 2.367791421891158599e-01 1.493688534654672995e-01
-4.213988074790767091e-01 -4.671575676085957252e-01 6.140493644473598023e-01
-8.556164429264293547e-01 -2.858285098457825635e-01 6.307325014322101575e-01
4.812661864901545683e-01 9.766675156991708531e-03 -9.373974666801995204e-01
5.982959675787984377e-01 -1.797031855901127378e-02 -9.403819478063411841e-02
3.118966186681413899e-01 2.061128494746006790e-01 1.777047160703104367e-01
4.874261666090305423e-01 1.835106459487919339e-01 2.223302723337216569e-01
1.239615356809156965e-01 1.456981939145119975e-01 -6.104548120691054569e-01
3.170397809820090229e-01 2.002957846649836837e-01 2.727730887187928555e-01
5.602794193392122146e-01 6.278025942766841672e-01 -4.960968729321799664e-01
9.158972705940435777e-01 5.778821264761221377e-01 -1.867913405761207624e-01
2.060652604959910816e-01 -4.503462812130679671e-01 -2.346123275520758111e-01
-1.307031940717041374e-01 -9.414970994641211344e-02 -6.059325240785486955e-01
2.562872595011950194e-01 2.843704291432680442e-01 7.719548260861076594e-01
-7.505509852084257805e-01 -1.498520721813373646e-01 7.882308202583844237e-01
2.101753447509550621e-01 -8.910505012820346682e-02 -9.523240443745376593e-01
8.737155836191469460e-02 4.411806045024349587e-02 -4.411661021915459502e-01
5.435999980276355267e-03 -7.390720978235072458e-01 -7.980608308780579030e-01
4.790639170856275109e-01 -1.056054078037933081e-01 -1.711449343606499529e-01
4.186842332118805854e-01 6.266123569817872996e-01 -4.341356991826909040e-01
2.072610079885789380e-01 3.013120204942624780e-01 1.732576415345031887e-02
-5.727083341534209282e-01 -3.249587919672173308e-01 -4.800359519618659365e-01
1.914917488257403821e-01 5.884676957773302686e-01 -1.337406758191621026e-01
-3.212849403574406515e-01 7.055949859923770218e-01 5.453294065185002593e-01
6.732100847410089628e-01 3.149108325225146165e-01 3.441275001923640442e-01
-2.584799753267249395e-02 5.489257676136037878e-01 1.405539777988407402e-01
1.983805201707689314e-01 3.279593059523548404e-01 -2.410202648682098839e-02
-9.176580739779032214e-01 -1.917554900321814804e-01 1.410025913282395016e-01
7.847987783644557735e-01 -1.112221230052947984e-01 -3.026650991369464472e-01
-5.031956814006316447e-01 -6.408270162868826558e-01 -6.489178824740834406e-01
-8.944951236218565693e-01 -5.629201923777177319e-01 -5.797154077719723908e-02
-8.266717551695149657e-01 1.257910464768655090e-01 3.949993313551820040e-01
-9.026372778224536209e-01 -7.855133322792473560e-02 5.741237938474765823e-01
1.783370240522461903e-01 -2.400664941424252019e-01 -2.450987574103749567e-01
-2.933874578297028801e-01 -3.714922132109427788e-01 5.894637393044170892e-01
-6.823299035667775847e-01 -3.032690424684409969e-01 -3.302079713831140295e-01
-2.446466696161013199e-01 -6.215587682589637786e-02 2.476317721021314699e-01
-4.666228215536242785e-01 1.042067537978932368e-01 1.720818426771249243e-01
9.893477291510474614e-02 -5.527341874473257199e-01 -9.302812051683834182e-01
-3.150183526611334828e-01 -8.388064566579325199e-01 2.909256880673397050e-02
-8.639296533587758065e-01 -6.661118228315143774e-01 4.354512365294804094e-02
-5.238607213735720913e-01 -1.163661884375578465e-01 -9.261307250194167340e-02
4.953307075181940244e-01 2.301501268283906998e-01 3.657379735648877972e-01
1.030278081952447078e-01 -7.042308329168263104e-01 -2.574245275147146184e-01
-7.788437529959054695e-01 2.384840108908676259e-01 5.309110342858774922e-01
4.536158898369731518e-01 1.595901881791202959e-01 1.377526548395191508e-01
-1.906815000787497605e-01 -4.356978594517619263e-01 1.609298952958079509e-01
2.993393266164743882e-01 1.927580456955380883e-01 3.853338228819078171e-01
-2.604775887658200006e-01 -2.173624454974845688e-01 7.123307585149381282e-02
4.991328094203404953e-01 4.223645691854996387e-01 -6.997630455172691999e-01
6.507651261345037685e-01 1.033835946122049904e-01 4.295304418393262186e-02
-6.833464448615290676e-01 -4.281327979402216877e-01 6.740838305676530862e-01
-9.344559029848049647e-01 -2.123599723623441904e-01 1.699874548875302260e-01
-1.210559720625033024e-02 -8.293832255123481101e-01 -6.633136516978103137e-01
-7.665163619147041807e-02 4.445001386326436627e-02 3.935918742658087166e-01
2.428954546567474795e-02 -8.213058867607098135e-01 -3.247892215297265572e-01
-3.270687102837123161e-01 -2.216893900951333873e-01 8.003845709809549458e-01
3.586820652027087886e-01 7.108201893771559643e-02 -9.158810638034534657e-01
3.698821361578880085e-01 -3.392543662109050451e-01 -2.632933982676645690e-01
1.151290050674049631e-01 1.353829162952583376e-01 -6.014375718248307079e-01
3.116996470909151884e-01 -2.351864355234158654e-01 -2.366185161372748313e-01
-4.112740775962522854e-01 -5.277365204765404050e-01 5.370595899548827878e-01
-1.985422124362543062e-01 7.355223818169535736e-03 2.973641814792311600e-01
2.787178912424443933e-01 -2.571791978610389329e-01 -2.397703587315254958e-01
-8.742701823448445486e-01 -6.374526139851107720e-01 -2.208839371538720911e-02
-3.852528235689124392e-01 -2.548508377718751716e-01 -5.972316425193519018e-01
-9.094909577711515203e-01 -4.644050907773160097e-01 -5.262239252983155757e-02
-3.798706730668581777e-01 4.255122163396357626e-01 3.016361743534617390e-01
1.565309350942300504e-01 6.056713744709885106e-01 8.830295534302416982e-01
1.038253242872117215e-03 2.725650016200826808e-01 2.423448146518023816e-01
7.657400223462426103e-01 2.354614040954818577e-01 1.434074567262414168e-01
-2.657771300297743014e-02 -3.773790870938664721e-02 -4.986677663575328490e-01
-2.017496292011784209e-01 -8.666010479324514071e-01 -6.098098872567164763e-01
-5.323727312597480443e-01 1.484267862650127112e-01 9.494143478345943299e-01
1.513657333309134934e-01 4.128649271462061371e-02 -3.477357038179076376e-01
2.137797305964710681e-01 3.282363963720816846e-01 -3.017830161048229987e-01
-5.764383354637140355e-01 -8.629276345843323037e-01 4.635053409216231823e-02
-4.957481922400954755e-01 5.244269458771066983e-01 4.679189354740154738e-01
-1.444831232815191324e-01 -7.843854508777993173e-01 -7.427268783132929819e-01
5.714693988150845727e-03 -8.070014184331183449e-01 -2.719178263282620023e-01
-1.740805904794321957e-01 -1.780707166835332478e-01 4.172874596112264300e-01
1.695969610678428052e-01 1.624428532591934149e-01 -3.883323884374108026e-01
1.845536055513772311e-01 5.676549914343910208e-01 -1.278823555894246511e-01
-5.090482449008057464e-02 -1.599665077084453657e-01 -8.545559382207487120e-01
1.321781916155643499e-01 -3.231681794675885233e-01 -2.225337544486769015e-01
-2.567412297795147458e-01 5.586754317703167549e-01 2.945749492927111635e-01
2.936674276183948162e-01 -3.759935220990650029e-01 -2.540767297255273616e-01
5.432038312023463877e-01 6.599778011498755870e-01 -4.528118842848432579e-01
-6.772498454361504105e-01 -8.428684510805334318e-01 -5.869291437731485178e-02
-1.560509910234340603e-01 -1.110929691917847822e-01 -6.060160770991910306e-01
-2.647185269869129290e-02 -7.672299387457187647e-01 -1.813579028015213923e-01
-2.416092032944872348e-01 -1.628762588453833426e-01 -5.966345936900165903e-01
-4.473446166912630195e-01 -3.471112537671572351e-01 7.469143479541459074e-01
5.127143250374734951e-01 3.702510096116534699e-01 -7.465078563761020636e-01
-7.867724986268360698e-01 2.181451633817842739e-01 4.873608100583659009e-01
3.746382910301374047e-01 2.027584725132942356e-01 3.573313901778850110e-01
-7.078425711683806743e-01 -2.539436635419576316e-01 -2.401398969777551184e-01
1.972563981843418746e-01 6.114038173935193443e-01 -1.337115655757207811e-01
-5.953321052035882577e-01 3.407813093389118753e-01 8.530386447482722900e-01
1.931957341365758696e-01 2.445970872086321857e-01 -5.912942118292087157e-01
3.675522471995551488e-01 9.447412675552968597e-01 2.228120741862610610e-01
-2.289364077400576902e-01 3.059109609549783837e-01 2.492713147466144308e-01
-5.334397487948149691e-02 -2.398273850101568516e-01 -9.007406745913809631e-01
-3.483929734272491197e-01 -5.128934432986833603e-01 -7.864801329060548962e-01
-5.975906451510873962e-01 3.420722429092452055e-01 8.498635366447139239e-01
5.640062807129333500e-01 6.477745892754016577e-01 -4.716528992185516911e-01
5.519710744288108296e-03 -3.148438768056718851e-01 -1.921293695685303282e-01
-3.828161701055557420e-01 6.587070034598032642e-01 6.828496584685995741e-01
-4.631191182541543050e-01 -5.886964152837323994e-01 -6.955043240974685403e-01
-2.818552789463809605e-01 -1.875406249616328458e-01 -2.537769290977355818e-01
5.996594354051852649e-02 6.754339084576309327e-02 6.868213860049250385e-01
-6.530972846136504639e-01 -3.882035715823286409e-02 8.779642401791473150e-01
-1.062404142388418127e-01 1.748932635465449414e-01 2.949063510506045871e-01
9.634455159803385627e-01 3.586137153147041512e-01 -2.859162018355586032e-01
7.426206086324300959e-02 -1.481881475364891232e-01 -2.993185684329927043e-01
-2.467637765517299020e-01 2.535734797239485028e-01 1.000000000000000000e+00
1.343872552854537272e-01 5.379720190505805633e-01 -4.068948988514697884e-02
-3.520983251012135273e-01 -9.246850122294614227e-01 -1.987157319600153238e-01
7.214243865557659618e-02 1.756380562823400271e-01 8.457964740851713348e-01
1.430654643220773681e-01 -7.652486626406322934e-01 -7.068669392593084355e-01
-9.002315935735279995e-01 -1.367956989539790835e-01 5.929177971898431654e-01
1.598387679639277081e-01 3.731615539172939977e-01 8.117860557505999011e-03
5.577753982133035748e-01 9.150331386608901996e-01 1.963125548907072582e-01
-5.741128464914994067e-01 1.031642626872263102e-02 9.228880728139272627e-01
-4.677723407548247669e-01 2.052197993169897483e-01 9.706338668261400571e-01
-2.790959499098770169e-01 -4.326438488123608705e-02 2.117224608098667027e-01
3.001993914536428276e-01 3.304752607754870564e-01 7.684398696807048790e-01
8.235468428848061739e-01 -1.485335335270905610e-01 -5.007483875431130160e-01
-7.714907094118229613e-01 -2.787775735055298409e-01 7.210321192243237531e-01
-4.296886110512757595e-01 2.934605791759395954e-01 2.623436502904975542e-01
6.266486441947073383e-01 -3.520620628272195796e-01 -4.137223301640696738e-01
2.208550619755761113e-01 2.911641691871178494e-01 -2.030113326568672993e-01
-4.483403130308928342e-01 -2.851539325535105973e-03 1.004747521767595658e-01
-2.298818591894714880e-01 -3.087465147019109457e-01 -8.147969833088327674e-01
3.902035496720914765e-01 2.037337540140262693e-01 3.472666268848483284e-01
1.667125637556492457e-01 1.623742571807604285e-01 4.110177799456667391e-01
2.075733357847634464e-01 2.983324710204861563e-01 8.261824256404987077e-01
-1.857120310573735500e-01 -1.589917876497999039e-01 -3.696980142220913090e-01
3.605256067308965084e-01 4.093163478007718625e-01 -6.389333404927710625e-01
3.429988367931798843e-01 1.998905818922173117e-01 3.877558623285333739e-01
3.537033919335111354e-01 -2.977845424487069459e-01 -9.785836513258950875e-01
3.263503180576677321e-01 4.149575464627860422e-01 -5.937695445395257954e-01
-3.754536536602655072e-01 -6.957345712274004557e-01 2.957903812903927565e-01
2.590951104941473515e-01 2.418253834132143287e-01 -3.351247365419438712e-02
-4.273842055410429497e-01 -1.949538410873905003e-01 -3.536158376885106258e-01
-1.171414716421525504e-01 8.319014356603553484e-01 5.427581675654684634e-01
-1.936859760374973483e-01 -7.289493406998366343e-01 -7.837293556983112586e-01
4.102551775918941712e-01 1.746216792530365658e-01 1.562168801123562933e-01
9.365643022941694262e-01 1.478898394888318035e-01 -2.915037903800489216e-01
1.561362207314034023e-01 1.097216450274120653e-01 -7.730733450172019294e-01
-9.535536640403645681e-01 -2.200792347724837839e-01 4.056939890850288499e-01
-2.210646462175920868e-01 -3.823918846078274703e-01 3.106103954241219434e-01
4.025488968758795805e-01 -2.990587677865100963e-02 -1.504795646872209292e-01
-6.154291177991617623e-01 -1.394891128185274110e-01 -1.272319158045786269e-01
3.232450301467851839e-01 6.189795169327187985e-01 -3.379962556246693395e-01
8.580346334185328105e-01 6.781576046452597595e-01 6.237017506584018045e-02
-5.921333700610965645e-01 -2.087775293493470685e-01 8.440485122494252312e-01
4.410612608292870385e-01 3.276387977400305740e-01 6.210476884113678153e-01
-6.874863443637110327e-01 -3.523998761673239472e-02 4.632143897680002231e-02
9.655816927685821616e-04 -5.400437284582224606e-01 -1.084120503228586385e-01
6.308566056493462026e-01 5.701621589458351069e-01 -5.608169200684433031e-01
1.508364734034924881e-01 3.052484072876996413e-01 8.722903903726650920e-01
1.495208610723371134e-01 -6.826732365825697313e-01 -2.843843071467737627e-01
3.781767836288059681e-01 -3.266689295302721563e-02 -9.571729598416701679e-01
3.121078237997610971e-01 -4.180262263254612698e-01 -2.691587408676648363e-01
9.156727594819008553e-02 8.843169426686244838e-01 6.110650616861578177e-01
-4.245916080607323173e-01 -6.396867427346815127e-01 4.108061600546054626e-01
2.592894952922334961e-01 2.118709408821822515e-01 2.468887747970668900e-01
-1.727914706709784975e-01 -1.649683381369957957e-01 4.066499587864281229e-01
1.734063159377730312e-01 6.144498590000235794e-01 -9.276001076106886456e-02
-4.008899882993287589e-01 -7.469041327772232286e-01 -6.697596320218607291e-01
2.829979532357599914e-01 6.425999258208457965e-01 8.158961521971829223e-01
-6.455824146958851761e-01 3.729437715870110304e-01 7.537542647114403582e-01
-6.030398685251810165e-02 -1.715088279518895142e-01 -3.122500877120004126e-01
-2.290242173023171735e-01 -1.640612065038621614e-01 -3.771950321428613195e-01
1.483943480561533412e-01 -6.222215760296593429e-02 -3.064897813171044705e-01
-3.608492090280726039e-01 -1.297185672312305971e-01 1.671893136772182459e-02
1.809689727708393703e-01 4.148163907615645130e-01 -9.648583794370262090e-02
-1.344510470058991047e-01 1.817958207735185794e-01 2.841350044587836465e-01
9.187708076956815351e-01 1.341876246909466663e-01 -5.276960758412301278e-01
-4.104551057248967960e-01 4.646895443206223164e-01 9.153973028922169908e-01
-4.251605017896800121e-01 -1.738305526928846378e-01 -2.413658090804507994e-01
-1.916211564076992224e-01 -5.803578705324309306e-01 -8.617834761736492544e-01
3.137402917067699110e-02 -4.341834646102828987e-01 -1.500192262361549622e-01
5.083928513091175994e-01 -2.550618099027562348e-03 -8.820943643479065011e-02
2.023638568255586578e-01 -6.714157964655657895e-02 -9.409446932640199712e-01
-6.515219719195222137e-01 6.495579667452038540e-03 8.244968184018193480e-02
3.711280483317112022e-01 1.884302064447430647e-01 1.788943104535355710e-01
-6.752901022742567871e-01 -6.309061224110336097e-01 -4.675218433986005340e-01
7.578882483692110927e-01 -9.542503993768049197e-02 -2.493760815209186132e-01
-2.554634493601122824e-01 -4.230228186529700896e-01 4.179515598943051025e-01
4.448749233098416855e-01 -5.530143168559124162e-02 -1.484895061365800184e-01
4.619088262204509299e-01 -2.664160159336353972e-01 -2.531514060999243143e-01
1.656210484869412580e-01 -9.527635408520838955e-02 -9.406129218504919454e-01
-2.953350533884882556e-01 -1.814526590558989960e-01 -2.945493399739686491e-01
-1.494050614770067384e-02 3.052873996786889532e-01 2.229507798916839367e-01
-3.032107979559459099e-01 -7.712538005093062532e-01 -7.050628497418029994e-01
-2.578893303525918168e-01 -2.253941206565215627e-01 -4.587040494907646676e-02
-6.140184851673813338e-01 -5.760512080215344222e-01 5.472428109068453450e-01
-7.038216574311599860e-01 2.868197338567330945e-01 7.498936097714693494e-01
-2.625862010992811024e-01 6.109754483902454236e-01 8.810982832078537719e-01
-1.513109230643131520e-01 1.367394369890701511e-01 9.559960793854863637e-01
-1.336368590364941378e-01 1.693977008726053057e-01 2.890880401482804340e-01
2.532036664649859325e-01 3.088775601140843485e-01 -6.252717239651230940e-01
-1.926033194218125244e-01 5.102248870295589267e-01 2.443156525853332761e-01
-4.823306379669091148e-01 -2.084111134611758287e-01 -3.542903003730736855e-01
7.418888942951056276e-01 -2.628886919101144359e-01 -4.823364312845997426e-01
-8.081162466253166698e-02 6.702456084568597650e-01 8.806910857624630218e-01
-1.133033458551922432e-02 -8.398506895522255267e-01 -3.164385099531054069e-01
-6.286817583000702259e-01 -4.563331378670523741e-01 6.661448752462076905e-01
1.889097320079856923e-01 -7.680673509450651748e-01 -4.780434687329263577e-01
6.751037894281587404e-01 9.656519962625614850e-02 2.474729658548466965e-02
3.911641581589486161e-01 4.555831949175176421e-01 7.538763805131614149e-01
-7.816543222612392094e-01 1.570987191955212081e-01 7.206808934334668626e-01
-8.793703604074919467e-01 5.501660962449517883e-02 4.746573296031758593e-01
-5.085099912291061175e-01 5.097857061616476448e-01 7.871015464432341568e-01
-2.864030332384656097e-01 5.074425238211175415e-01 9.432151649702940066e-01
-2.052376257310473129e-01 -5.264641582397385777e-01 -8.676968617537135220e-01
-1.269014199150887146e-01 -4.374140261079262904e-01 1.282961486998126198e-02
2.829363002669655347e-01 1.017059650452985659e-01 -1.793123980230870163e-01
5.679813009353601450e-01 -4.434491522964740806e-01 -7.563487970488306233e-01
-7.443761651442966365e-02 -5.452375566031444909e-02 -6.282280411675391640e-01
2.783491296867714876e-02 3.304185653070833978e-02 6.289264059302339671e-01
-1.032562971600395202e-01 8.137966275026614626e-02 9.043749113894468117e-01
-3.456461706624227581e-01 -1.610674244494395002e-01 -4.278721561196269924e-02
2.287564405673343793e-01 -8.154976548187552188e-03 -9.213971122097710520e-01
-8.233409750939922889e-01 4.497021391961650121e-03 7.189632248285067195e-01
2.943886011974099493e-01 9.432562250574915153e-01 2.619125356279032313e-01
3.813583963115293463e-01 9.474591167073642684e-01 2.642711599215596951e-01
-1.230565825047952588e-01 -4.471426466600835758e-01 -9.099281936325568365e-01
1.549289734793493634e-01 -1.033471093674218078e-01 -9.401936069535158369e-01
-7.406423381463353439e-02 3.432722916863239354e-02 8.434645688994439894e-01
-2.511423619022678522e-01 -8.048874092803297575e-01 2.281400700146400326e-02
9.615517019114325770e-01 3.983118442280898508e-01 -2.514086084414652866e-01
1.991147764414964438e-01 5.706782429356713759e-01 -1.551607026023174851e-01
4.388065523931003464e-02 1.901598718588491110e-01 8.797677967637941299e-01
-6.813661066624490670e-02 8.332500319306603842e-01 6.547566910986752919e-01
-2.034814344133179242e-01 -1.840012552115736222e-01 7.190707850900421860e-01
-4.078028930040934474e-01 3.175394699798935183e-01 2.680347848489022522e-01
5.405774939351593034e-01 -1.366741586518277485e-01 -9.355885807386169484e-01
-8.090052307951570709e-01 -1.064874973394315943e-01 5.113951610693678873e-02
5.882454397252065981e-01 2.629870454385751510e-01 3.544895235630506347e-01
-8.820450546840463701e-01 2.524847522221478763e-02 5.631883908726337262e-01
5.040609201432250108e-01 4.579620701057247611e-01 6.528596061467741851e-01
3.237458043157522836e-01 -7.218288743842839195e-02 -2.063860315691986580e-01
4.477892204465674375e-01 8.735369688273350031e-01 5.171781048628555366e-01
-2.165563391419390027e-01 1.553088946080254107e-01 2.651836556992464566e-01
-4.940151422063810416e-01 -5.937430169640105504e-01 5.089091264113166924e-01
5.367709172796010231e-01 -2.205118353914664597e-01 -2.431212986984160607e-01
-7.664847271693498998e-01 -2.226305058449228602e-01 -1.376488057610896765e-01
-8.481483793467597954e-01 5.081947612681814164e-02 3.143764347197518516e-01
-7.058343170530636534e-01 -7.214721300790888359e-01 -3.649289198214007435e-01
4.581361023776385211e-01 -4.208844047422760637e-01 -8.928222248571214825e-01
2.013752367100434815e-01 -4.932354914114641664e-01 -9.492747729548427493e-01
-2.305992172739121729e-02 3.623093378117978602e-01 9.690886141613869187e-01
9.349816483920621035e-01 2.053253729930747118e-01 -4.861617820019781822e-01
4.346393684907738364e-01 -5.165904032505767018e-01 -8.319929249439247387e-01
-1.945551418172090374e-01 -2.461724746774236749e-01 -1.396102009865008986e-01
-6.077089187142603599e-01 -5.171364977519691264e-01 6.112427428852056366e-01
4.380762612391083666e-01 1.823573065223728085e-01 2.113600572419169210e-01
-4.353806754328761186e-01 -8.043441513389740782e-01 -5.903690910752000809e-01
-6.115249662990714097e-02 5.581059061038441405e-01 1.681292083573169838e-01
2.960921456970865284e-01 1.904846277796262977e-01 4.566616479362031189e-01
-5.419214857404681257e-02 -3.164054187919147498e-01 -1.622341223614570671e-01
-5.058551799647564851e-01 -4.483522156134084891e-01 6.709717447837433291e-01
2.904838977508298337e-01 -1.661800623359012963e-01 -9.841377644092171861e-01
-2.395828400681039305e-01 -6.679216421883991117e-01 -8.065880090255234114e-01
7.387785663158772387e-01 6.523432375465783029e-01 3.853496072996367428e-01
2.329477067426254100e-01 1.829096659084203658e-01 -2.314202616539984547e-01
-8.221721927264441510e-01 -7.053868208965252684e-01 1.491735622229423963e-01
-2.926647487597773545e-02 6.179133650073693751e-01 1.499441773182883519e-01
3.125548483371186070e-01 -1.025323436428343532e-01 -2.177473561652666645e-01
-2.123301577571008458e-01 -3.046910559291001186e-01 4.006422326343890283e-01
-4.429544340128116486e-01 -6.658518438761882319e-01 3.898550126472942190e-01
4.160742744282736605e-01 4.289986586767353671e-01 7.226546795874890794e-01
4.938033234347098954e-01 2.964707446838508176e-01 5.162189449961740451e-01
6.039583762125712296e-02 1.566907969770962306e-01 3.654283903660377475e-01
-4.315499796155770618e-01 -7.319010757384374344e-01 -6.594658176258889615e-01
4.628247178243407034e-01 9.092238644916973422e-01 3.056831345917989176e-02
8.081356595112347829e-01 6.207566529260076793e-01 -3.900528726624724607e-01
-2.777632714492329624e-01 6.799073540262682291e-01 7.923760547413184474e-01
5.229239832371199714e-01 2.135256945896870373e-01 2.981797481761211954e-01
-1.350723576215919208e-01 -6.959703096132675570e-01 -2.438783665771802032e-04
-7.765367020250880659e-01 -5.553505331365663489e-01 -3.352555442577727640e-01
1.188690171751127268e-02 -3.950853548634570833e-01 -1.522460917388795965e-01
-8.052391898873981768e-01 -5.235092323617336341e-01 5.039636824789838210e-01
-7.057139780274453988e-01 3.125154975744408592e-01 4.663192242068391891e-01
-8.055317496111359388e-01 -7.339744549286210118e-01 8.784956812813940474e-02
-3.786321041405075810e-04 4.380533796322302331e-01 1.447371807579395930e-01
-1.217026499046854233e-02 -8.443313388550810483e-01 -3.271154611058331163e-01
-8.244237994249548063e-01 -1.429081659413527772e-01 2.598306263174999728e-02
9.025860845633759677e-01 5.784828943615991648e-01 3.792974648975645791e-02
-4.063663959424990146e-01 -8.659763980434914687e-01 3.604196536388399458e-02
6.196612028599168820e-01 1.443261098803853559e-01 1.146901009536342303e-01
-5.996385145566424102e-01 -4.142318390211406909e-01 7.067807760804237782e-01
3.135722424949317078e-01 9.424943892712930316e-01 2.372461796233596709e-01
-2.497598701756120476e-01 2.967843979793615208e-02 2.526584939241444672e-01
9.452681558144906959e-02 3.533214401474399358e-01 1.244642547763706308e-01
-7.518009975496774411e-01 2.630500400075048706e-01 6.625001382672366379e-01
7.607401847924176730e-01 3.586999128169053863e-01 -6.839007059665627164e-01
-7.424627549110958402e-02 -7.177720111508608669e-01 -8.586697086359444675e-02
-3.724477850728474815e-01 -6.106991209104390035e-03 1.456305165284516590e-01
-4.807790131407042034e-01 1.364561973363153380e-01 1.890374649809531404e-01
2.313871411709880199e-01 2.706213326136856501e-01 3.344413152548369322e-02
8.282504188773036624e-01 5.052797786838055805e-01 2.542138549655654778e-01
-3.171227188223829652e-01 2.244607931343258478e-01 2.426889257755809326e-01
-4.979152749583634630e-01 -5.960855690206260382e-01 -6.648357064752981049e-01
8.724885012923526417e-02 7.267880889622890805e-02 -4.840714709955848960e-01
9.512749857792755781e-02 -2.914554753641572793e-01 -2.265057723896319597e-01
-4.393297205201899813e-01 6.030167274882031192e-01 5.224528267670071058e-01
4.080484703333045471e-01 -4.945934856112119693e-01 -8.733278745929384801e-01
-5.111004549331628066e-01 -8.724805920913255575e-01 -4.061984105290333824e-01
-1.352770901748347188e-02 -3.308422613441395210e-01 -1.734666182139368296e-01
-4.001742423602038801e-01 -7.010903213111895071e-02 6.361680401930333573e-02
-7.017885506913181803e-01 -3.017662196742229574e-02 8.485391268329006698e-01
3.000503678027435436e-02 -1.812760867624162442e-01 -2.876872018089538519e-01
5.735574826775868829e-01 1.582033005729551467e-01 -8.693278579644103665e-01
-8.385637059447491604e-01 -2.853653918056763827e-01 -1.093281343132286171e-01
-4.337920932331680857e-01 2.289032541276560806e-01 2.366137217868078402e-01
2.484620978647857636e-01 6.079644883707393532e-01 8.442328190390236964e-01
-1.058210854427840408e-01 -7.092768892653044110e-01 -4.410266078137577844e-02
6.587634545190570456e-01 1.760167633581181945e-01 1.490885856392955844e-01
6.262695130220059525e-01 1.825891368719381458e-01 1.776590583804223134e-01
-2.892956038810777786e-01 1.865533534756343981e-01 9.948236697632848458e-01
-2.794630666018189658e-01 5.035650765094973336e-01 2.861688291305377052e-01
2.752754588733534735e-01 2.278709850593161057e-01 1.185395112847094368e-02
1.949103699448900273e-01 2.148064548103890692e-01 -3.461391687143398621e-01
9.590839986174771736e-01 3.627481240228700443e-01 -3.286412325674948898e-01
7.597224754720736106e-01 2.310750480458490519e-01 1.444532430351973540e-01
1.752996631020862506e-01 -5.180351343608128323e-01 -9.415454853863151063e-01
-6.149985390292851406e-01 -8.221250109052496979e-01 1.475355354942278763e-01
1.734228026313536231e-01 2.536805181495523781e-02 -3.161576776850639758e-01
8.719938192860011705e-01 3.606658470449528031e-01 -5.665568615412863718e-01
-5.355919466426048992e-01 -2.418994865532658745e-02 4.504345065400518211e-02
-1.075507943141127722e-02 5.921848709738697369e-01 1.293063412149781377e-01
5.532616054227820213e-01 6.055661956106532795e-01 -5.218078507636021435e-01
2.691042388473106617e-01 -4.349682377559057067e-01 -2.573427471444751924e-01
-1.577259414098567403e-01 2.645804249684417520e-01 9.911981152759752334e-01
-8.471153179576579317e-01 4.493886328348221243e-02 6.576177289537672443e-01
7.513619135987376074e-01 3.519156597262296238e-01 2.895617136348161980e-01
-3.247376914616478122e-02 -2.349628261639027244e-02 6.204568994552945860e-01
-2.833172607152983358e-01 5.371024800423834789e-02 9.595635457452559303e-01
4.031955342447043900e-01 -6.330007208304702093e-01 -6.087706890152037031e-01
4.474170102927677029e-01 -5.948650234935533021e-01 -6.472146334105011167e-01
-1.132427108044935515e-01 -8.854345248815352898e-01 -5.484291798361351500e-01
-1.398338235893133163e-01 -7.979474107560774465e-01 -7.271323708623597115e-01
2.219905417247801382e-01 4.455819821113887746e-01 -2.690668094485166306e-01
-8.822832071357270545e-01 3.213165973580605489e-02 5.502671607944861210e-01
1.662367996921549906e-01 3.517683578787460519e-01 2.448669630482934456e-02
6.094859806564381088e-01 -8.350861720304006419e-02 -9.030270034137698465e-01
1.101811129310704129e-01 -4.855942856624645421e-01 -1.890821398003887932e-01
1.254959391119813972e-01 8.520588089838679879e-01 1.705913619322802222e-01
-5.675900036809344851e-01 1.517340932887269733e-01 2.003941180611099049e-01
9.768227181449058716e-02 -7.347764872447338780e-01 -7.835174279761681904e-01
-6.871556468766051307e-01 -7.357894399314901523e-01 -3.804566234895451204e-01
-2.978177430284956739e-01 2.073713483895428811e-01 9.973879415765585232e-01
-3.097098888052023935e-01 2.619078875432148124e-01 2.481393390090160800e-01
5.207269197507926606e-01 2.877004800742604673e-01 4.701698082585583638e-01
7.769347610205975529e-01 5.638045103922931789e-01 3.463706767132223585e-01
5.811395812994357701e-01 -3.332342384651605649e-02 -1.080521332662774808e-01
7.961186380235510951e-01 -1.426682364885777654e-01 -3.708127541617997069e-01
-4.131072580948881856e-01 -4.011220378797325514e-01 6.793800562159817424e-01
-8.656177283836105074e-01 7.866926952160600839e-02 5.449872175376417882e-01
2.616811251392512916e-01 -2.795988336396030838e-01 -2.404505986041052812e-01
-6.840851318094515188e-01 -8.362380147765529070e-01 -1.462801347497522664e-01
-3.728418859376710359e-01 -1.825164239641955122e-01 -3.167724408775531297e-01
9.074260541566337990e-01 5.039852006497445025e-01 -3.710243423163834264e-01
-1.519596544119021508e-01 -9.096788910331615741e-01 -4.254654901763458841e-01
-5.997272926865820919e-01 -1.983187770010758355e-01 -2.445273036803059241e-01
-6.074005553728747259e-02 -3.931546731513236304e-01 -9.909635854164318414e-02
-3.374084459486405563e-01 -1.916048586155371103e-01 8.316512199050235532e-01
7.597237256569487618e-02 8.257479043501847471e-01 1.869342888913059775e-01
-8.903245773796449394e-03 7.499680104637547196e-01 1.966843257697286351e-01
-1.267762774708965090e-01 4.311830280065919174e-01 2.134324859030504729e-01
-9.344097197079952455e-01 -1.385216748602347281e-01 2.751898989068575774e-01
-4.431269007492345535e-01 -1.533271138095548998e-02 9.163236531568835774e-02
9.153780338679064210e-02 4.073951726723403222e-01 8.040363533529473750e-02
-4.343177059769137149e-01 -1.211982066790227852e-01 -5.722545520746222941e-02
5.150128758669169499e-02 -3.919498011846421770e-01 -1.749244412219462530e-01
-5.145340621415630533e-01 -2.576135398106384478e-01 -4.430396196144336107e-01
-9.447334818283974478e-01 -2.619339254491792057e-01 1.567960745882416018e-01
1.121461902173484654e-01 -1.787862765776732782e-02 -3.566456609561087787e-01
-1.601890470087867502e-01 -1.493903808709369785e-01 -3.832318942920460714e-01
2.118717681980945011e-01 4.678802225117542624e-01 -2.207255952301294954e-01
3.380439274229270485e-01 3.419768624675992852e-01 7.419003133694571650e-01
-2.150206578319865391e-01 -7.584205669135216654e-01 -7.520465526997878181e-01
4.483768541530217672e-02 2.668803584876421886e-01 2.380207222403104284e-01
-8.063938052965383685e-01 2.660681190863914414e-02 2.105038695737102006e-01
3.968235990393006452e-01 -2.007690310752539287e-01 -2.233911865468654612e-01
4.395969751628276412e-01 2.028958589021723768e-01 3.077442579249011212e-01
-8.469416189077935142e-01 -6.476970241092377956e-01 -1.257545200265415275e-01
3.497018241019998475e-01 -2.656812517337345803e-01 -2.415447145943097895e-01
-4.573773593042338576e-02 4.432351340139831924e-02 4.256569110588665494e-01
-1.326307906640933065e-01 2.110751441049190102e-01 2.737102869194164567e-01
4.084100349299705709e-03 6.346880084566580704e-02 4.578500513603638300e-01
3.831373817353386779e-01 3.263696153974033898e-01 -7.424745404317170117e-01
-3.442031867286686198e-01 -3.047444563943815243e-01 -7.086328383845824641e-01
-2.530845351273537935e-01 7.513522121215120420e-01 5.301886845695918948e-01
-1.803927335011126232e-01 -2.998592904113395186e-01 -4.292351204477665161e-02
-1.567097572823014928e-01 -7.698019624797463045e-01 -3.813512837305831765e-02
1.662364693388211356e-01 4.191503000356165409e-01 -5.741864781488640462e-02
-6.561277858082403824e-01 -2.847210458084336038e-01 -3.359738943116913346e-01
5.097004052465651247e-01 -5.346946368871616784e-01 -6.778078197173410535e-01
-1.222978726730418880e-01 1.987551307893047348e-01 2.804182327715080136e-01
-4.005578774735517600e-01 -9.202869931394553893e-01 -1.543749314687440366e-01
2.349909727380275135e-02 -8.294833057068771165e-01 -6.427063351979785955e-01
-7.400289293525706968e-01 -7.788699507718472859e-01 1.190190489266280821e-01
4.239163120975389387e-02 -2.969711615584719744e-01 -2.139359607853092704e-01
3.061019623861250261e-01 9.001737095349299222e-01 8.249875491022554130e-02
-7.882466718577320341e-02 -1.508903889816306521e-01 -3.451320004281803744e-01
9.141234152859960549e-01 5.874398193064938045e-01 -6.204984473458375477e-02
-1.386274476514030574e-01 4.010068683236010789e-02 3.405017634568223706e-01
2.504600735335502648e-01 9.363409030351417250e-01 2.652688126764968235e-01
1.847975918717533472e-01 6.970764562074281689e-02 -8.441808244337467571e-01
4.221134298329367041e-01 -3.041723926006955625e-01 -2.619909079423791698e-01
8.665236775216552667e-01 4.595976282225417986e-01 1.689412432520502327e-01
-2.072190121160465692e-01 -3.320900851414663735e-01 1.545970461371241056e-01
-1.089523534309884412e-02 1.886511414739813416e-02 7.319988450571196514e-01
3.741274561201426430e-01 8.824716230085002389e-01 5.562754208007036905e-01
4.420740863107387730e-02 -1.934550896725454050e-01 -2.769614696454408831e-01
9.386988411217521699e-01 4.786529493572593830e-01 -5.162014886605625907e-02
-2.119952594181529482e-01 -2.951279566234252805e-01 3.154262552333610969e-01
4.440166087226551372e-01 -4.223529325248525090e-01 -3.291919775139197646e-01
-7.993338397000013806e-01 1.158907997042073618e-01 3.183393200233883835e-01
2.461393238765155200e-01 9.398676995331624040e-01 4.248792374750695044e-01
5.436164763310943338e-01 -2.622794898018131482e-01 -2.724346172752401540e-01
2.859693949662083234e-01 4.642899155962224023e-02 -1.996155050551247367e-01
