4.565071429749624765e-01 5.746368227649693017e-01 6.706313044623922748e-01
6.063699020646435844e-01 5.442029545261490853e-01 -1.369388693848995475e-01
-1.315523718061914205e-01 1.205246298841798208e-01 -9.622421320777535536e-03
4.303596653132233940e-01 9.188139767411930559e-02 8.912940527394993540e-01
-4.914859345570281035e-01 -5.948196087309035041e-02 2.611601839432050459e-02
3.694050916131764312e-02 -6.597234380169113566e-01 7.499195169681125428e-01
-1.940093234820545742e-01 6.569517800329907620e-02 -3.086735843771003587e-02
-2.316812019064827879e-02 -9.071244995358679342e-01 -1.935980522256499636e-01
-2.681593686162433987e-01 -7.211219238756372274e-02 7.023380478817296824e-02
-5.415732725403696879e-01 -1.962340040366569172e-01 -8.535681502940767329e-01
5.655685385977710089e-02 8.054007810146295021e-02 -6.026490499452218097e-02
1.043506124680002867e-01 -9.476494746370319744e-01 2.435687558749946580e-01
-3.725765711097205335e-01 -1.879514258743394256e-02 -9.263683160677966821e-01
1.197232662429547900e-01 -2.965987149069369555e-01 -2.693804117200491732e-01
9.305531110366102240e-03 -4.475578225810233346e-01 8.416615878715909549e-01
-2.831502976636701696e-01 5.888693641838555620e-02 -1.479000264089183961e-02
-3.384931379410858754e-01 -8.116225837479271732e-01 4.379989743339504082e-01
-2.912055152706623518e-01 -7.819295526329290980e-02 8.181206425854610498e-02
-5.199828645278712358e-01 -8.482311641661930413e-01 -2.861013033897509827e-01
1.387448747217629730e-01 -5.099160549666436650e-03 9.054101012549592431e-01
5.487916857583394759e-01 4.861334586820050679e-02 3.044044981399628841e-02
2.090106734216801709e-01 -1.336766026728115897e-01 9.274158263744951558e-01
5.083901642044912350e-01 -3.754150052338331434e-01 1.357589350369418080e-01
-5.085958594291339896e-01 1.837414189312580881e-01 -6.831049071628382541e-02
3.933842254088179002e-01 3.876227017576263645e-01 -4.331956272640964944e-01
3.546118268786753736e-01 -6.269202680461128940e-01 7.008586786976187533e-01
-2.669510456724561442e-01 -5.374701058064808995e-02 4.296408486613997185e-02
-7.746192788702276344e-01 -4.946600546698386863e-02 -2.488303237458502626e-01
3.525662804284583896e-01 -9.145152180952841048e-02 9.212232297857547714e-01
-2.462137382115512640e-01 -9.582054753071554687e-02 2.788560775280103377e-01
-2.255013417129544603e-02 -9.877089268274564793e-01 1.388278593307345488e-01
-6.814906216060712119e-02 1.205402170924277649e-01 1.276339624528982364e-01
-9.861019016137921242e-03 2.457807239140998856e-01 7.379994716510686059e-01
1.296800930520887463e-01 -1.798707654525976418e-01 -3.709848000867900508e-02
-1.360536421882717895e-01 2.090647030068365497e-01 5.087154675381264646e-01
1.888830950163113420e-01 -6.844411247188458836e-01 -1.903919056027334744e-01
-2.666645351043884227e-01 -1.104988963441033839e-01 2.836067375883105646e-01
-6.478345971037077211e-01 9.420301694355603939e-02 -1.384429021109063740e-01
-3.655600907046694381e-01 -2.173693286284232862e-01 3.755219467733558747e-01
6.526775534899980080e-01 1.322313326921693566e-01 8.307044980721312033e-02
5.180497906268381747e-02 -7.880009195064575644e-01 -2.878631113782189055e-01
-6.100845983835622155e-01 2.588936473269420890e-01 -7.864482667516566883e-01
3.525286054920849232e-01 -5.708354319897871454e-01 -9.344960791149219083e-04
2.079539646691159482e-01 -3.935338835981083139e-01 -1.595017054795711542e-01
-2.070137992035186725e-01 2.992990768493924980e-01 1.622149255349501495e-01
7.220950170064378837e-02 -6.536896731470286104e-02 4.698617920538519788e-02
3.914829755171005121e-02 -3.187550873436442722e-02 7.239536082757722091e-02
6.674807166732749097e-01 6.233206585547923506e-01 8.626509250030209297e-02
-3.099344841207012785e-02 7.940499206192465353e-02 -6.204200567036118052e-02
-6.969656060141119491e-01 2.252339822664793656e-01 -6.885364677592589189e-01
8.267197313228719091e-02 -8.954853261647298668e-01 4.707499945030587662e-01
4.157032309510060308e-01 -6.540269581734035054e-01 1.521787590700956483e-01
-8.093920973835744270e-02 2.182564584937582083e-02 -8.375901870834986940e-02
4.870499734418355653e-02 -1.600850386618449805e-01 -6.588685782836498639e-01
2.698923876796868737e-01 -5.759377991801272190e-01 -1.111030165017119625e-01
-1.711659839877756606e-01 3.476679576521586323e-01 3.310164018476857151e-01
-6.945878869352847262e-01 -6.885542635279555679e-01 -2.646120350761588802e-01
-3.144139140283721545e-01 7.236887114560369705e-02 -1.378406250146697355e-02
3.683674179399429871e-01 1.743257139714779747e-01 -2.047603857037015029e-01
7.722429300997735169e-01 1.987593960634732038e-01 3.969799931623896883e-01
-7.069819058717360383e-01 -5.233039432728184837e-01 3.286005099212768732e-02
-7.596361375557975082e-01 1.956744431829267050e-01 -4.286685917340506413e-01
1.315147705519865706e-01 2.956653796081898933e-01 -7.435910891827219871e-01
2.897316979951260474e-01 -1.813914660116769939e-01 9.244935010576745826e-01
6.244588439986937800e-01 7.001670355633482501e-01 2.993578697750579609e-01
8.172659577996554958e-02 -2.657086292637282285e-02 -2.690310995585747378e-01
4.277490796508460202e-01 -1.176025149073712528e-01 3.964981826938842463e-02
-1.231245490892185490e-01 6.975305072763424707e-01 -7.260496090312200668e-01
8.349602985114553538e-03 9.288792999865053135e-02 -8.920853869315948509e-03
-8.097120455893479507e-01 -2.562380628322510900e-01 -2.628939155719305920e-01
3.786697683380891299e-01 3.190439874662653330e-01 -4.053087104344982872e-01
3.436481918799041274e-02 -6.144938491479355891e-01 -4.508192481274114760e-01
-7.537812037653829345e-01 -4.399404841792997622e-01 -7.128129614079525833e-02
5.881159081046830606e-01 7.225941629277187195e-01 -4.159716367894391448e-02
-1.005410345871348143e-01 9.441309209120271606e-02 6.905899293221527957e-01
1.123171327991226015e-01 -5.622595873515966458e-01 -3.599422026615093362e-01
-7.610537691291092699e-01 1.508375869443113193e-01 -5.816628437740561930e-01
3.075539795144828781e-01 2.949673979705457194e-01 8.562291375593532594e-01
2.741776008370021001e-01 9.218459677986259315e-01 -2.760149043893809218e-01
6.179747360468188511e-01 6.234896241583861576e-01 -7.720999492906564787e-02
4.065883087084014025e-01 -2.762342580504884570e-01 4.177883551541709817e-02
3.369675036088310566e-02 -1.862557163092878332e-01 -6.718271147553962486e-01
1.772799147715027057e-01 1.469058183140096487e-02 -3.148752159432829673e-03
-2.084448389465085871e-01 -5.729835152679919608e-01 6.922393327870366431e-01
1.832190801448370931e-01 -5.977153328130734300e-01 -2.350733797156006888e-01
-3.695169716674526206e-01 7.288391702555808704e-01 -5.645616195530787224e-02
3.051192375273538149e-01 3.831524076846941629e-01 -5.590036746172719617e-01
8.229442894818808640e-02 4.328874692597984436e-02 2.494987385246697983e-02
1.041342734597322378e-01 -9.488809978643568677e-01 2.213826120571641964e-01
-1.849890329813043965e-01 5.775978278658663312e-01 3.147339423111359391e-01
-6.277201172556190478e-01 2.738365652319131316e-01 -1.846911102454308617e-01
-6.009234106804918485e-02 5.299432542828175219e-01 -8.160449506234760397e-01
1.834273154661699434e-01 2.544282376351271746e-01 8.528887016625303907e-01
-8.111346731166615975e-02 1.342572880737301910e-01 3.705895159679976902e-02
5.792783960209196142e-02 -4.545492755036322774e-01 -4.935732376306481428e-01
3.259119534381445527e-01 -5.682862518976692368e-01 -3.689505034676120870e-02
3.496786137842173847e-01 3.770953263397351374e-01 -4.928180303356169967e-01
-4.664386878680971127e-01 -8.222047104712902899e-01 2.690349186535698212e-01
-1.551282782308814057e-01 5.522579573534222019e-01 3.723573081419451203e-01
1.236436252472801200e-01 5.555245254969112118e-02 -1.977458262402896974e-02
-6.240757667385544716e-01 -2.637548611453015002e-01 8.519888846313369846e-02
-1.167796714282138271e-01 -1.686331464179972872e-02 2.044751149819269698e-01
-2.655365484671175398e-03 8.202586615005778847e-02 6.620590466222452120e-02
1.232763801445267565e-01 -3.068902984587387750e-01 -2.700273942031987118e-01
4.021915147238061539e-02 1.644765225646330209e-02 7.235719197402849800e-02
2.623848124412854199e-01 1.659334727115517050e-01 -4.076086015508871285e-01
6.118281705268093784e-01 -1.271398644774882625e-01 1.613741120854453315e-01
6.716591865813741069e-02 8.837797861665936949e-01 2.987135808825979177e-01
-2.329722710188556756e-01 6.247107908866493808e-01 -7.751264991201801680e-01
-7.634811307894262544e-01 -3.582239657851516990e-01 -9.911115914912138614e-02
6.862392987332834871e-01 4.281590338141943453e-01 2.606739319317884218e-02
4.116510179380533652e-01 2.299856512288644683e-01 -2.424558277610303902e-01
-3.522858379820291708e-01 1.851506358340764824e-01 -1.112118807346767525e-02
-7.277614007318515821e-01 -2.840753729232060043e-01 -6.733581447122326535e-01
-1.364766052726549272e-01 5.932010800551842933e-02 2.955504977812225542e-01
-7.877507497567705075e-01 -3.257626722835615385e-01 -5.367411608668318790e-01
-2.608203586979268018e-01 -2.722402229990815714e-01 6.407410922437998257e-01
-4.201990828851908666e-01 -2.050547819596957311e-01 2.482824926093797346e-01
1.377930873166877124e-01 1.967610976086840713e-01 -7.117990024072654576e-01
1.098715941964728549e-01 7.701694988237375861e-02 -1.134773642773842239e-01
3.075207819761611172e-01 1.699250243865729412e-02 -2.808780905530666033e-02
4.303529908198295423e-02 -3.140012965188026389e-02 -2.107815209795756983e-01
3.086267038600681301e-01 -2.956879434402093221e-01 -1.722405819718948738e-02
-2.341276795165829205e-01 -6.159419545909099181e-02 4.542311399698508584e-02
-1.603067037357181757e-01 -3.604918036236425816e-01 -7.829187727584345780e-01
6.939820312955669035e-01 5.958347623768152079e-01 2.262308593612658847e-01
-5.990693997586192809e-01 1.096047655895852346e-01 -1.042510602480229559e-01
-5.367396184454814589e-01 4.407438006454115764e-01 -1.343229001482743046e-01
9.605551696702155362e-02 -1.826256003651348103e-01 -4.218086346349135818e-01
7.293391440927070590e-01 4.806524154620525069e-01 1.995054568059657640e-01
4.826881955830262388e-02 6.623273906676650780e-02 -1.143582756399927070e-01
-1.603963550537165772e-01 -3.908598182956014855e-02 2.371513843619370565e-01
2.005139184264377039e-01 -4.265203919245373343e-01 -1.892367620796976124e-01
-3.503435214382567553e-01 -6.713960696946458251e-01 5.335963314089997578e-01
1.263987696865688341e-02 -1.520974086287967680e-02 9.199540833039156207e-02
-6.638606297293602188e-01 1.671327301546385591e-01 -1.844537868038272077e-01
-2.009910553000898714e-01 -9.707163942192265083e-01 -1.430862328087656454e-01
7.667670536112992929e-02 -9.081830856051423817e-01 4.443967481101684935e-01
1.312488622569453478e-01 6.626566817154821987e-01 5.927247189189992493e-01
-9.925541064115751821e-02 3.418256477624375123e-01 5.544713649007066980e-01
6.693715036593952394e-01 2.973488297933344349e-01 2.501589054705620832e-02
7.337238003129750163e-01 4.582577889478426925e-01 1.989149301379587453e-01
-1.555158164023943690e-01 -4.400559372250678614e-01 -7.390367602370027100e-01
8.375527678638763907e-02 -1.790740689118937301e-01 9.010146302329377077e-01
4.080781846921879286e-01 2.017890519776280589e-01 -2.061211225425687577e-01
-5.523132874427820471e-02 1.212986500229773917e-01 8.225291228524585219e-02
5.106577699375048907e-01 8.381619843417922322e-01 9.161909348734811193e-03
-3.336064785572180336e-01 -4.208150799871993586e-01 5.930388648882481961e-01
-6.598995571581314223e-01 -2.032408629309649939e-01 -7.748207333856901302e-01
-2.860485155570299809e-01 -1.237458615297716003e-01 2.773956540703251816e-01
1.325684571601654094e-01 8.328017651801177257e-01 4.092632575210813917e-01
2.801288310063532530e-02 6.963445829175809454e-01 4.981426644051705765e-01
-4.947240021588677483e-01 3.637431118259571994e-01 -7.461707790470628598e-02
1.849546020797503132e-01 9.477651048787149035e-01 -2.997729044417575817e-01
5.505526762027769250e-01 -3.133907102872412337e-02 7.071681690796684239e-02
-5.903121691261101894e-02 -5.785362772953810823e-02 -8.899067629123785794e-02
4.285363308754250866e-01 -2.922354325412680476e-01 5.543552966414631855e-02
-5.470033777699906397e-01 -8.611300675606349264e-01 -1.252414013937644677e-01
3.475631503854792470e-01 9.158428600310629664e-01 -1.836039613685628291e-01
5.032226799823654589e-02 -6.679042576544632626e-01 -3.949851813280879087e-01
1.196770905199167354e-03 -8.511145502791572781e-01 -2.634741644770252633e-01
-2.073084731281575610e-01 -2.580539537961553664e-01 7.046801708384646812e-01
4.928056703295889684e-02 -6.837986665363786631e-01 -3.847679525498984843e-01
-9.320892476128342374e-02 1.338841202654109108e-01 1.749778614836244028e-01
3.110325158437016180e-01 -5.491662307181353064e-01 -5.952858987162999715e-02
2.352716834869408580e-01 1.535282298889944219e-01 -4.741419474669155143e-01
-7.526648538196041294e-01 1.712948951191252123e-01 -3.528648742938513272e-01
1.654201292612438867e-01 -6.891226062476090153e-01 -2.219329519668218342e-01
-4.444824161640846816e-01 4.917570303911629748e-01 -3.739914700690681604e-02
-7.364615886594059191e-01 -6.036575563022488211e-01 -1.369762962740808665e-01
-2.155885011857504308e-01 9.149240422529998362e-01 -2.909782547185137402e-01
2.016510445634059068e-01 9.524195048344710757e-02 -3.121820944616818250e-01
1.728088227957117751e-01 8.257460464250359067e-01 4.325938233374417297e-01
3.934792282538454034e-01 -7.306185278218861878e-01 4.799725818587372572e-01
1.563565292810803753e-01 -7.325965725215861646e-01 -2.039429699488164438e-01
-5.687508084981238721e-01 2.921842735810533664e-01 -1.288358025082701197e-01
1.495620926539763529e-01 -3.174771147456603160e-01 -1.979061480548866825e-01
-1.310734389946700551e-01 1.953225308732379761e-01 1.889988239047703245e-01
1.743564691448782622e-01 1.937315261080238271e-01 -6.588496102496722573e-01
-2.114473109536353090e-01 -1.488124303462214915e-01 6.479940711347343951e-01
-3.670270746291544317e-02 -1.663825378335436617e-03 1.328302925222151210e-01
5.183321588419068648e-01 6.616588113845677244e-01 5.472171769626592575e-01
2.612987161406759781e-02 -6.022439928849819823e-01 -4.690801003470645991e-01
1.386849170766994363e-02 -1.166291115422030539e-01 2.025426387060450840e-03
5.799056374616041731e-01 -5.019887509291371952e-01 4.499768555008654691e-01
3.531756652756097847e-01 1.556527699415125587e-01 8.959625702736905284e-01
3.654443953145609658e-01 2.677258128047585450e-01 -3.687067430688339420e-01
-6.980973594169785912e-01 1.268414905730446407e-01 -7.314510492658545804e-01
3.663695674060130081e-01 -4.224234638009234377e-01 1.988998473099667149e-03
-2.021383473543544307e-01 -1.007484620994869989e-01 6.287052015749207134e-01
-5.576614769969513441e-01 -3.652168297830676869e-01 2.447494304550982824e-01
-1.218359613518898571e-01 7.514479972046348433e-01 2.945276280984218675e-01
2.112913240240981982e-01 -2.892098555467646770e-02 9.236153729707723414e-01
-6.413167175794611818e-01 5.031998318313188334e-02 -1.146853144757463278e-01
5.061270012831027287e-01 -5.975694721586048974e-01 5.194025980578909074e-01
6.071339237837493352e-02 7.725871483329398159e-02 -8.398620095619553638e-02
2.765478470856663762e-01 6.334884518148127253e-01 -5.747246152190383928e-01
7.192793481946747614e-01 4.136406571715810498e-01 5.052849129753161916e-01
2.976091872100103050e-02 3.440088166006530224e-02 -1.500707285788022427e-01
2.075817359894070735e-01 9.300820287104841211e-02 -1.447860966666416338e-01
-2.449157736376022798e-01 -8.718662077661190613e-02 3.673756739200347288e-01
6.826349674185264171e-02 4.087810515265193761e-02 -1.776598101076193592e-01
-1.551147807693267211e-01 9.445456897156130349e-01 -1.686932236142715535e-01
-5.706598555503247239e-01 2.702811423673578267e-03 -8.642200613592210257e-01
-1.885034700084005088e-01 6.880287892715779563e-01 2.567745148868925686e-01
5.293888396535817442e-01 3.123917644429440865e-01 -1.817060494723239383e-01
-5.689409579462408884e-01 -2.570617138332254581e-01 1.427603722438540168e-01
-2.290805204004227880e-01 6.743289803102033853e-01 2.063368988511492808e-01
-5.960573600712778530e-01 4.737706357810855251e-01 -2.467095293067531614e-01
2.787253758358684275e-01 -6.874742212845390554e-01 -5.398731378529647573e-02
-1.219784270508802448e-01 1.557770717584868458e-01 2.443831525064244781e-01
-2.668486799958635913e-01 -6.107817607532257664e-01 -6.726013161277916153e-01
2.228466915342364185e-01 -6.909961225351924918e-01 -1.361603927835314531e-01
-6.817833126714552272e-02 6.818288876822672373e-01 4.177077701747500260e-01
9.764641262720756554e-02 4.757938105441302246e-01 7.080105039669255529e-01
3.975146213750006541e-01 -2.220522267951786088e-01 3.799791340165141473e-02
2.992128157425962276e-01 7.237793210467623473e-01 5.698851397864868051e-01
-2.038034074739376589e-01 -2.063409798851578714e-02 4.311848940077229742e-01
-2.965516525098661482e-01 5.104608754088220124e-01 1.433034448963720342e-01
2.582280485840377296e-02 1.181845767874972969e-03 -1.738518613999860130e-01
-4.445275922678389446e-01 2.108694058938232474e-01 -9.020771614531851723e-01
2.805216424487304017e-01 7.084342262321192685e-01 5.862978142951236205e-01
7.521580635483565702e-01 2.424658641743073287e-02 5.275729184291420015e-01
-1.787836829401978911e-01 3.133941556864146966e-02 5.192499662056736520e-01
7.461977872447106419e-02 -5.242295398555622127e-02 -6.762791436919541876e-01
-8.067284372649035085e-01 -3.838850322279390159e-01 -3.934137522794887154e-01
-1.375865400459124754e-01 1.961987313782078413e-01 2.640600032275311482e-01
2.493239385534191110e-01 -8.035758899281736367e-01 5.419065152337559921e-01
5.629180323477697145e-01 -3.434839029464900051e-01 7.344808027684334162e-01
-5.462407032417782027e-01 -2.507803309455246266e-02 -8.767476421710660439e-01
-1.808512284101787271e-01 -8.305421300548206098e-02 1.163187205245998362e-01
1.854810141259471967e-01 9.785347563573092433e-01 8.501311882210928206e-02
2.353644321961301522e-01 5.804238116444453421e-01 -6.311284761806228438e-01
-3.214433912192943277e-01 -9.149617664108902204e-01 3.014272165202596110e-01
1.461128534804706502e-01 9.439467719879547358e-01 2.076515009005103218e-01
1.658397571044700758e-01 -4.240229434437094436e-01 -2.519973638817831207e-01
-3.382819420202594629e-01 -6.293534381890351914e-02 6.002096648304467569e-02
-1.375834770486044911e-01 4.283775783620395218e-03 2.561193201596549951e-01
3.888627161386846165e-01 1.497370041365670701e-01 -1.484513079829469229e-01
-1.348582937012066663e-01 7.489233628741780169e-02 6.339691986011074532e-01
1.023966263360027856e-01 6.536234751274582200e-01 5.854950916688871354e-01
7.155192363773978936e-01 -1.631150586541449676e-01 3.981971752735418701e-01
-5.150289911135865761e-01 6.606635950896910803e-01 -3.217900762240321622e-01
1.220088675259524552e-01 8.058180248520701028e-01 4.404273213832627931e-01
1.595389625639074827e-01 -7.733807401773805656e-01 -1.620545174991517012e-01
8.704485793688345602e-03 -5.063210838041832806e-01 -5.474230929895036457e-01
-3.397044968870961967e-01 -7.465093110491065609e-01 -5.542831695092033106e-01
1.230956708214007815e-02 -1.594401680094669205e-01 -7.193212054994663207e-01
3.698385922182793606e-01 8.254978170129950721e-01 4.173631660444208080e-01
-2.775027773477342641e-01 8.640335308988187357e-01 -1.244693400335978584e-01
4.341542929194079914e-01 -4.399387575677256995e-02 8.996098052170176107e-01
-7.881168955439621371e-02 -6.091174740949482219e-02 -6.555454549995183566e-02
-5.100564996560420505e-01 -6.362407615915054437e-01 3.580460429942232126e-01
9.481426727461135517e-02 -2.121584458943680251e-01 -3.568735398034369455e-01
-8.766773557257530325e-02 -8.351054152176722034e-02 6.726112930370149734e-02
-2.977108155980864868e-01 6.910517867682799409e-01 9.429101874278103534e-02
4.442416781426971051e-01 1.642934570064360222e-01 -1.264731946205914226e-01
-1.703682402172410348e-01 2.758839245043212540e-01 2.344326673560262198e-01
1.461930458679243094e-01 -3.367711561516278929e-01 -2.308455161513572329e-01
5.111916966659892925e-01 -4.690296030888642664e-01 7.009265249414829979e-01
2.966483046946229996e-01 -1.344563370127031532e-01 1.218457268696521156e-02
7.278534247777856958e-01 -1.345035676860253382e-01 4.400164093466040205e-01
-7.125038312241830374e-01 -4.751628771741074897e-01 2.713025873540645880e-02
-2.085246017898910731e-01 -5.384897765074611771e-03 -1.673912709236361970e-02
2.007241358061828962e-01 -8.227593099533575885e-03 1.958818171138833764e-03
3.454782845578819317e-01 1.407276755623763920e-01 -1.659080366645550864e-01
8.290113341236350630e-02 -2.220859857368360710e-02 5.146440894789096332e-02
3.532487572154641153e-01 4.037458732376550397e-01 -4.996091274595566012e-01
-4.027705272871764941e-01 7.676005917002913792e-01 -2.052902623531507043e-01
-3.816042310023718409e-01 -7.133780629640631421e-01 4.779174180375344583e-01
-1.568225392665230367e-01 -6.482564647773959854e-02 1.192813865740209416e-02
-2.454542208996777219e-01 -9.351447332733285878e-01 -2.518801512208426741e-01
1.221884106555463506e-01 -8.009465668143513073e-03 -3.429874053259515110e-01
-7.481437228260197081e-01 -2.905052891585179209e-01 -8.335205088706465482e-02
1.084709271515392343e-01 7.761368426253799357e-02 -9.293138631691091889e-02
1.498495261975910930e-01 9.357529941526174233e-02 -6.317210486703391803e-01
1.576533903513838153e-01 1.931699435515862179e-02 1.428054906521606261e-03
-5.652803741383621849e-01 1.916868658381084278e-01 -8.456063430454822116e-01
1.412838336528131900e-01 -2.670637084501077396e-01 -1.418606771285539081e-01
-3.233938099271679301e-01 5.266056661582401155e-01 1.074814954128909816e-01
-7.415082227118465763e-01 -1.124835753292919849e-01 -6.959986157893605085e-01
1.120846484578138791e-01 -4.151505242603943657e-03 -3.090427772452997157e-01
-7.712047073579293421e-01 -5.420074589065879134e-02 -2.384161138019110504e-01
1.670073526232623007e-01 2.065897377689452363e-01 -6.765262282544306505e-01
4.203968099006501480e-01 4.045213495656101998e-01 7.936355873923720550e-01
-6.315893866734383355e-01 -2.626584522870756278e-01 -7.806590274530003093e-01
-1.390909392513821896e-01 -8.201003694188574444e-02 7.043765519084943527e-02
5.209795079573185106e-01 5.337459759195888331e-01 -2.860827175260941546e-01
6.665702248360003690e-01 4.509208247203535525e-01 5.809391882200813928e-01
9.727278530563971889e-03 -9.659849609758317524e-01 2.958010511017956090e-01
-2.479131532094263624e-01 -2.136061277292548855e-01 6.286529584009534766e-01
1.315208313823283959e-01 -2.346144709990051133e-02 3.015449587516169302e-02
4.538608960255244296e-01 -4.152480880853537393e-01 7.943673565926148150e-01
3.680998366548861034e-01 5.275069870871914590e-01 7.317313383256132120e-01
-4.847506386532792755e-01 -6.588076951389260083e-01 3.839760449970974210e-01
4.906115313711146841e-01 8.048038393529374224e-01 3.486187627578715698e-01
-6.810361353829521569e-01 1.109875141674196569e-01 -1.804778541920643575e-01
-4.536983186891383468e-01 -7.768723599978827332e-01 -4.876918477020785181e-01
-4.502557413020792376e-01 -8.111219135299939653e-01 3.079307756170683863e-01
2.144400945070550416e-02 -1.640635785350213691e-02 8.610818048459137342e-02
6.182833064362572850e-01 5.630368318353548007e-01 -1.078752615270731213e-01
-1.444558828205623757e-01 1.920724407783832854e-01 4.654334022172753049e-01
-6.141275082902722948e-01 -3.816883176522667398e-02 -5.234599551253298066e-02
-1.809822442449733615e-01 -5.035304537298311567e-02 2.528567426043727417e-01
-5.437947411288901467e-01 -4.195686523799239676e-01 -7.655653160953361791e-01
6.844733393927053544e-02 -6.978489361593195883e-02 -2.662534295205082335e-01
4.715966081987467140e-01 -6.612727131497121436e-01 3.674947196719199893e-01
6.795038758512860211e-01 2.861479570255686111e-01 4.731312867770654657e-02
7.469157288541603545e-01 -5.286803940250897615e-02 4.482591012133289032e-01
-6.183238506851514993e-01 -5.729163345475616342e-01 2.022539603045181433e-01
3.819965062730519834e-01 9.162796894401127323e-01 1.728699038858556580e-01
-4.236807369876261498e-01 3.262224995012828477e-01 -2.028309150502773453e-02
1.235217090233310805e-01 6.080546129763457486e-02 -2.915013604011127205e-02
1.002533104595402028e-02 4.920393317770901942e-02 -1.190847206032215472e-01
-6.950959875208240213e-01 -5.400150402930790072e-01 5.608762878507196625e-02
-1.277768885126549236e-01 -2.048656810088081079e-02 2.148929143705845535e-01
-5.460349527837105033e-01 6.283681587795295620e-01 -3.971032565784919366e-01
-1.541949563127794354e-01 2.536220478869747885e-01 3.138532438923163359e-01
-4.388043230002137696e-01 7.012805727986211046e-01 -1.627905252264339464e-01
4.891357342678294418e-02 -1.633126843701784570e-01 -1.245523294266280834e-01
3.670698797618209275e-01 2.761353568974994066e-01 -3.770929481255714810e-01
-1.926514991932262166e-01 1.553079757100567504e-01 1.048217121570921111e-02
-2.025278885266527107e-01 -1.676033590850553590e-02 4.627961761163202903e-01
2.007892329415610910e-01 -1.823806501720171835e-01 -1.533866397294593106e-02
-2.548049536193746079e-01 -1.428252011177391090e-01 5.457020223673969550e-01
4.405765526065035798e-01 -2.157230990363191714e-01 5.863819102292552876e-02
-3.818142721635162107e-01 5.174503205733362865e-01 3.372973758217614332e-02
-5.518522866366905033e-01 -4.964775720900261868e-01 3.100564875754607819e-01
3.063693152812616560e-01 -3.745477581997361249e-01 8.794799142724375463e-01
-7.866096081086585423e-01 -8.908991495662015037e-02 -6.077109687013253492e-01
-6.773431835330330220e-01 -5.973609389533739433e-01 7.377712797328186967e-02
5.910592052863496981e-01 -4.223689828189717277e-01 6.157031596021869113e-01
-7.219116592188404846e-01 -1.215977415925777599e-01 -7.230608885304368183e-01
7.062756397725049595e-01 2.673546080206345987e-01 1.057398987428942450e-01
-1.064371754906519169e-01 -1.719334607213143101e-02 7.386687203489105125e-01
4.740560050325171582e-01 -2.740815997477224486e-01 8.537056841617449154e-02
3.041088044599913331e-01 -3.105507006863444386e-01 -2.470676363059226555e-02
7.686481995462658423e-01 1.546041519833681877e-01 3.566279673156994012e-01
3.005358316446191669e-01 6.348935751219639823e-01 6.550735916033005868e-01
-6.733761873413002252e-01 3.392675383231322228e-01 -6.434489538742405035e-01
1.795389585081578476e-01 -8.804099717978898232e-01 4.350072083870533679e-01
4.665556633667110598e-01 2.184927525918896052e-01 8.519035816285692730e-01
-3.393724626950663237e-01 -4.152547491883779029e-01 5.849247990708759115e-01
-1.994911826987800785e-01 -8.070044892885240573e-02 8.301600653184428025e-02
-2.203367810670641552e-02 -8.918299009854602222e-01 4.963682557428965580e-01
2.093749217129728668e-01 7.971277928951676917e-02 -9.900415543038461330e-02
-2.488471687984216141e-01 4.632527198170086069e-01 2.063936998572565296e-01
-2.650451574509761210e-01 -7.649481842697301026e-01 5.441125157710815508e-01
6.186006133188300810e-02 -4.330785669398607915e-03 -2.201768271478024841e-01
-2.482702128888775728e-01 -7.101262451121859165e-01 -5.814219651456202786e-01
6.363459368021177065e-01 -3.200544284909568327e-01 6.292640927635398951e-01
-1.632126380791131814e-01 2.843264044959434300e-01 3.000648324651921661e-01
-2.617988364521988687e-01 7.167926931942279756e-02 -1.822025617818926954e-02
6.162487684101294882e-02 -1.890689694713235808e-02 -2.304780955934651043e-01
-1.429383140791094520e-01 6.664540965808863904e-01 3.345934212681901943e-01
-9.021861431532533782e-02 9.694093989541559264e-02 7.059433651470599091e-01
-7.509388852183017382e-02 -9.945572687361858844e-01 1.655901901007874322e-01
5.183132855878842538e-01 4.689618318116403617e-01 7.152520017515262563e-01
4.455395229406108881e-01 -6.704880005311216751e-01 5.103216895878499582e-01
-2.315538844246498307e-01 -8.290090933589369659e-02 9.329069580105053827e-02
-3.023037676899463858e-02 1.090262254469579611e-01 2.707239008448695736e-02
-2.679362890039304057e-01 2.034112297611214565e-02 -8.907359686886091518e-03
-1.358246398885108452e-01 9.408951379292344042e-01 -6.788442341658053325e-02
-6.704116731927703965e-01 3.480980115168297306e-01 -2.970781110653034074e-01
-2.938458582198369973e-01 -1.598713016387905417e-01 4.498125051900923599e-01
5.646550610154640326e-01 1.989007088755496977e-01 -5.451999088224220719e-02
-2.793231823610409226e-01 4.220674626520001249e-01 -8.781371136825119050e-01
4.885171200300265082e-01 4.018407351365525793e-02 2.963427870744376916e-05
7.299767355486774800e-02 -5.443611094584674404e-02 -2.696671415983663556e-01
-8.788225750395607661e-02 -3.070548951223847287e-02 -7.662628500111624830e-02
3.758467356645180946e-01 4.872135241594465205e-01 -4.894253188563515988e-01
1.216611364092755193e-01 7.428970477004382955e-01 -6.214363104232809576e-01
1.031089210343965057e-01 -7.499284554488675480e-01 -2.622045236642110977e-01
-2.264254730584625286e-01 2.811761465998675047e-01 -9.156842929944748466e-01
-2.375807656523336031e-01 -8.233062865055867929e-02 4.745791479670208868e-01
4.068648305344450822e-02 3.820709554533108926e-02 6.269418506992273377e-02
-4.328132552265449573e-01 3.767462199495204556e-01 -8.569150992420452306e-01
-5.708549963763445145e-01 -2.590879616158724419e-01 1.423995928589999183e-01
1.030654496941337400e-01 -7.993114214876850809e-01 -2.117024539970116526e-01
3.822626887236695858e-01 -4.218427134204741358e-01 1.702814609159501030e-02
-3.059462707284619776e-01 -8.157996582043897105e-01 4.631742366746210982e-01
2.824842657863538831e-01 -3.671697976737564040e-01 -6.165864016967460143e-02
2.014547898535423431e-01 6.824856496200515377e-01 6.005382929186692254e-01
1.417916299505271593e-01 -4.533657849954564334e-01 -3.137471207759437997e-01
-2.767818012505315894e-01 -7.859706548914563440e-02 8.266517062888900647e-02
-1.167368891142085141e-01 1.495058530863534740e-01 3.538064663954934574e-02
-6.889408404983936585e-01 2.737005606429487869e-02 -1.516847525663262697e-01
-1.847141461831336706e-01 -7.508595822416937182e-02 5.579338870420927354e-02
-4.663831700720413864e-01 7.208516429670834835e-01 -4.183126779188611755e-01
8.686755842623830604e-02 -8.973567503933516099e-01 4.647001241435494978e-01
2.515389974067491208e-01 -6.422445257832085641e-01 -1.187766529082239647e-01
4.182604822741698980e-01 2.274533279002365904e-01 8.649140954783616220e-01
-5.373404046610656959e-01 -7.147207907381502023e-01 -5.181536557730038739e-01
-1.617200194661682910e-01 5.756648786234075388e-01 3.531835143720488679e-01
-4.594345366708281753e-01 -8.981164359226941896e-01 -2.247136110416584065e-01
7.693557308072441758e-01 2.680230397005783916e-01 4.058927354443054858e-01
-6.761317701925170960e-03 9.034585471746442442e-02 5.605630176001118875e-02
-2.483536519007066568e-01 1.993867685395784295e-01 2.432942398619820229e-02
-7.181728966465640296e-01 2.848560589442713023e-02 -1.893882197276799684e-01
-2.286663621637474442e-01 -8.911666532707461785e-01 -3.418818396222000899e-01
-3.775740235713027221e-02 -4.113739745884727184e-02 -1.184878971010042692e-01
1.052119306606911220e-01 6.109576595615276995e-01 6.212273840955359061e-01
3.418462302231657923e-01 -3.577435243057216496e-01 -1.037671759405163312e-02
-2.261226415086906860e-01 -8.351003046295239762e-02 2.609728727842305362e-01
-3.416528188364658658e-01 8.216506409625203844e-01 -4.276710284951675822e-01
-2.576036614945292347e-01 -1.007814163175899808e-01 1.642074203965275536e-01
1.837645622596860429e-01 -3.936927184316366124e-01 -1.991629011374151659e-01
1.022729168229817714e-01 -1.140035153727033818e-01 1.457117349782480892e-02
-2.159696694491507474e-01 -8.705185194991799102e-02 1.176371463855352684e-01
-4.705278292354189706e-01 -4.074388021739977495e-01 3.992806436392135616e-01
1.044163316365478156e-01 9.966087905073029996e-01 -7.229182517410985553e-02
1.658671743038725443e-01 -2.483102127058585962e-01 -8.476562475891245840e-02
-3.303663466155175588e-01 3.292619697567933934e-01 -9.021083791545894126e-01
5.358258283948910683e-02 -9.661727049513098020e-01 1.285612487719330066e-01
-1.651679674225628447e-01 -2.257975858288010368e-02 2.739385445847752343e-01
-7.332427056168874802e-02 1.343922987437873862e-01 9.958111534472609272e-02
3.810895271052099770e-02 -7.714367155057522130e-02 5.032781102302245207e-02
7.730338737235946389e-02 6.340679881158939324e-01 5.862295542240931745e-01
3.124707806281276090e-01 -5.423483866488333360e-01 7.942395252066583033e-01
-8.225182878340854264e-01 -1.809101660056308403e-01 -4.431795225176876629e-01
-2.839638655942319234e-01 -2.763598719162089212e-01 -8.623326524901028245e-01
-1.021552698331998216e-01 5.805640438538668680e-02 -6.019486121246632460e-02
9.883727604284334167e-02 -8.567157215012217997e-02 -5.849481135439689172e-01
-4.064029348502435357e-01 -1.537253832773165518e-01 1.697176273936188418e-01
2.490431926455766998e-01 8.490897354892039672e-01 4.083150666236423088e-01
-7.138434693100718237e-03 1.266065800997301094e-01 7.906180498309202109e-01
1.209120205944723275e-01 -3.610511998432102687e-01 -3.359756861321620547e-01
-1.400734181989919669e-01 -1.889129953883164105e-03 -8.910617477812845522e-01
6.314538019142766911e-01 1.475522631739586699e-01 4.886399223040374662e-02
-6.663023957534485175e-01 -7.348542680036933561e-01 -2.113572421205805463e-01
-3.287214163781183585e-01 1.936564475857635026e-01 -2.861009027947586381e-03
3.120407112644276240e-02 7.500624339943506858e-02 -8.477791515699113767e-02
5.523908409715431178e-01 6.880965649550816465e-01 4.772991399583900174e-01
1.731606446555938039e-01 8.639721052659934952e-02 -2.035860535603010169e-01
4.626745746365226730e-02 -1.497637984993567817e-01 -5.145315984147322969e-02
-9.123236115894947651e-02 7.040322532449662107e-01 -7.187625294752166827e-01
3.019373931286695178e-02 -7.680927257372357486e-01 6.596745551696064913e-01
1.525189421686376778e-01 4.196897193079059951e-01 7.677085293046480574e-01
-7.888877392680399003e-02 1.349703780321171442e-01 4.375291121958786028e-02
-1.664655190306914834e-01 6.867158695636127463e-01 2.886615898554963922e-01
-6.559054453630515091e-01 -6.744861953270934185e-01 -4.289340538226121269e-01
-3.551530763857962403e-01 -7.004461269281900826e-01 5.128252427439815575e-01
-1.969202585851454607e-02 -8.314203175421064351e-02 -1.182674637705599663e-01
9.801058372877000102e-02 6.724298876189738206e-01 5.669560545071562485e-01
7.442256899868767706e-01 -3.313627756026470139e-02 5.299397607387160702e-01
-7.184764697175383130e-01 -4.501052012162232718e-01 -5.890583003833745890e-01
4.931791595182324905e-01 7.421139635443908533e-01 4.622421754488136303e-01
4.373802706987522937e-01 -7.008876791657802086e-01 3.334398224282663081e-01
-1.175898240282525903e-01 3.854787559206013237e-01 -8.770124716024543243e-01
-4.937249394129655244e-01 4.655674479025460610e-01 -8.948124468330516390e-02
6.590710263130737934e-01 -2.693677758280542123e-01 6.235229459757901660e-01
-9.777494409708882561e-02 -7.417719413081126645e-02 -2.616935823769516931e-02
-8.137549850138292573e-01 -3.216976611901178895e-01 -2.900798577040199500e-01
1.032959605370016715e-01 -1.251461484243819589e-01 -4.862052807600376614e-01
-1.079692692114548602e-01 4.359749081711451063e-02 2.323703847999851191e-01
-4.493122599841761766e-02 1.073867020663332866e-01 -7.793979121802989928e-03
-3.398969380345311930e-01 7.750734765821684080e-01 -5.528589728516520863e-01
2.820529595907659420e-02 -3.703623372418274329e-02 7.643691341420102980e-02
-6.633293898590857385e-01 2.570625924219592240e-01 -2.242390327718466747e-01
-1.313700968072472608e-01 -3.934904526096683064e-01 -7.489765955386018526e-01
2.121529629819608465e-01 2.807450671346062854e-01 -6.464286322167529519e-01
1.694066005007277553e-01 -2.130103679317042198e-01 -4.810551539950395916e-02
-3.466663735773831689e-01 -5.749592249610415706e-01 -7.102161722758426610e-01
5.223017409053329896e-01 7.658472945863417092e-01 -1.472526828053612735e-01
1.644267884708246474e-01 -8.799573507802406214e-01 4.525513311798222138e-01
5.349013860743521143e-01 7.689347002645334772e-01 -1.115863281214879155e-01
5.968454300770975607e-01 -4.400224295319424272e-01 5.712305414921877711e-01
-1.304653672759324978e-01 8.588070984292881307e-03 2.480085327910066528e-01
1.587394854437993164e-01 -3.848388998524958637e-01 -2.440581281977799721e-01
7.455873561391653803e-01 1.421367774703841957e-01 2.528844410208390125e-01
-4.964864366599012202e-01 -7.903727184478341883e-01 2.635529354137128855e-01
6.082950446804813449e-01 1.936006712606743729e-01 -4.707993674875527584e-03
-1.464944945351562000e-01 -5.725618247500225966e-01 -6.507609413035811974e-01
9.189358652489624732e-03 -6.377910283582286510e-01 -4.663239415930242049e-01
5.049927211843328184e-02 -1.646898608174403034e-01 -1.319650485606395363e-01
8.075440461279292936e-02 5.800686104561297851e-01 6.292192572539528905e-01
-1.679112013995732733e-01 4.177924516226777518e-02 5.623434916766413272e-01
-5.100934089053777987e-01 1.215559392547797685e-01 -5.769290500634367824e-02
3.220663630777572534e-02 -2.830597574760884139e-01 -6.216199830423262407e-01
1.350524454224589499e-01 -1.749348670706928413e-02 -5.137179553815800492e-01
2.252136536801530725e-02 -1.389358015046285033e-01 -1.069259842677229982e-01
-1.341835385413697179e-01 -8.078881138077885493e-02 8.981670572075312053e-02
7.843851545200182518e-02 -1.825877448594352137e-01 -2.547859122862109471e-01
2.451008354345957096e-01 -6.025342945319627219e-01 7.756580835785832351e-01
-3.814022280537542886e-01 3.205592546067691506e-01 -8.943118512985831492e-01
1.641529087277844579e-01 -5.344852322547121171e-01 -2.759732293268843950e-01
-5.646355597707513468e-02 9.764674971124767122e-01 -1.942653115508708450e-01
1.123230508394151700e-01 -8.352652946740125595e-01 5.690919882488165715e-01
1.347902897122146559e-01 2.703334197004562123e-01 -7.360456914101247694e-01
-7.954818493300663818e-01 -2.990069698284024066e-02 -3.216019399103516863e-01
1.619029647591556376e-01 2.216241117323774212e-01 8.576151230241549905e-01
7.234888052411040382e-01 4.479266781480952808e-01 4.547483033618198722e-01
-7.813021971147494638e-01 1.145098722911567779e-01 -4.167493491128843042e-01
3.436106364431655291e-01 -7.707598832110899023e-01 1.742063312128510066e-01
-7.563386184280172786e-02 5.751937355718990119e-01 -7.992024398088271031e-01
-3.376547488616024051e-01 -2.889017986533989335e-01 5.293100778422120678e-01
4.746112275855388085e-01 2.338714166502800784e-01 -1.750748219917367121e-01
6.850319119992488437e-01 -2.357986981830266504e-01 5.789218395880485479e-01
-3.478319163398579383e-01 3.721488311302118546e-01 -8.856078360295347451e-01
1.046489688904301690e-01 -3.539994975050439995e-03 3.789804046504594015e-02
-4.706571722683650649e-01 7.193255735362760750e-02 -3.109687885355281317e-02
-1.676316567114942424e-01 -3.911913779218188086e-02 2.500430732027135172e-01
1.264850478931446864e-01 -4.700822921657711873e-01 -3.485456211742227750e-01
2.401368028368318919e-01 2.152012751724292350e-01 -5.563319360647283052e-01
5.733389716118397761e-01 -3.587874927286770488e-01 2.127862263902716988e-01
-3.985317850094000774e-02 7.224322094430261909e-02 1.301632920077829547e-01
1.949073328576761133e-01 -7.231520998524690325e-02 1.596033063675918531e-02
-6.805597668613182216e-02 -9.366060652348809912e-01 -1.702167565424289875e-01
7.076875595665206298e-01 -1.945122537297891974e-01 5.296136495544074840e-01
1.429230069075412002e-01 -1.762258448532714183e-01 -2.812723038885098573e-02
2.936928318479845729e-02 6.690341059450344297e-01 -7.154458034425233981e-01
3.441875354531517828e-02 -1.191395803731492148e-01 -1.839568094493083672e-01
-1.162244941637208401e-01 2.232892122242772781e-01 5.733940684790775899e-01
1.911648635724433609e-01 9.902954269646248031e-01 -3.890914493086074927e-02
5.447722016200031714e-01 -2.009518791120367964e-01 8.162458106169266925e-01
7.473780565767194906e-02 -2.283565047665195302e-02 8.841231582285076218e-01
-1.469815087624396222e-01 -7.465590639621261237e-02 1.327680418202438206e-01
2.383013904005006345e-01 2.107113034953698449e-01 -5.554698210529811497e-01
3.444420068554024938e-01 2.429088147614155146e-01 -3.701661814233628278e-01
1.302233559021895304e-01 6.153487653618343323e-02 -6.465176344655917395e-01
-1.041630282513520273e-01 -3.959606097647068168e-01 -7.281892625599095670e-01
-7.359400082207452343e-01 3.753531945006090970e-02 -2.214284043354045883e-01
-2.535773693574094878e-01 -1.931487258162666587e-01 -8.838803819187718291e-01
4.210782210047001595e-01 8.371374694704112329e-01 -2.331366436388166430e-01
-6.530828405434999095e-02 -8.731151921365463975e-02 -4.217064444033121612e-02
-8.922408083587637928e-02 -8.729537699280275065e-02 4.791200843815516391e-02
4.677214545711058102e-01 8.738629613910897653e-01 1.523645287712433738e-01
1.759753680855112024e-01 2.052239311461805105e-01 -6.626538505558904335e-01
1.779071516143028719e-01 -6.779854164515525250e-01 -2.102661958103337891e-01
-3.555535090729783909e-01 2.136142174018843820e-01 -6.322675543780848298e-03
-1.919879340485902419e-01 2.513676728370176638e-01 1.212352618290074568e-01
-1.807669134914119055e-02 -4.766382250252205743e-01 8.237909449178364429e-01
-2.726738294401122586e-01 5.803661511836964992e-01 1.757655216117665342e-01
-6.574605842595588889e-01 -3.005129748827238823e-01 6.628700415623878239e-02
-7.885039968985398939e-01 -4.595100353540444438e-01 -2.211949386569019849e-01
1.200203782118482720e-01 -2.469261255324761983e-01 -1.523885294715755512e-01
1.456012813203365341e-01 -2.604496316865093086e-01 -1.244304552272768177e-01
-2.899822887710392094e-01 9.794732299444032508e-02 -1.531528980527000101e-02
-2.224431439076055284e-01 8.089444474062235102e-01 9.427055381691894220e-02
1.242074447055494524e-01 5.417633790218573386e-01 6.811299228603480138e-01
6.447992511827724815e-01 6.874015851945947109e-01 1.589187102258989015e-01
5.050661692832690841e-01 2.872059857449407727e-01 -1.918384071434812432e-01
5.739402418361838620e-01 5.953609799052440588e-01 -1.860057136973173875e-01
1.943317282564476223e-01 3.596358314835750719e-02 -2.656784876205049370e-02
-7.351018833178161183e-01 1.012089942930077119e-01 -2.557093491504465188e-01
-6.116167880655982991e-02 7.405525190660137980e-02 -8.632470907615149569e-01
-7.578966944835143771e-01 1.888150079746967608e-02 -2.518084341745275845e-01
1.378591563392854991e-01 7.778002216760780685e-02 -6.438111416492684480e-01
2.574219267626009500e-01 -6.208435604425449617e-02 7.667281260238700998e-03
4.759975741893773815e-01 3.235624475712280401e-01 -2.622424034807061544e-01
1.016051975777291505e-01 -1.204990320618391647e-01 -5.184817938738361942e-01
6.760839438195483941e-01 4.113605527393101591e-01 5.961084613997533754e-01
1.100923987195374515e-01 -6.922601059029349913e-02 -3.890764093541032587e-01
-6.976784513157130441e-02 2.395716152589202202e-02 1.737394361160735090e-01
6.363527559967839808e-01 4.751502840588452958e-01 6.048258141198513682e-01
3.589731694314209076e-02 -3.410786041682382919e-02 7.345065456684427008e-02
-4.944714858273205338e-01 5.593934040910609751e-01 -6.916813624548601158e-01
6.550161599710794258e-01 2.846338682606683879e-01 6.943754813561039407e-01
-2.222529932727847768e-01 -7.709262602457168934e-02 5.420416457788286291e-01
-2.987529347087164999e-01 -1.746975554542435360e-01 4.689290455147555048e-01
1.171756544447423165e-01 7.136152912278805882e-01 -6.458731905035406395e-01
-1.974364290249962794e-01 8.794209180213390376e-01 -4.643732152294806625e-01
3.646958174310507839e-01 8.742643763195516726e-01 -2.561854317982422136e-01
-5.230879950040994153e-01 -8.693465679339669183e-01 -1.967118990314585814e-01
4.159019771810529287e-01 -3.363091383385293787e-01 4.691167879381510225e-02
-5.236680636406201156e-02 9.760562071608420709e-01 -2.130413592230895603e-01
1.709263013441527923e-01 1.271137172947892358e-01 -6.165076673427903886e-01
-2.272292802477384743e-01 -6.123434187265019285e-02 4.143655994602599146e-01
-5.266373237795133333e-01 -7.735074762484947519e-02 2.330768562437890087e-02
4.955400242185597527e-03 5.884700717474364989e-02 8.334935371427651396e-02
-6.159521822010332465e-02 2.301616756009003950e-01 6.807304233363852264e-01
-5.858048214025787792e-02 -7.812003502413332467e-02 -8.248683112550224683e-01
-2.252700054408881547e-01 7.103255710590941074e-01 1.886685056395127069e-01
2.549559099165403797e-01 -4.655924257316731985e-01 8.534850348918275875e-01
-6.650776570425681600e-01 -3.105606049313762718e-01 6.134521849378577613e-02
2.438744865719307542e-01 1.259946834537540583e-01 -2.815222627430758462e-01
-5.543653060130202537e-01 8.880070840100172044e-03 -8.734188757655790836e-01
6.820712602564124594e-02 -4.843131873945440424e-01 -4.634290717970012130e-01
3.233077937781636546e-01 1.765750139455836976e-01 -2.707407499230902737e-01
2.577797537421988583e-01 -7.599557323591741298e-01 -2.317645869693460078e-02
2.464595711909604581e-01 6.234073163024901332e-01 -6.060302426828578781e-01
7.554480802061063205e-01 2.768216777798160073e-04 4.751614625335273678e-01
-3.961563336653105005e-01 -1.934761471804242461e-01 2.607613326145706290e-01
1.467612939534578172e-02 7.577301228643477937e-02 5.157068957285548816e-02
-5.374867272317476741e-02 5.846357393996833712e-02 -7.814502627009926872e-02
-3.132863653651511426e-01 4.405303573883167512e-01 1.068945487043815867e-01
-4.795450461931364816e-01 1.479992074477396169e-01 -8.992342353254029197e-01
2.376686421107469804e-01 9.544415235242306172e-01 -2.271958763047098595e-01
6.252400577672565518e-01 3.988480949881477722e-01 -8.855674827864473686e-02
-7.798885084857249891e-03 -6.448118064964791785e-02 -1.457740665611326203e-01
-6.701060076896557527e-02 -7.040785457955070492e-02 9.305662332858834207e-02
6.680226394904464904e-01 6.152278670503819047e-02 1.398390390780225312e-01
-5.731343197222200231e-02 7.407845246901641201e-03 1.551183109024037998e-01
-1.646747519195449760e-01 5.614040911667195211e-01 -8.180895271985957340e-01
-4.585957520701329226e-01 -3.735089672106818581e-02 2.161821630257356602e-02
-4.584782166690349881e-01 -8.996790975875500473e-01 -2.203527897612781450e-01
6.357974302300001268e-01 -2.746064006666650292e-01 2.681475530716825872e-01
-1.533402764367667037e-01 9.212752587970826079e-01 -3.813116904562040554e-01
8.401710746982009315e-02 -1.581519431733516556e-01 -5.647812484350234197e-01
4.870702804797986257e-03 -1.062131121519814675e-01 -1.353368450833082881e-01
-8.667987057505259496e-04 -9.144178332116187358e-01 -1.557304314344919172e-01
2.195583653484611819e-01 -3.536383747120112053e-01 -1.183045260136681015e-01
-3.362460509160057343e-01 -1.471394529529454764e-01 2.378304503105193035e-01
4.484054570980004484e-01 8.532740743549978024e-01 -1.459571168533280172e-01
5.453808517863819594e-01 2.949321147940244803e-01 7.872085756002550339e-01
-5.443810500942406483e-01 6.008129081900882573e-01 -5.479105318107253542e-01
2.837243268296267829e-01 9.248411706618041295e-02 -1.118826879618870923e-01
1.395482321451342878e-01 2.012827113200367068e-03 1.921871963954844761e-02
-4.199012539642920649e-01 -1.261085717861772093e-01 1.185348954902890189e-01
5.548581671251499869e-02 -1.414298844282034506e-01 -2.173303256619899815e-01
-3.757100578308057437e-01 -1.840065175886109738e-01 2.734444092109790669e-01
3.105747394142682055e-02 -5.602690823028960709e-01 -4.871078965571460917e-01
3.854035087634749002e-01 9.260945887634418616e-01 9.641439802789675273e-02
1.117734888603893750e-01 2.048315294624688740e-02 -6.527209653657172206e-01
-5.266411013553473630e-01 -4.390554597402786530e-01 3.310532059934122029e-01
3.557822743617920502e-01 9.669616167808724183e-02 -9.608992460280120496e-02
-1.279697739366424669e-01 -6.325066696278270895e-01 -5.944907890989262755e-01
-6.296905529439488225e-01 4.560644344966634511e-01 -3.092609605290599917e-01
7.034189640208190486e-01 1.779584477932820707e-01 1.379132434860331491e-01
-2.081752017272844868e-01 -6.802937435558138735e-02 2.691395378872146193e-01
-1.003571268975919778e-01 -9.265539872994553450e-02 -8.493856881279260307e-01
-1.690637626815753858e-01 6.732955446892775753e-02 4.840164551275527582e-01
-1.566103416255432978e-01 -1.645698776568163546e-01 7.347385368200037847e-01
-1.767613962445062359e-01 3.394219622105386081e-01 3.034916887080055248e-01
9.697433205310800053e-02 -2.324375894033026135e-01 -3.560674150260538240e-01
-3.951109644342333249e-01 -1.906868241985317514e-01 2.563525501251596173e-01
5.707123466097985265e-01 2.868801648958740902e-01 -1.105889229666217333e-01
