-8.166764278701711399e-01 -4.638232195547292713e-02 4.353643780123513385e-01
-8.875565651914318899e-01 7.342663005283374400e-02 4.638590283146107329e-01
-5.297546399879040635e-01 -6.739576606115209589e-01 -2.562335504641257700e-01
7.577173914315441516e-01 8.307051149665872769e-03 -4.609651598284778551e-01
5.859818353064777385e-01 -1.060459778627030197e-01 -3.042744676117096203e-01
6.584067053828660532e-01 6.550080929629427118e-01 2.681782380390149156e-01
-6.097483371113133765e-01 -6.969522818953309828e-01 -3.485508433531247507e-01
-8.731944399238160681e-01 1.707540423602263956e-03 2.984664336037795920e-02
9.015122606606300604e-01 -1.902880864910552194e-01 -3.916042699413845862e-01
2.622202655541210903e-01 -4.621019056037607986e-01 -4.363994732440367730e-01
-6.634354143160573480e-01 1.172320210965819148e-01 2.093363586678857746e-01
6.652852827639598177e-01 2.548959991010238957e-01 2.452636233594291670e-01
5.093584602307134057e-01 -1.898707276945793276e-01 -5.606767743157815564e-01
6.296558889683290250e-01 -3.971913349797744769e-02 -4.450650218189141083e-01
-6.826104308369804752e-01 9.008318508031848415e-02 1.769899997341735365e-01
7.248196530370567547e-01 -1.668110465350775007e-01 -1.758527838152351697e-01
6.611193731330231582e-01 -9.261920488157991682e-02 -1.799606060372349048e-01
-3.368095704326873330e-01 6.832809229937352180e-01 6.332117377083396059e-01
5.531808307047889617e-01 5.845715543414672366e-01 1.673805158340348487e-01
-3.054563940389641297e-01 -5.842641873883639425e-01 -3.130818449261907332e-01
-2.255304066914850247e-01 4.829048163907881941e-01 4.479005518901734151e-01
-4.894922110345722444e-01 -6.066289769739623416e-01 -2.123924656177741399e-01
6.243895774763722484e-01 5.515092464856243826e-01 5.095767270708733143e-01
7.453296450730420020e-01 6.042326150142779406e-01 2.396220425880920823e-01
6.899215405409434565e-01 -1.717968157312340927e-01 -5.950649476528616644e-01
-4.491535591361112134e-01 -4.340374646428579730e-01 -2.664497648412756936e-01
1.891615548635505739e-01 7.688440563713230258e-01 6.228736964653261987e-01
3.753085755018039094e-01 5.780059994638523380e-01 6.541600460471542755e-01
-3.762988852125923045e-01 4.060688255592280194e-01 7.423616918781898999e-01
7.088441418646984626e-01 5.086398855893135007e-01 4.394430094512556395e-01
5.400313398708681545e-01 -4.880848936693002460e-01 -4.018607127266416446e-01
8.060425323911880602e-01 -2.848801962640415963e-01 -2.933279217334280875e-01
3.651002128571337324e-01 5.248224119589662839e-01 6.390995826214248554e-01
-6.824352950271771467e-01 -9.652316479450429032e-02 3.023936555666904002e-01
-7.495757207231567021e-01 -2.331298468157477766e-01 2.378842349127787692e-01
7.847575589332600465e-01 2.094999768283495045e-01 2.081661078496564177e-01
3.461871747123236864e-01 -3.757307896124471580e-01 -7.137963859426650348e-01
4.639605727008992431e-01 -2.109686210514108429e-01 -5.102171807943332027e-01
3.142364802248121675e-02 -5.886377908478539478e-01 -4.225457565803226734e-01
7.000050467435044999e-01 3.806330306151799459e-01 -7.020296751106230859e-02
7.714305985921378062e-01 5.679736691714518115e-02 -4.195539526101049188e-01
-5.092624201986695187e-01 2.911457283025970511e-01 6.829694230753645678e-01
-6.363602946575381836e-01 2.596892883084501724e-01 2.797388957830857503e-01
-7.748141058235211709e-01 1.403110247734486449e-01 1.536998485992512320e-01
-7.162810172888598448e-01 2.602256417862935378e-01 2.528100365398980309e-01
-7.018571879256056967e-01 3.399163685114393041e-01 3.119406834370817561e-01
-9.606280789835419665e-01 -3.314088570528475053e-01 -6.715177831106761142e-02
6.873172237626685721e-01 -7.387260154405769774e-02 -5.240887987262085046e-01
-8.641731766723258490e-01 -4.491068061084397822e-01 6.705533731727261748e-03
-3.703606595595907991e-01 6.705286050283189025e-01 5.820901527283928178e-01
2.565993911746524692e-01 6.743352536446963752e-01 6.919581690122361683e-01
-5.191086385237841938e-01 1.879236005407151078e-01 5.630952675246473360e-01
1.995746532570448761e-01 -3.779471507057768909e-01 -6.406310885596691040e-01
3.645428374862094145e-01 -6.171447345668454876e-01 -7.114813698340716197e-01
-9.697996198694334158e-01 2.088040709861871402e-02 1.556053460185031490e-01
-4.259004208441034556e-01 2.559305396049180170e-01 5.854352823501062231e-01
1.645397771081741900e-01 7.113178734993886865e-01 7.003495478259564866e-01
-3.512349174467292445e-01 -4.540269788458706213e-01 -5.638382276086292277e-01
4.875764442557130318e-02 -6.744058392242087141e-01 -7.445915992617551105e-01
-4.595262974373012788e-01 4.324709255960182963e-01 7.433946471435788350e-01
3.031287907791585523e-01 7.670780225119276929e-01 5.714197314730259381e-01
-2.850999042748877249e-02 -6.500485896493342075e-01 -7.496250450935880716e-01
-9.162412894120481877e-01 -1.360827082108672162e-02 4.000144702432358867e-01
4.679706382180309765e-01 -6.183572420947103243e-01 -5.601610955743515641e-01
8.033964765136191177e-01 -3.417811593197213060e-01 -4.005007832834384662e-01
-1.985711045469371328e-01 -6.015745762035571431e-01 -7.181149213802127118e-01
7.400553870825138381e-01 1.957210742615840549e-02 -1.965225756118446979e-02
-8.419230400617228049e-01 -5.224484517504686121e-01 -2.378204635489669094e-01
-8.943520677247247530e-01 -1.889817744618785822e-01 -1.352163052673486243e-01
6.962443441627348406e-01 3.644316078420533067e-01 3.871124149345916976e-01
2.669393470025321902e-01 7.741387566986281943e-01 5.727065273862680383e-01
-2.436631890094866082e-01 -4.520025455646108914e-01 -4.681615283699512853e-01
5.717885784026541796e-01 7.066108121520265906e-01 3.949743094244840269e-01
2.581928146040054495e-01 5.490757440469923312e-01 6.891250696936662701e-01
-7.805200653140146327e-01 -2.455066891232497717e-01 2.442638527814332550e-01
9.308229744888373292e-01 3.472329291719896127e-01 1.289526680081107823e-01
-2.304429198550310420e-01 3.658242783866776371e-01 5.713305672710385918e-01
-2.685662015080827678e-02 -7.774054276703488142e-01 -5.681276237813923657e-01
6.219150392831468421e-01 -5.524855275282562761e-02 -2.370000401602704587e-01
4.734565475065559692e-01 -2.340569937435808545e-01 -4.151372410007298508e-01
6.638012732310576425e-01 -4.038652343234124253e-01 -3.547821172769539122e-01
-4.485228342141637792e-01 2.598224954164676803e-01 6.258587217139865988e-01
2.368587653579685148e-01 4.818820133346012891e-01 4.075924823628110372e-01
-8.670687866941700905e-01 2.008355301754435607e-01 4.982151239358799666e-01
-6.652757919702845246e-01 2.669088992466715493e-01 6.536752249597469477e-01
-5.748121201568029415e-01 -5.285438458820672647e-01 -1.202309759898330110e-01
5.394791361492311532e-01 -1.378628141740858848e-01 -4.074983296793207588e-01
1.455301995328301123e-01 4.468491241727850505e-01 5.392703814098731563e-01
3.738610842080415386e-01 -6.063248881839004012e-01 -7.157166856741835614e-01
1.593788996289133009e-01 7.833999226641329416e-01 5.332906344885957051e-01
2.723062296566630125e-01 7.776244301033280459e-01 4.928106001976104156e-01
5.436507636820255840e-01 6.221996163618381814e-01 5.565203983223546702e-01
5.599498062201139215e-01 3.206256291378496992e-01 2.023987156136467791e-01
4.234268450390507588e-01 7.375167879599392462e-01 5.437741439963725831e-01
-6.409339559825404375e-01 2.717857398983581363e-01 6.625522460865236329e-01
5.594003449787622317e-01 3.215532959185431472e-01 2.000012041819337616e-01
-9.566366438009193951e-01 4.666857830143493827e-03 3.499047426896954582e-01
2.489207135834548557e-01 -7.146318400725674147e-01 -5.849815201475712101e-01
-6.374888282925409433e-01 1.247572425640975334e-02 2.505374144338905484e-01
-9.249511553476740255e-01 -4.744307093921075469e-03 5.600244508251202985e-02
-9.476171932911586770e-02 -4.491919373520277259e-01 -5.306886951787653794e-01
1.231009572455654816e-01 4.912039943427792266e-01 4.468391634381375654e-01
5.618862632017488368e-01 6.323899174059881556e-01 5.374143371547334125e-01
8.380729520294900592e-01 -3.552300513357160155e-02 -4.685062944822196429e-01
-6.490567688790437328e-01 5.000793371961183009e-01 4.901787677449822023e-01
8.376129266189518141e-01 2.509032597601973946e-01 2.235682742384201283e-01
-1.231643538980782965e-01 -4.643104553694236691e-01 -4.862077132241272581e-01
9.319453806807430352e-02 -4.349005848409080999e-01 -6.900859417163408560e-01
5.652446700739924834e-01 3.367289659264748880e-01 1.316818366430956011e-01
-5.266112343051270184e-01 1.613121317756520401e-01 4.860309232065522789e-01
-1.973663323186515828e-01 7.335363844702088576e-01 6.026606392694687786e-01
6.308655065122340533e-01 -3.464032031836175030e-01 -6.692896332871681730e-01
-4.325739962212331591e-01 6.347416173813691387e-01 5.437505566784684996e-01
9.845368358807142783e-01 1.404766746018166201e-01 -7.207374033668378921e-02
-6.954407629487494580e-01 2.265290659235934534e-01 2.374392312075656042e-01
5.653614942841156399e-01 3.855857105776627769e-01 4.415108625970128875e-01
7.060584137785792525e-01 -2.965382770782794622e-02 -9.269694202386787041e-02
9.120367582144885965e-01 2.115682859712170877e-02 -3.789281706375779435e-01
7.475687954235916699e-01 -2.976907906942719562e-01 -2.765179703021313218e-01
3.953544542167892195e-01 -6.518501632024931158e-01 -6.277731038934591945e-01
-7.805425496191743528e-01 3.541171587224713480e-01 5.508189428588259329e-01
6.240692384008489357e-01 2.368928555403537473e-01 9.791497680648662827e-02
-5.356216468712632350e-01 -5.389157817284812024e-01 -1.529908941615224505e-01
-8.209194316346364317e-01 -5.515261763198862077e-01 -1.800923693911206380e-01
6.425034098048282294e-01 1.953300574945684154e-01 -6.271474842961803631e-02
6.941943613017980130e-01 3.811814085388245954e-01 4.014854774560200346e-01
-3.373529937549668567e-01 -7.624745151883057792e-01 -4.251608679878920438e-01
-2.241071033255294387e-01 -4.726178736684653603e-01 -6.268244352591655355e-01
-8.146325593802715426e-02 7.583843134892612747e-01 6.314298769179128579e-01
-9.980501774589898289e-01 -1.400781041732001853e-01 8.417780298651750259e-02
8.018223616607604576e-02 -5.283901506638617462e-01 -7.591775680139927207e-01
3.373058951827325180e-01 -6.680780413541930196e-01 -5.308576198610787111e-01
6.446188658990488207e-01 3.660948448935122390e-01 -2.443391378649407628e-02
7.508739445805689972e-01 3.304330955327060004e-01 3.346317334859318371e-01
-8.738167870958978289e-01 -4.902839863342145499e-01 -1.136201677829007245e-01
1.637754964504383459e-01 7.744698639161997633e-01 6.161798595010021806e-01
-2.696206751436852622e-01 -5.983881014663952058e-01 -3.307503389008834005e-01
-3.244851527362758170e-01 5.271591411734071198e-01 7.697433798770436653e-01
-7.072643296250334943e-01 3.044273413612648693e-01 2.848067400210901323e-01
-3.911158264269811169e-01 6.082395006671786897e-01 4.760826771416072356e-01
-9.474549860237609922e-01 -3.687865854017107203e-01 -1.194477164294214210e-02
7.648730125480330821e-01 5.902944213606107215e-01 2.467114313789175728e-01
4.975943074533446531e-01 -6.002686349940700161e-01 -5.448307922106183643e-01
4.337907196449321545e-01 -2.363536403507588146e-01 -5.300939050142838838e-01
-4.822459479788546166e-01 5.918470591405280423e-01 4.977339253651143491e-01
6.116160131155777835e-01 -5.189582396898878569e-01 -4.869993154369927080e-01
-8.043031721604049222e-01 2.040241356893945368e-01 5.654347831469902497e-01
-1.370555347218170572e-01 -4.541033693291378626e-01 -5.101139702015254906e-01
-4.452745219767158535e-01 -5.879870721894154828e-01 -2.300621119374036960e-01
6.274200912756563442e-01 -2.675071540693051836e-02 -4.173024826020159117e-01
6.056360492921610827e-01 -4.226986992191993781e-02 -3.038080976350087115e-01
-7.800897951892458160e-01 3.500150020041115639e-01 5.554532308786461758e-01
2.228096448581244338e-01 -3.877129077628897469e-01 -6.823567616108223710e-01
5.503158073878549050e-01 -1.761395195832424487e-01 -3.354804448170698450e-01
7.671483848428035657e-01 1.124173579397197698e-01 9.652580392640737472e-02
1.888215439114638017e-01 7.735462372256340924e-01 4.852861031427445071e-01
-6.979770345141912413e-01 -1.301311215994805370e-01 2.876786013828122046e-01
-7.386437385577367953e-01 -1.386313985808651505e-01 -9.747912756476678764e-02
-1.208952096260202357e-02 -4.781068635394426503e-01 -4.741871140661955142e-01
-2.292304063478199649e-01 -5.642889578008264406e-01 -7.008546641982283942e-01
-5.101684766582018637e-01 -3.677341759738271820e-01 -3.344712577361283468e-01
3.588319653697622513e-01 -3.514973905998403092e-01 -6.959726351280359768e-01
3.084189692252914394e-01 -3.345844423147796287e-01 -6.447501893345298773e-01
-6.582555570776692511e-01 -8.267959575762699742e-02 2.120452537692757433e-01
5.336666909174285767e-01 -3.313919027592540645e-01 -3.367079113214914710e-01
7.503703899038521863e-01 2.165331033835191377e-01 2.183048689344890270e-01
-6.050082535525133087e-01 -5.158395061128552284e-01 -5.209872984798490370e-01
5.231833159501104724e-01 6.905870425247853106e-01 5.228679722861655499e-01
7.994748557232334019e-01 1.850397112541740940e-01 -3.035304995188375932e-01
-5.218962148416216307e-01 -4.698082476431587606e-01 -5.387651115269295188e-01
4.636464860326177523e-02 7.413008615955860581e-01 6.915965393326668487e-01
-7.172772357238917929e-01 -5.348153807508524427e-01 -4.342802344265773162e-01
6.544465225537960951e-01 -4.242104654155595123e-01 -3.721824051475787209e-01
-5.531884864385565592e-01 3.181008301105681113e-01 6.970598207257139300e-01
-7.399310467304578420e-01 -5.032789248843021479e-01 -4.153413877314868219e-01
6.400972602660901511e-01 3.089256261549110441e-02 -3.250995041948466224e-01
9.701342128230839856e-01 2.965639110840782161e-02 -2.682738776187597596e-01
8.724787182733834134e-01 2.323828162154682464e-01 -2.467911561120897102e-01
-8.207230768698051682e-01 3.392858466769202441e-01 4.351615974539511100e-01
-1.433811122126417148e-01 4.335772833671903137e-01 7.136349963423989085e-01
-8.187880990928882996e-01 -2.886901944518526220e-01 -2.639956367691419503e-01
-6.696143758447974381e-01 -6.439437016315681384e-02 1.193972402251437109e-01
-8.321199491402544446e-01 -5.372933452751146310e-01 -1.514850467315597971e-01
8.754447552044417602e-01 -6.518105665169351970e-02 -4.527805121726206639e-01
6.206162337886656638e-02 4.530300422714888531e-01 5.190406546829181567e-01
6.030128761706837759e-01 -3.579158014387004427e-01 -3.210104304941662212e-01
-5.071718155367799241e-01 -3.881070183818043362e-01 -4.250042053471851378e-01
6.909585561645376073e-01 -3.424141686472228496e-01 -3.056887648356573228e-01
-1.075193706215859663e-01 -6.496138279477676747e-01 -7.373151427886056597e-01
6.382197568127785658e-02 -4.703731748925700229e-01 -4.763826854197756311e-01
5.043253736141278809e-01 4.735819378735473539e-01 5.518235497534023093e-01
5.081263192627126779e-01 3.607530062166640072e-01 2.766241014166564982e-01
-6.574792443860811852e-01 -3.781894578760986447e-01 -4.092153218208812726e-01
-9.536427111253279465e-01 -3.118703348286339661e-01 -1.052065195203289033e-01
-9.360339499726081369e-01 -2.028498826601614624e-01 -1.016637383526789173e-01
-6.155918413616243701e-01 -6.926682812141776724e-01 -3.304417356419461216e-01
-5.362086427040575476e-01 5.847966727051728819e-01 5.850581238532809314e-01
5.880605204980186018e-01 3.364791384496726434e-01 7.055047133407797710e-02
4.319163941846410615e-01 -4.530162400984220072e-01 -3.920571814993920046e-01
3.735042655266208600e-01 6.247541120457795749e-01 6.561351092014310327e-01
-7.077751906003969529e-01 4.178990278660063562e-01 3.965057570580250434e-01
6.071170678769460816e-01 2.648907783506027624e-01 1.381052174936967525e-01
6.719882524512565958e-01 -3.145889058413431916e-01 -2.850781330809995517e-01
-9.377727383055850519e-01 -3.925380062144911975e-01 -8.418242321565255759e-02
7.507814508130621345e-01 1.429120836317812615e-01 1.269968102761646622e-01
-8.793063221298070831e-01 -3.032460125475449630e-01 -2.242585369746205592e-01
-8.796790286557057970e-01 3.704338515056582182e-02 6.735118030045168791e-02
9.468545573133216320e-02 -6.857386050826685953e-01 -4.594938502335998431e-01
-4.274899931596938263e-01 5.357067471656693503e-01 4.299066620968034491e-01
-6.138889069924136077e-01 4.366962686758943391e-01 3.789046275940209929e-01
2.597863020816290613e-01 7.311568712230984701e-01 6.525426761766340844e-01
-3.660543772081941150e-01 4.199381916205354726e-01 7.482044876913442888e-01
-3.823999927479123651e-01 2.812137548722177249e-01 5.582189442826264170e-01
-7.536261058009576796e-01 -3.554053010666672341e-01 1.263817163065446558e-01
-3.542363714726561308e-01 6.472584286660062469e-01 6.974940653333738805e-01
6.620034443174726002e-01 -2.115520609836564481e-02 -4.543899755827479070e-01
2.249831804479179020e-01 6.367087771619788228e-01 3.548767384112168077e-01
-3.258990632810647714e-01 4.930007568146699271e-01 7.686759778640951390e-01
7.472825671985283691e-02 -4.252391162615820619e-01 -5.403623516678900396e-01
-7.640258667066237575e-01 -5.375449922363553096e-02 -1.385178339816556768e-02
6.527679993288550975e-01 -3.545181251986093685e-01 -6.576563480827223307e-01
-7.035025096619876850e-01 4.597739424538551667e-01 5.344478668237520047e-01
9.544882730742187960e-01 2.273044250784135023e-01 6.740079999064918503e-02
5.951349311165902156e-01 -5.389970054617567730e-01 -5.324977100077544767e-01
7.231519687285156150e-01 6.100046153070649568e-01 3.517191175334318243e-01
-5.837454049412406087e-01 2.705362203974192026e-01 3.134093896895607245e-01
-7.286240939946320161e-01 -5.458567564895250301e-01 -4.192811871777840649e-01
2.546504534127597141e-01 -3.595386846241425682e-01 -5.305385286423320856e-01
9.202440844126872355e-01 3.973136542777621627e-01 1.090227678212549595e-01
8.111411115646076642e-01 -9.964638829605916570e-02 -1.058233162688202722e-01
-2.604176710363824143e-01 -4.453465791365681103e-01 -4.848690365444668915e-01
-7.553844169369057227e-01 -7.409339301052614291e-02 -3.045010889426911713e-02
-9.011730628088445716e-01 2.070779124279041039e-01 3.010959170384816530e-01
-3.407312816357200291e-01 5.086072436893808169e-01 4.258177192190575333e-01
6.532570277141120929e-01 2.810012343214508546e-01 2.851271788173324606e-01
3.193847574553410618e-01 7.600886547250905734e-01 4.310893161671958684e-01
-9.497693910513891336e-01 -3.366482232054882617e-01 -1.089135251322843195e-01
-7.817920350271552188e-01 3.806381833088810507e-01 4.349914121527279631e-01
-3.902024849458757827e-01 3.937020331506997373e-01 7.369337327467211374e-01
7.411042249201011956e-01 3.109341004546790077e-01 3.220415925511866395e-01
5.922876332045238224e-01 -5.205783462133105610e-01 -6.188871516812123330e-01
2.944467668625422863e-01 6.002141011275496929e-01 3.188290534805550691e-01
-2.827782866647089999e-01 -4.492001125080668511e-01 -4.435185424904872775e-01
-4.452801622871019327e-01 -7.466256522532702666e-01 -5.087513099522987803e-01
2.535142554041112106e-01 4.799079791034145948e-01 3.994599146048022353e-01
-4.745281853569501274e-01 -7.424499671850592897e-01 -3.933635587197721328e-01
3.410361784344086156e-02 -4.258762240713892533e-01 -6.235621999642452229e-01
-5.604269845804711325e-01 1.386938264866688642e-01 3.780871468526765811e-01
-7.242189879926363982e-01 -5.185258511883903410e-01 -4.296955967862234882e-01
-5.715104547901507237e-01 1.728573995273260666e-01 5.870844501003306126e-01
2.671925190696235186e-03 7.031999380395889121e-01 7.307073213251550348e-01
-5.380950325399200818e-01 2.589236618740359264e-01 3.482897405281660252e-01
-8.026522513457660102e-01 -1.948187630767142173e-02 5.088108425626141143e-03
-3.432092850784119742e-01 -6.801114737293216805e-01 -3.213790711866033600e-01
-6.694493099964850258e-02 7.584730723564406807e-01 5.567823208960208659e-01
4.605911864483590024e-01 -5.145816579579916006e-01 -4.123242409961230814e-01
-7.455606944659010082e-01 -4.292108753886651473e-01 5.414328877038979138e-02
1.655574184018523409e-01 -4.357210938308488379e-01 -4.834230082788282812e-01
1.709177352367317604e-01 4.482532482406176855e-01 5.840802224724870317e-01
-7.127369793519895413e-01 4.506446404748351009e-01 5.345731349746617456e-01
-6.041715160967402465e-01 -3.506338192928144526e-01 -5.223389899304635431e-02
-9.349356541488119676e-01 -3.676140363735536654e-01 -1.391499509601830109e-01
8.986350453494977852e-01 2.263901987378717784e-01 -2.368155313687455854e-01
6.483358457005089504e-01 9.806500794792243070e-02 -1.410111368901083018e-01
3.919199277104467027e-01 -6.455180102836060030e-01 -5.285885284882034796e-01
-1.134249331237524860e-01 -7.024856725060588669e-01 -7.143334878350215966e-01
9.728752473146236035e-01 2.381455037703571198e-01 6.806294223862773864e-03
6.977523526506517193e-01 5.565079906231454876e-01 4.415862459775065640e-01
-6.744301094139841801e-01 4.833883007482454586e-01 5.548996402739309053e-01
-4.023362203883922295e-01 6.566246645283152494e-01 5.829207013392111447e-01
1.890120691733695457e-01 4.502914550072286692e-01 5.020483168880857106e-01
9.123016475132412761e-01 -7.223693262214422872e-02 -4.093719394728743133e-01
-2.684623896579133584e-01 -4.863335316417874421e-01 -3.856453772986407347e-01
5.854760215334117723e-02 -4.801445033985549671e-01 -7.285597246616253297e-01
-9.513534567143183684e-01 -2.414959185162768862e-01 1.878933876587541019e-01
-5.651583235678814265e-01 -3.578924344475032937e-01 -3.780158549804219503e-01
3.526430563599083357e-01 7.654043323697625745e-01 4.522562469489086467e-01
-6.064622976660605236e-01 -5.479802099062517362e-01 -1.122641086682305972e-01
-9.693465143632981618e-02 5.938913917954712351e-01 7.751019338207506548e-01
-6.708992175016436077e-01 1.102628821235401430e-01 1.985789256568578076e-01
5.484052183344761966e-01 7.064124573137957608e-01 4.617874903739163095e-01
-6.957701203993569283e-01 -4.359622735898406598e-02 7.240093469943996440e-02
-1.361259696902100969e-01 4.670593749654744498e-01 4.742744743127743634e-01
6.703733263722236324e-02 -6.229088271271422395e-01 -7.636439862287290881e-01
9.172211047494016611e-01 6.746714089967839828e-04 -3.819693870725218154e-01
5.421513716118623316e-01 6.682295887788762823e-01 5.290424135187732357e-01
-8.970794752533741701e-01 -9.313197320965421744e-02 3.676474922073431628e-01
6.296679859471215890e-01 2.530170857136176399e-01 -1.870216910381803169e-02
6.120630841729145510e-01 -5.133683184430816171e-01 -4.726171307840795754e-01
5.638296508461866363e-01 4.308309549968892815e-01 9.716462836081821153e-02
7.218667517835996028e-01 1.892444180941704399e-02 -3.550699978890388409e-02
-1.088179404176586318e-01 6.480033853462208171e-01 7.624968734345561883e-01
-3.232291018424904294e-01 6.063366407552913673e-01 4.596321409343156472e-01
1.955752595629343671e-01 6.833801958661932519e-01 3.814689247387272886e-01
-1.141464267944272137e-01 -6.309942832591232120e-01 -3.907160609449930044e-01
-8.710639668398226787e-01 1.052139064977001826e-01 1.321989194803423473e-01
9.168461072304499027e-01 3.782253087799767877e-01 1.537545746882605369e-01
9.110715335328060105e-01 4.111933254889517109e-01 1.326075582110163020e-01
1.719585923444485742e-01 -6.491124912694827831e-01 -4.537781874844496466e-01
-8.731844778000782403e-01 -3.975390646445173815e-01 -2.579982276059414881e-01
-2.350077006523234591e-01 4.428985750527024146e-01 7.469622250550160825e-01
-2.739270991818629208e-01 3.429416814330116248e-01 5.885861350423227112e-01
3.885046345575965399e-01 7.058081380196729038e-01 6.115839073749704813e-01
-6.091146924682595831e-02 -5.352129798569879027e-01 -4.241830647945106780e-01
-1.840810080033019880e-01 7.362840388382806411e-01 6.265205911304295716e-01
-7.156170296127704056e-01 -5.226703218064672196e-01 -4.375939081620324189e-01
-9.979409204787788035e-01 -1.876195836670637995e-01 8.404549781286771437e-02
5.071715777405704229e-01 -3.218992335049035702e-01 -6.936952744247094627e-01
3.195357477218703779e-01 4.414833801693235360e-01 4.134250633052985457e-01
5.153342920026914298e-01 3.548517142713299433e-01 3.239451946015577954e-01
3.827057663988047698e-01 5.718750780780318399e-01 6.498200851878445095e-01
-5.785051278442828737e-01 1.033228483844277346e-01 3.803099583865680589e-01
4.453866938172636458e-01 6.681958514791266346e-01 6.031582212504497109e-01
1.817442469149950224e-01 -4.121695333921853166e-01 -5.023819676205103502e-01
7.924053677894447034e-01 4.592994250598154693e-01 -1.629173955786880276e-02
6.079835495245781152e-01 -1.476440448642799830e-01 -5.726065216787243894e-01
-5.972570239579829687e-01 3.747081037672019277e-01 6.981195962873375516e-01
8.270419669916504457e-01 6.336719477568822367e-02 5.066547807418289584e-02
-2.799080393919193277e-01 -7.782275543974913612e-01 -5.565569474515152937e-01
-1.572636270116769402e-02 4.507871872348259146e-01 6.841813706046728782e-01
5.489374254435882561e-01 -1.241721956733241455e-01 -4.057320401082850081e-01
5.556452427292023488e-01 -1.410589788094936403e-01 -5.249089075971778984e-01
7.178308525328658263e-01 -4.363637311973692645e-01 -4.675320513895917518e-01
3.993363870007537453e-01 -4.624787713049476334e-01 -7.479655134993052901e-01
-7.837034695185034483e-01 -1.177937209693507986e-01 -9.469964703637721859e-02
1.102108923661869189e-01 5.149145266324187675e-01 7.139890059718180249e-01
3.204666623815476401e-01 -4.363898589100125847e-01 -4.252684784945598984e-01
-6.725438658828877259e-01 2.359869592213192646e-01 2.520255694894697474e-01
6.249593812776722129e-02 -6.164098078445918727e-01 -4.273570758625078736e-01
5.130589905489175706e-01 -4.595776452672007406e-01 -7.159069409607881074e-01
-7.693988790207352546e-02 -4.813767049193571346e-01 -4.664107047777457105e-01
-9.363712452191660374e-01 1.194240678852659804e-01 2.220186310238598804e-01
6.035207030827396402e-01 3.026988136612936420e-01 4.764684500167407077e-02
7.640787443736180018e-01 -3.262400987445963074e-01 -3.146935589274784673e-01
-5.843113277224376567e-01 -3.814733120873160521e-01 -4.254948920621102193e-01
-8.796886710140782162e-01 -4.764022905600142077e-01 -8.073249045959872416e-02
-6.433021793045718972e-01 -4.437926371654265512e-01 -4.678496013642854390e-01
1.158656506922293300e-01 6.737852319630064368e-01 7.319060674193853533e-01
9.507468844301905087e-01 1.775972434070944850e-01 5.083232926869710872e-02
-7.411762075027833463e-01 -3.764404735870873764e-01 -3.721491612493599277e-01
2.241479601834882041e-01 5.389531853817682849e-01 6.952202609132418498e-01
-5.171686645816442329e-01 5.850871118602696264e-01 5.168616763870366171e-01
-4.579211487156476523e-01 -5.176745778005420462e-01 -2.130187866198623992e-01
5.657849477984039366e-01 -1.016039356738617228e-01 -3.862215525523809423e-01
-5.270274186431916918e-01 -6.775077373827121940e-01 -2.613120703369726794e-01
7.075817944521488601e-01 2.708369995023460208e-01 -1.668902425349425012e-01
1.856812639585433966e-02 -4.684787653854888267e-01 -4.837810756680508972e-01
-6.329791305361787135e-01 3.628334108917903866e-01 3.289831649562943716e-01
-6.725901440828516709e-01 -2.071387176391263074e-01 -1.285032521597200827e-01
3.651293563697092237e-01 4.711217725240809950e-01 5.936439934068306057e-01
3.933148456830327655e-01 -5.965822703738995481e-01 -4.607005996074272636e-01
-5.717590643182574039e-01 1.312493977717125726e-01 5.203903314513425027e-01
-5.393615120547637920e-01 -7.193964792721370127e-01 -4.578571272552124372e-01
4.486080997179760221e-02 6.480028775834033583e-01 7.527608972672001908e-01
-6.467560626902486565e-01 1.610913237904627593e-01 5.991712703989544586e-01
6.553888298490246900e-01 3.600875234897915611e-01 3.964451611131335484e-01
-7.342819112868747000e-01 -9.121175132765163562e-02 -3.267033459201541118e-02
-7.784681909395539945e-01 2.476638593826075985e-01 2.428217208901717050e-01
-9.867973789107181704e-01 -2.457464756379873771e-01 8.507328992462484529e-02
-4.248279143686560233e-01 5.262637411650129549e-01 7.463278756486576571e-01
-3.611949409247035003e-01 5.998911166006977158e-01 7.374223510521252800e-01
9.574814516327605496e-01 1.871791122369588778e-01 4.274291604812085338e-02
3.852106727244009043e-01 5.492781511062232447e-01 2.644488425915473284e-01
5.323548087862599587e-01 -2.461150081315655602e-01 -6.448461325894111473e-01
-2.616797695059848161e-01 3.810337379694876403e-01 5.033405358873387359e-01
5.874113590278922103e-01 3.025431748843324664e-01 1.083332499449973230e-01
6.744836172746057068e-01 4.419405145061761631e-01 -4.870059687760592768e-03
9.000571086528632581e-01 -1.729741756241228168e-01 -4.149213766181252816e-01
-7.123907599597723017e-01 4.144784704032871692e-01 5.999126745227133517e-01
-5.088364339787438961e-01 -4.286475357748889548e-01 -1.839563434850935986e-01
-5.708700822710142120e-01 5.604985667290872664e-01 5.341577443184944984e-01
1.660407210493644314e-01 -6.997753015031786816e-01 -7.098991034383609344e-01
6.997417042192964898e-01 -1.201608791061812773e-02 -8.591800179859530873e-02
8.563336216447079430e-01 3.633372876173047716e-01 -1.128658338905596248e-01
4.019639569422359116e-01 5.919995739027793524e-01 2.570733954075547500e-01
-5.976661203671673056e-02 6.159380139935582976e-01 7.704249465187050783e-01
-6.705912673150388192e-01 -3.928573480652280958e-01 -4.182342575259390682e-01
3.187479599754516335e-01 6.718545671067124303e-01 3.290186576233658511e-01
-7.850265954401820512e-01 -1.575490942243994996e-01 3.328334587210223794e-01
-3.858507843838776541e-02 -4.752670265583469056e-01 -6.936695320842439783e-01
1.294186797480996638e-02 5.262322691857186374e-01 7.460615045566786341e-01
1.923788286754574139e-02 7.764330692531645761e-01 5.944232137379582559e-01
8.468999137276841394e-01 3.115062180582153784e-01 -1.753261347247655200e-01
4.022597383044139718e-01 -5.012736310195222700e-01 -4.084406183998117723e-01
-4.452383541748541340e-01 -4.783119265006829934e-01 -2.358633837307365366e-01
7.494156252019290587e-01 4.005940864577639537e-01 -7.868647877471049434e-02
-8.945819111230648435e-01 -4.070845386710119640e-01 4.126633945480347176e-02
8.447179790190083581e-01 4.290633248148942869e-01 2.860408516157740277e-01
-7.146364833540881367e-01 6.037910445571530171e-02 1.273547757834127825e-01
2.403433671097507107e-01 5.820132061686452696e-01 7.055638463108045988e-01
8.855681974602250262e-02 5.042514668660562638e-01 4.428615188781204193e-01
-7.741556478489131088e-01 -2.362960130721716567e-01 -2.315490816228273074e-01
-5.466328133944347023e-01 -6.957923594569136450e-01 -5.001700388445445844e-01
8.322091089512873019e-01 3.006986312794922012e-01 -1.899156186555368553e-01
-6.607318875837762118e-01 -6.654350348562995121e-01 -3.820988901044772845e-01
-9.010413424949383077e-02 4.773156760324809289e-01 4.738861481347873550e-01
3.315501623245918905e-01 5.233482787595915564e-01 3.097734686093341350e-01
-7.412646386037452517e-01 -5.688905757802968921e-01 -1.121603827721678326e-01
8.789560313886767284e-01 2.667638232391603692e-01 -2.090563682910171195e-01
-5.515676498936822325e-01 2.561751137806076994e-01 6.621632922699198787e-01
-6.142664931808529127e-01 -4.264859796540643733e-01 -4.412686211163781985e-02
-5.626204536029931758e-01 -5.734882589947457587e-01 -5.549853867556974185e-01
-9.573962437435548090e-01 -1.704760518215541754e-01 -4.921256850219624113e-02
-1.424156802494145058e-01 7.367329770189579019e-01 6.662142970984360479e-01
8.418305294000831829e-01 1.651768200583443869e-01 -3.195455928487315744e-01
8.824273671699097710e-01 -1.856380902809113276e-01 -4.484893698277614416e-01
6.856280700178944976e-01 5.259904254572089766e-02 -5.013163578899418327e-02
-2.206675934294884955e-01 -5.957187027941822643e-01 -3.532467804700849534e-01
7.436102782540718881e-01 4.568658403339110885e-01 4.034543264385018202e-01
6.156202483617243537e-01 -1.474923674172755848e-02 -3.219258338283643162e-01
-2.770438947512242067e-01 -5.251128566558824762e-01 -3.477275740306405294e-01
-1.467138788336727062e-01 5.860574770261122168e-01 4.389303433069985938e-01
-7.227252150230715211e-01 -4.850032277919570922e-01 -7.499997019073931237e-03
-1.797541786429669372e-03 7.203860838159896751e-01 7.163005193526746917e-01
9.438103905829712259e-01 1.078155911453035215e-01 -2.882880332808439583e-01
-1.486379186060656499e-01 -7.849147760628324422e-01 -5.793112193484748484e-01
5.959438778840557838e-01 6.863725748446563024e-01 4.333404610345882868e-01
9.587230628938011590e-01 8.075069427658074228e-02 -3.770127282906457489e-02
-3.817044168495374312e-01 -6.351781397656632855e-01 -6.500882573850330637e-01
8.455403144297432005e-01 5.107134453053581158e-01 1.769371616135009262e-01
7.288246628785484127e-01 -2.522127725792524533e-01 -2.359782828249887554e-01
-7.593040943240032536e-01 -2.064278409060754105e-01 -1.962411800645628979e-01
-6.582854122238737116e-01 -2.345166260577043471e-01 -1.648382317536855601e-01
-3.945074675580091395e-01 2.737016435741080334e-01 5.437742611118988600e-01
-9.903697037840806239e-01 -1.621856141723014566e-01 1.817884504768911558e-01
9.491867147098971280e-01 -3.974974886958724390e-02 -3.337159490185320210e-01
5.213034187296684135e-02 -4.578545936346922751e-01 -4.919485418486681527e-01
-7.315549361472971635e-01 -1.774611532901835542e-01 -1.466177929896972931e-01
1.558774816711240296e-01 4.505534245454745346e-01 6.007818811297476191e-01
-1.381164885121987929e-01 -5.068554668952425235e-01 -6.948167898431678591e-01
-4.302368954471907925e-02 5.871893413038451470e-01 4.293052295577957089e-01
-5.598012625159580757e-01 3.334403609805511315e-01 7.016162292901644282e-01
-2.064693922855366792e-01 4.124716823120082032e-01 5.002873291216072271e-01
-7.751002421154720157e-01 -4.867289753624330362e-01 -3.911040227370609496e-03
-7.657717714777086959e-01 -1.068487836623025489e-01 3.762889650654689389e-01
-4.054585610609479085e-01 -6.818305301365185089e-01 -2.992906749961474766e-01
-7.153476454051854727e-01 2.982193489124581598e-01 2.800421437404371772e-01
-5.926178091007964222e-01 5.183817266665857737e-01 6.431407989325527153e-01
6.853545629317050469e-01 5.606574949444093764e-02 -4.717560787448369514e-02
-6.867273386143757374e-01 3.568434811097888348e-02 1.436714102706023177e-01
8.898384834196403359e-01 -1.158218871715017972e-01 -4.466886007450731055e-01
-3.909417769524000108e-01 6.591379655573833540e-01 6.322168621728566640e-01
-9.971380992481297945e-01 -1.721971204548893575e-01 1.368890575482225314e-01
6.108833863114838669e-01 3.464326947246285648e-01 2.116309380565086287e-02
8.862399793894198963e-01 -1.851726086909888103e-01 -2.451269127637536738e-01
5.593515885138986565e-01 3.217793037565337411e-01 2.674178255423426687e-01
-2.795654456112129371e-01 3.400703433429526079e-01 5.906544340100947643e-01
-8.120296716957043914e-01 -3.805066692004108186e-01 1.164311665837360898e-01
6.173238685867802333e-01 3.375638273144463408e-01 3.700390335450488011e-01
-7.068703076981999733e-03 -6.590024779520472498e-01 -7.489454999155136239e-01
-4.115867184228761966e-01 3.448937156240158841e-01 7.083863159047906199e-01
-6.624266934401129570e-01 -1.040267616749806917e-01 1.320927414574343817e-01
-8.474727046398584651e-01 -8.110479445017960975e-02 -5.853445667943425051e-02
-4.058288269217207311e-01 -4.372021050943999398e-01 -3.235610879179813826e-01
2.666321714161415390e-01 4.407387797803193896e-01 4.862345423467490657e-01
-7.243820227563172454e-01 1.430737233228973788e-02 4.826927742475807248e-01
-3.431164526301977262e-03 -4.328819040475264113e-01 -6.147048076820375018e-01
-2.994371865797298415e-01 4.931082127059684406e-01 4.317364113171294759e-01
9.514255022296862485e-01 -8.726763368066513260e-02 -2.772884814567387890e-01
8.799419308968189357e-01 4.386717551137865323e-01 2.556170550672296621e-02
2.640560238331112752e-01 5.105353740872481394e-01 3.630042823877749902e-01
6.446932086624246327e-01 2.275905070576033917e-01 1.569779611193459490e-01
8.437647019582100727e-02 4.440526466940772909e-01 6.057467265180948024e-01
-9.443659564509367943e-01 9.551001676853608513e-02 2.020532740843050956e-01
-5.956396784738940964e-01 -2.982431667267639308e-01 -1.659406138772963613e-01
8.184293305584503520e-01 1.938385974139908152e-01 1.836475730539623152e-01
-8.673162929409592437e-01 -3.034991384989648711e-01 -2.364097904433455355e-01
6.418795629883791154e-01 -4.573846614825206602e-01 -6.284096334120592431e-01
7.043725409058784193e-01 -5.101023608791743769e-02 -5.066942758554602300e-01
3.844741638351424906e-01 -2.839443654794681082e-01 -6.098776590793121288e-01
6.649822002137149024e-01 -3.965510096194980183e-01 -6.408513392053261093e-01
4.530998792945183373e-01 -6.065211197253174147e-01 -5.010827089160592163e-01
-4.459979310244275852e-01 -4.104363586695348176e-01 -3.148878675169420327e-01
9.054087029664432684e-01 8.529600341328144597e-03 -3.923251205879019210e-01
-3.259812276541479981e-01 6.880800926829571118e-01 5.800319992752720477e-01
5.066778164546082985e-01 4.190314667507478719e-01 1.794261761888331641e-01
-4.229027739441094114e-01 3.440763247282041526e-01 4.160989002479437704e-01
1.090433255200239926e-01 -7.345188591362149522e-01 -6.772780151940974713e-01
5.156773581467958278e-01 -5.891188537707313655e-01 -5.383818907302052592e-01
6.750893885545459217e-01 -1.733607623100169859e-01 -2.049603438885990725e-01
-7.541019715644531329e-01 -2.008837885525624201e-01 -1.882455232723808658e-01
3.692527539592925234e-01 6.551277137421473995e-01 2.984994989343233707e-01
-1.898696271704328475e-01 6.318645897172067150e-01 4.541693240834691059e-01
-3.114611398248588459e-01 -7.636752356024903987e-01 -5.812371409360433949e-01
-4.665854231207794411e-01 -5.490369131173512551e-01 -2.070734485575333184e-01
3.687999424758343636e-01 -2.834479580267511012e-01 -5.557059521147521552e-01
1.510533918821471977e-01 -7.088857739829861337e-01 -7.031996525953670973e-01
-4.350649352054530294e-01 6.329063709608961918e-01 5.415677246257200039e-01
-6.340133977614444971e-01 1.768408112217963526e-02 3.909081547401991319e-01
7.756069793955299163e-01 -1.867741157431278554e-01 -1.819722761808816314e-01
-1.402188431785040407e-02 6.592490664658795518e-01 7.557779126305684825e-01
2.086725307442060529e-01 -4.954224800295556341e-01 -7.622019058509140743e-01
-1.514059446825405664e-01 -7.829380952634853452e-01 -5.908486710011422449e-01
-1.703865030418294513e-01 6.296503151196205517e-01 7.662627532044287149e-01
-1.638880604948545795e-03 -5.673017883870089539e-01 -4.214751340010006730e-01
7.992840427762234468e-01 -3.307813079863319294e-01 -3.597395192807372744e-01
-6.670121332661164137e-01 -4.801246519426731751e-01 -2.833927593484494162e-02
-4.391921183479985565e-03 -4.492293818758955615e-01 -6.674039899723882563e-01
7.777540752682292613e-01 3.080750721819580096e-01 -1.781490196050861397e-01
-8.261375856109755278e-02 -7.299255946107134907e-01 -6.973316007255939697e-01
6.379659352152817764e-01 2.589903140996880904e-01 -4.837290703120625257e-02
3.870084224734731126e-01 5.187405905865235534e-01 6.273825627170278585e-01
1.205484882946529918e-01 -4.052465466258461935e-01 -6.404879982498929980e-01
5.297634096591550268e-01 6.334813059810867619e-01 5.622763937937997891e-01
3.669946200616827081e-01 -5.555480998788211444e-01 -7.455652406143449262e-01
3.094760771280815059e-01 6.303785269185041562e-01 3.160348182672367279e-01
-7.345735671604300410e-02 5.530379218790352214e-01 7.704925176835574208e-01
7.032214365428193226e-01 1.175576533166085014e-01 5.529594005934143630e-02
-9.466808610752490694e-01 -1.076157306470411218e-01 3.106533425886935929e-01
4.687222079174023781e-01 -3.660463730733582999e-01 -7.157142676823907701e-01
-5.050812345754430999e-02 -7.764922691473111760e-01 -6.137571519657931685e-01
3.622335608057998257e-01 -6.323872074174363700e-01 -4.877399699026827573e-01
5.358388418600997793e-01 -1.681426026041513422e-01 -5.512086418363258966e-01
6.777052149513312918e-01 3.536157250761861048e-01 3.837568081887897664e-01
-2.389537322009111786e-01 5.802909092333619068e-01 4.420631752827619554e-01
-4.414638282000522551e-01 3.072644041662476178e-01 4.187220369350435623e-01
-4.562689986260780040e-01 -3.977829264817438482e-01 -4.158747070949426194e-01
-7.080889615074434928e-01 -3.431937836107173401e-01 -3.593599406227209192e-01
6.001543437670584513e-01 6.898201055335959619e-01 4.112168517696044856e-01
9.618450840186844042e-01 -5.185284106909140295e-02 -2.683519125653364146e-01
-6.823527407486550123e-02 -4.541644066592044338e-01 -5.137496067073528128e-01
-2.648634364701008548e-01 -5.445376604531212417e-01 -6.812318795122848103e-01
1.820350981746835656e-02 -6.756402380853013812e-01 -4.357823146228841926e-01
3.973234961252435776e-02 -6.733833834803190088e-01 -7.450713475334543867e-01
5.993882712369779098e-01 -4.929566075697194849e-02 -3.822939553721516615e-01
-6.998838288544276809e-01 5.665962095241972030e-02 1.397917426517931994e-01
-4.874329481007285136e-01 2.513491374237654119e-01 6.395145002672202317e-01
5.672099325635794331e-01 -3.922495404307764777e-01 -3.441730968545775315e-01
-4.523141975753772748e-01 2.538118581823380904e-01 6.184528123654287057e-01
-6.645222376524380081e-01 -1.554205064741713826e-01 1.491775667621463297e-01
-4.385050708145665221e-01 -7.154934302263559198e-01 -3.272496262357503793e-01
4.581551075137549889e-01 -5.906358926173831403e-01 -4.790421376429536693e-01
5.058976837749592503e-01 6.425925408242701975e-01 5.755347742631040653e-01
4.759769160009804656e-01 -6.149509319270467511e-01 -5.785637420158378230e-01
4.421978526241674978e-01 6.032217453919498373e-01 2.373693162611328900e-01
-4.558720671771523958e-01 2.311510756939943734e-01 5.637825790036955498e-01
7.735195997026930170e-01 1.957369639036899700e-01 1.943145071039456551e-01
7.066732473990925412e-01 -3.766046915204784296e-01 -3.423433752840657762e-01
-6.585418219018512875e-01 1.688321131116926332e-01 6.056064087202344126e-01
-1.207370103069808631e-01 7.182730029703314756e-01 7.069738174516013718e-01
1.653087666459401028e-01 4.580145603518350761e-01 6.216237881207455906e-01
-6.762932300115378492e-01 4.012417167979462351e-01 3.609113715938004341e-01
6.485702167755946768e-01 8.740351405134282048e-02 -2.276963996635360810e-01
-6.033914640246456074e-01 4.079682876085331533e-01 3.581429710398360555e-01
5.957903257396001129e-01 -6.447964655688943891e-02 -4.250184365506823880e-01
6.515965154762072276e-01 -1.588324559886672704e-01 -5.901661752664519867e-01
6.517607369712009602e-01 1.062938379871102290e-01 -1.009304616053882941e-01
6.805344819310559235e-01 -6.931991514132254673e-02 -5.182482422268034350e-01
-7.450704163642886124e-01 -8.025377986770526606e-02 3.942454026098004549e-01
6.759555876634879557e-01 -4.247837450468324172e-01 -6.154644421515785835e-01
-3.393377250108442489e-01 6.840836423263839672e-01 6.199283542295958016e-01
-3.253434788378956610e-01 6.582452694958071948e-01 7.013463497757418397e-01
7.559435708733965864e-01 -3.263777631024405729e-03 -4.706099460128962408e-01
-5.904476947861120317e-01 2.998271384411569929e-01 6.840797643411874462e-01
-7.639902713640781551e-01 2.797909138378923410e-01 2.693091824595632011e-01
-1.638655196480295895e-01 -6.338808987280973861e-01 -3.751018228950505629e-01
-2.766024351893528466e-01 5.618918684523885876e-01 4.385788205358852054e-01
-5.579825741143652484e-01 -6.123754379828212357e-01 -1.843190079109246760e-01
5.218310351785611090e-01 4.555060590313546043e-01 5.308659209685107072e-01
3.819093725696377090e-02 -5.625720225693257026e-01 -7.620211272482967368e-01
-6.390903240344065761e-01 -2.573746270516553691e-01 -1.855671637168030685e-01
-7.674929029342403286e-01 2.154569823300901410e-01 5.931595116294696712e-01
5.144402198810871935e-02 4.393709440012776302e-01 5.744484655011870000e-01
-6.232085387423017681e-02 -5.190436026473563835e-01 -7.251634781151069520e-01
-7.524833396352162418e-02 5.119081679485276704e-01 7.573605910623607551e-01
-6.279480648589300107e-02 7.643608004303099612e-01 5.890469568882402696e-01
-6.664885896487114936e-01 -2.461493314096392382e-01 -2.058175921309010059e-01
9.683690300779846938e-01 2.759817793317357326e-01 7.278438360327597488e-05
4.318591254713526340e-01 5.008997786359365989e-01 5.990968248281917097e-01
1.832566751548554695e-01 4.536865864235133938e-01 6.033417574219233082e-01
-2.063177698424285000e-01 -7.532752535366717961e-01 -4.341194658657199223e-01
-4.743566817747554287e-01 5.007078461433280836e-01 4.128283106746354347e-01
-2.968641114394020009e-01 3.989040616081433455e-01 4.643489783460661435e-01
-2.852576342457874281e-01 5.337297515714285456e-01 4.339933108884310720e-01
6.245734569942151815e-01 2.542658096431693049e-01 3.123972302114757724e-03
-2.778088904769687173e-01 -4.799835991859675022e-01 -6.227076394297956785e-01
-4.339611935417359567e-01 3.537437389290092882e-01 7.174103335742514354e-01
-6.636825018938089515e-01 -1.682285552306912735e-01 -4.504955272069878936e-04
5.952408044446717561e-01 -5.195351774552842139e-01 -4.652773046308532612e-01
7.929572797059908362e-01 2.528396902039062311e-01 -2.364638031910333282e-01
-9.067129594539530268e-01 1.130609847583965988e-01 1.672249257843726744e-01
-6.803191128813316224e-01 2.730625389987264007e-01 2.686909670476988476e-01
7.343380239266484866e-01 -1.961879280739178555e-01 -5.913240541382454030e-01
5.699843571589040536e-01 -9.379767539339875504e-02 -3.989298377781353988e-01
-7.941624392224391205e-01 1.142690004533984255e-01 5.448805309390063467e-01
-9.184587172390313858e-01 1.320469094061041682e-01 4.263754382244569485e-01
6.217019158398804368e-01 5.122336580153639130e-01 5.085191322768526367e-01
1.543909640554782803e-01 6.370615594250959024e-01 7.327112148467636032e-01
-9.281178006249131140e-01 -1.476050008068039432e-01 -7.135774167717844063e-02
6.962341314213459365e-01 2.985515607789621106e-01 -1.311705987529676043e-01
-8.139977238831656026e-01 -5.555979049042464313e-01 -1.693498713746537376e-01
5.834088479476318145e-01 -5.313781149173412155e-01 -4.765374371603080528e-01
-4.164704204979165492e-01 -7.605463134798997604e-01 -4.430837949421461142e-01
-2.981516238653594275e-01 6.630924079163051932e-01 7.103886562440430152e-01
-4.341816835103602390e-01 -7.275718661351769923e-01 -3.469563945780098635e-01
6.954784055914159380e-01 7.513480470120723065e-02 -9.668906428468272696e-03
-5.972585603563804746e-01 7.549774298957444285e-02 4.300504778135824102e-01
5.315666244717091038e-01 4.819742734131876039e-01 5.461381581148552211e-01
6.436951773082836281e-01 5.416686950080749213e-02 -2.820581076271403420e-01
-7.588638398187551592e-01 4.411885056724987320e-02 8.215362854234017909e-02
1.202344982910409088e-01 4.450351176738784886e-01 5.577971076492898028e-01
8.907751965594796761e-01 2.362101370742584333e-02 -1.155054237959202840e-02
3.612263402593987593e-02 7.624228645735230403e-01 6.571930407221610038e-01
2.567579878957191863e-01 5.030300870895964005e-01 6.596961384915673854e-01
-5.858131806964127497e-01 -7.081951179506479344e-01 -3.767128043605209586e-01
-7.906835520586532606e-01 -4.687938850012335901e-01 1.649050367918836191e-02
6.138625904070320605e-01 2.567106159492713036e-01 1.433790789257113063e-01
-9.694919979328017190e-01 -2.995842158195605176e-01 6.492426851208106531e-02
6.037939311588474967e-01 -4.674340756517704198e-01 -3.987821975573390687e-01
-3.123012877392941644e-01 3.295780671823801411e-01 6.318025006121176235e-01
9.508829306609130061e-01 2.921098204501101220e-02 -7.334977079314308757e-02
-8.516134927071370431e-01 1.236463701536663629e-01 1.427143215251297226e-01
2.299616704333291295e-01 -6.842133298868136038e-01 -4.976348964052343948e-01
-3.582064241111636016e-01 6.507780928170596724e-01 5.145249431620051439e-01
1.638312977048050623e-01 -5.901822761748468649e-01 -7.696494364818157186e-01
6.796193883419919535e-02 -4.814598114872920553e-01 -7.320278240200874809e-01
-4.826070575435090215e-01 -5.062143199338637878e-01 -1.916565868271036532e-01
-9.621966976555255124e-01 -1.161444762583789120e-01 -1.227129185723523129e-03
8.446668700847879130e-01 4.766906775219321157e-01 4.657912486008149167e-02
2.524933437733847263e-01 5.946098737404207357e-01 3.398079493464863932e-01
-3.824117728062292887e-01 -4.229156738562059870e-01 -4.698995540209855437e-01
4.999399692663363259e-01 -2.360937887843686800e-01 -6.243168909134968469e-01
4.815376556173577849e-01 6.697244149204663044e-01 2.680786681528334880e-01
-1.980633565968829557e-01 5.067100210116071146e-01 4.452972558149331239e-01
3.435041947451954181e-02 4.568417816697000200e-01 5.099146371585027149e-01
9.683292196789117234e-01 2.096092083487152147e-01 2.406942742145633599e-02
-9.619275933740234485e-01 -2.494752057073004042e-02 3.308850380320537132e-01
