-4.482103715429714419e-01 -1.226868174902048247e-01 7.729177547040537444e-02
-2.172699213668904394e-01 8.328230555927438328e-01 -5.607517674431604648e-01
-1.492974280530937753e-02 -9.636138420364276369e-01 1.468524456462697581e-01
4.906741764885101387e-01 -2.766155805822086977e-01 4.464266783866004951e-01
-1.118163581037059096e-01 3.974199775120967337e-01 -9.004981700950132062e-01
-2.260554147058999319e-01 -1.923884045792204622e-01 -5.194226854013770378e-01
-1.439739900762938285e-01 -1.884703158335208351e-01 -1.954010315157212463e-01
-3.029237436088333055e-02 9.186557670027644118e-01 -4.069026321076713582e-01
7.552797247099603262e-02 -9.736468133711541073e-01 -3.492622806129223878e-02
-2.781852034325100753e-01 -1.482063858702182928e-02 -2.909821247547328751e-02
-1.912202472885282944e-01 -4.599731042994150698e-01 -2.916043397024869477e-01
-6.611511053702820440e-02 1.170746442816241462e-01 -9.419701970475800046e-01
-1.333046070500367164e-01 1.115128256238367976e-02 -1.003858094317593153e-01
-2.231115376017394902e-01 -1.943706426980596480e-01 -5.526677431386209927e-01
-1.130274686836175574e-01 1.637091391667645432e-02 -8.535992791909073618e-02
3.669040854992642320e-01 6.168402495854498069e-01 -2.072799062438712425e-01
5.085370454438600252e-01 -1.353674257444216766e-01 1.212887568857839576e-01
-2.075529248198331941e-02 -3.163792916212089246e-01 -8.189330213368162248e-01
-5.669329558380336032e-01 -2.614684161244970259e-02 8.828593882917244728e-02
5.685584835173423945e-01 1.797454172456477983e-01 -2.326421539153219198e-01
3.274295082177864358e-01 -5.305930200412581899e-01 7.187181003490986653e-01
6.390021731150871132e-01 -3.587411420587370836e-01 1.983492967330984236e-01
5.444772689288018830e-01 -4.518142169913787476e-01 4.467843925130891014e-01
-2.683310995323329728e-01 9.690503014533080606e-01 -1.747808901127166914e-01
-2.223664774958225565e-01 -1.843800420770310700e-01 -4.266844958584862790e-01
-1.361685780448977923e-01 -6.016874725420159331e-01 -3.773749894356041024e-01
-3.542567107665026138e-01 4.109870572393525129e-02 -3.592906757899354542e-01
7.643795107518297494e-02 -8.756967309621036533e-01 5.515552734582950256e-01
1.182543791568284874e-01 -4.010320085383980993e-02 2.227305327117606870e-02
-9.498160279278052009e-02 -7.425869723965080604e-01 7.129394048885462354e-01
2.330962294491625286e-01 1.294333613000807348e-01 5.022184828722588978e-01
4.081278660101567146e-01 -9.568514302924595594e-01 -4.186211395627355975e-02
8.851098093673147316e-02 3.597493751323849187e-01 6.718191997530174042e-01
-4.142440897409236378e-01 -6.563243843551264112e-01 4.138883792019628638e-01
1.125361019976957311e-01 -9.686735193822009204e-01 -1.040286528800284244e-01
-5.713730747086861322e-03 9.671321053495829378e-03 7.112809702875703965e-02
-8.908232959773808302e-02 -9.113501783979092163e-01 3.266918158591732707e-02
-3.337056850806884301e-01 -2.659968339450068942e-01 5.032568010070805758e-02
-5.418610383317644663e-01 -4.691800869867617241e-01 5.189851030955313638e-01
3.738847382510978035e-01 -9.222651359757430556e-02 3.828642263814376889e-01
3.284558518388911441e-01 3.754867688616952415e-01 -5.162874332608847344e-02
4.318694991581338849e-01 4.214102131218472880e-01 -7.937771040032491898e-01
-2.648969101987695418e-01 -7.190889283576777924e-01 3.129991938824788766e-02
1.212846173887519446e-01 6.696523849805052775e-01 2.860254944324058801e-01
-7.097316767152278549e-01 5.369019112890518475e-01 4.699725547160293337e-01
3.451748730793970932e-01 -8.932692386461672518e-01 -3.606640439981984025e-01
4.785061459146281067e-03 2.405509508381745154e-01 8.445009659479557618e-01
-2.324301676975207009e-01 9.632062171272166573e-01 -2.448830859194882636e-01
-2.019220684651792663e-01 -2.966608957915023437e-01 -8.709096077712943917e-02
-3.010048321552624695e-01 -1.316500548687765497e-02 -3.599600997165501859e-01
-7.298890619254736478e-01 -1.505264436768270287e-03 3.490766435347404939e-01
-1.259310500496116092e-01 -7.794758047410418889e-02 2.746825013189130651e-02
-7.690940959033214230e-02 -1.092857305302893378e-01 -1.226526276448677150e-01
-1.919244364754967846e-01 -3.092388454385847640e-01 -4.503961207891843399e-01
-1.295037558011448431e-01 -1.034120108729330578e-01 -1.884478641054245507e-01
5.121153760911547614e-01 2.474696265659029615e-01 -2.055959979493929835e-01
-6.413428458630133777e-01 3.335394264840198519e-01 7.210804269039398084e-01
-1.856161658556880201e-01 9.658340023252840467e-01 -2.519633910382608200e-01
1.676840025910674159e-01 6.083064109840820022e-01 2.385086119036411434e-01
-1.030113482297302374e-01 -4.462738332484165737e-01 9.216210763677340490e-01
-6.943365462641373220e-01 4.841598594988534288e-01 5.546260390942541196e-01
-1.594225964971011378e-01 6.131924690841421555e-01 6.759524411132075139e-01
1.761351570946060041e-01 7.370112381834907911e-01 -6.614882138812742118e-01
1.530438013700969602e-01 8.494047386397980681e-02 -9.975205677016788508e-01
1.509758238288792520e-01 4.168837966359550395e-01 4.485412599676828482e-01
2.549917511906953926e-01 -9.937830397259230786e-01 1.361714179315028916e-01
-2.054420721931846938e-01 8.208315555021414855e-01 -5.824326214416901681e-01
2.831678739941485001e-01 1.859019701751744771e-03 3.533176710481714111e-01
-2.618590082429047769e-02 -9.056574765026281781e-01 -1.205907780750007652e-01
6.348785704558516096e-01 -2.012579169359776377e-01 2.949732486554923136e-02
-6.577651212610731435e-02 -6.019466216898899935e-01 -5.206720285006396498e-01
4.154996807148511051e-01 -8.618261369907950775e-02 1.286576584128841516e-01
-1.932980578510140324e-01 -2.002832434190660038e-01 -6.672596747517658411e-01
-3.556971089235433370e-01 4.944843648384882745e-02 -2.475866751583977177e-01
4.408847343151963138e-01 -1.164417950573419791e-01 1.823254718960562182e-01
-6.051360493281204844e-01 1.000530832933365921e-01 -1.055300631416722845e-03
-2.317066038550905926e-01 -4.322473644201583753e-01 -1.345354316827808983e-01
1.822730335656136125e-01 6.317787082286184797e-01 1.847776044297427811e-01
3.581541729707612975e-01 -5.717423014884728261e-01 -7.628397731709881668e-01
5.520241259618980517e-02 -1.322174139295603096e-02 9.381349696846026653e-02
-2.359733133600831201e-01 -1.286600565825979925e-01 9.853548721508408326e-01
3.214255040989599799e-02 1.884877636160781772e-02 9.433324268273028668e-02
-6.679918622192315691e-01 1.431537892334491281e-02 7.281173538000097478e-01
-3.048781200499354194e-01 -1.326671240141564512e-01 9.739974792272766413e-01
2.963839466082497931e-01 -9.642793987661489874e-01 -1.741049206856426224e-01
-1.117279342507816048e-02 2.007418334708200580e-01 8.746914953553696082e-01
1.990245887994594731e-01 5.095128067362914015e-02 -2.906084338658515911e-02
-3.929437322673078881e-01 -2.475284279050236902e-01 8.550112119913561015e-02
1.098860273135866400e-01 -5.860435836637861717e-01 8.224034370682865580e-01
4.942435665813406653e-01 -8.350322376135540514e-01 -3.764405610411494796e-01
2.265653495302459297e-01 2.089414865804536947e-01 -1.130251527115848538e-02
2.452666932550770784e-01 2.025808531433677048e-02 2.978745489890131659e-01
2.351881188751348273e-01 -6.713005768621819191e-01 7.154072577476777717e-01
-2.385573348472838084e-01 -1.610446022696297441e-01 -5.262745490554280314e-01
-2.174528427142379261e-01 8.063658629370383801e-01 4.672860081159007084e-01
4.600417265427743096e-01 -5.427340629255157367e-01 5.732877248179907292e-01
2.693607637153414558e-01 4.027785003845412160e-01 2.889103331288795859e-02
-1.492519564567015289e-01 8.854044395123037425e-01 2.928998983521674537e-01
2.157676597729675794e-01 -2.773864327938042537e-02 1.540073685145090798e-01
7.068584196194176439e-01 6.077803650667619462e-02 -4.675126443950211041e-01
6.397945978582435245e-02 6.694952054823514187e-01 3.962750542358072225e-01
2.322890846810362481e-02 8.418145696205453499e-02 2.122373581349672883e-02
4.205143877021993437e-01 -7.032614146191268345e-01 5.419232336216327495e-01
3.800611881892266286e-01 4.770193703704712074e-01 -1.304737858547397045e-01
-8.402188522197043263e-02 -2.743610892981092342e-03 3.053083517419208012e-02
6.935315555144230815e-02 1.164174864812801691e-01 8.335533267201365726e-02
1.444497874501058099e-01 4.605307107589524107e-01 4.277632451535641200e-01
2.072437348564022674e-01 2.341076596902226525e-01 1.769422559635904640e-02
-2.318333146266823019e-01 -8.376464581691698275e-01 2.382154984849106649e-01
-3.427162508020592524e-01 -4.052026526921156946e-01 4.565504537305207361e-02
-2.515814104548093066e-01 -1.086930040087245170e-01 -6.125266991960769403e-01
-2.317076920252100214e-01 -1.581935068617414120e-01 9.837078850518964357e-01
-3.609480918094322699e-01 -2.849862982988502491e-01 6.731653043079910415e-02
6.909812882185831784e-01 -6.945541440699980473e-01 -2.332802862977026437e-01
-3.264587976095905120e-01 -7.075912210016434001e-01 1.693336774901602337e-01
3.646607573857837958e-01 -7.234040121478563234e-01 5.824647563398616112e-01
1.032659909615485233e-01 -2.103956997668696496e-02 1.044233308372018998e-01
-4.135176550636052717e-01 -3.459628907310832724e-01 1.140868847800051711e-01
-8.270751117293875798e-02 -5.991257461014870556e-01 8.410704157802568748e-01
8.775006729265809324e-02 3.487566556622311020e-02 1.367255424812168219e-01
2.718226711695664322e-01 -9.897330181152965700e-01 -4.387203861434216950e-02
-5.784044279916529252e-01 5.104649319642192706e-01 -4.183880055368814910e-01
2.322023561251118084e-01 5.556069065910422822e-01 1.093179445082672480e-01
-5.203379808387865735e-01 -9.526925589879525758e-02 1.032806183987148435e-01
-5.647552617855918777e-01 -1.127254782472762590e-01 1.505130688271214268e-01
-6.979113525666055806e-02 -1.275546106011601344e-01 -8.973648921541056700e-02
-1.596672829924531134e-01 -2.383217917284450316e-01 -1.969272113548776182e-01
2.149679517139739537e-01 4.279837074719467505e-01 1.498929696716284621e-01
3.330002388471848818e-01 -6.131127167885108697e-02 2.648577585055986727e-01
-4.819004727656108211e-01 -3.549331955146141637e-01 1.883576432828523717e-01
7.230409482191894055e-01 -2.393639986709772405e-02 -5.631807370347382546e-01
-7.254392457788448878e-01 1.584743263784767764e-01 6.337664763702169912e-01
-9.335835214740328958e-02 -1.219405576773691657e-01 -1.387463492036587476e-01
-2.040621169000726154e-01 -3.920836983162522688e-02 -2.285672833345396560e-01
2.272346962725317887e-01 6.246861345050520598e-01 8.704463878593970971e-02
4.866329801902356533e-01 1.251583589629548868e-02 -9.102355889499685881e-01
2.720796911171648458e-01 4.272207892734803530e-02 5.546948188248213008e-01
-1.821699742097808994e-01 1.305488385447314305e-02 -6.189874041477333444e-02
3.389162437296334152e-01 6.895340759402676101e-01 -2.605155970471343951e-01
-4.238426076320214730e-02 -7.925521748553773782e-02 2.725935195226187810e-02
-7.300097122141003814e-01 8.403157173063002805e-03 5.734361142441717352e-01
-1.685444993474107811e-01 -7.699300854607229461e-01 -1.187373447810564364e-01
1.588516657078052896e-01 2.409600655157075333e-01 6.477921350860027516e-01
6.194360919375861974e-01 7.799626396992781485e-02 -2.260040970730203547e-01
-4.481606009779195987e-01 -6.962283128253352049e-02 4.695021209458331846e-02
-2.368847076971322130e-01 -2.150213607567589558e-01 7.528346842725760699e-03
-5.840183444274414937e-01 -2.034905385510982490e-01 2.311294159847870622e-01
-6.358168634517435969e-02 -9.396635535674735876e-03 -1.042409588888812411e-01
-3.215137349513085691e-02 2.934359050803216420e-02 -9.464989734321583859e-01
5.249397118960477671e-02 3.441807311065159802e-01 -9.564152460549423251e-01
1.126380618912137949e-02 -2.898542514110528240e-02 6.894315277789088425e-02
3.250801893649868934e-01 1.795174076152770415e-01 -6.255895295682019353e-02
4.108885325861273696e-02 9.255681469242408310e-01 -2.722132464997311652e-01
-4.524212648626609878e-01 -8.013987432337299488e-02 5.562971155059381889e-02
-2.747755633788399598e-01 6.808104397517653616e-01 6.383817937129745435e-01
1.781291275386312212e-01 3.155279866672801581e-01 2.270829524355172657e-01
4.160956569632900254e-02 -5.867498110137866346e-02 -2.569406842219304488e-02
4.782939385462487564e-02 -3.230778128352564116e-02 -4.864506318835559034e-02
1.667577565201900647e-01 3.654923066977732726e-01 4.278164075568687830e-01
2.324243331403126611e-01 -9.927939675306629574e-01 1.735607123765724735e-01
1.764197099401121349e-01 1.226628307135840118e-01 2.749840440997275426e-01
2.047045995378674044e-01 4.896618149655309615e-01 1.905831107080948883e-01
5.534628492156331431e-02 -3.047083167775607119e-03 1.001411251930066915e-01
-2.550945020214602510e-02 -6.130109673050149199e-01 -5.674088318504281192e-01
7.363123783728205973e-01 -4.905049141186443307e-01 -1.935642919825312364e-02
6.197671748516992984e-01 -7.598878593522963021e-01 -3.262464463645007307e-01
1.121629368292559742e-01 -1.219044263044003346e-01 8.980880812360455545e-01
2.212890642417524867e-01 -5.566276699810620565e-01 -7.744048636015159470e-01
7.065862534294385933e-01 -6.257836211826989237e-01 -3.560137916035980288e-01
-4.409459290531279607e-01 4.820297119468784364e-01 -6.280778152880573950e-01
-6.113090978941450315e-02 -6.340322608046602970e-02 3.782445151605216827e-02
-6.464689684261570868e-01 6.494954586536912100e-02 9.244772922692284789e-02
-3.074052904147904844e-02 4.809546574345017200e-01 -8.964266845083870283e-01
-3.405926255225789623e-01 8.036739524176237381e-01 -5.192802916120370371e-01
-3.746965179540868388e-03 6.726579851490323281e-02 1.644267576489833252e-02
1.752518436040962357e-01 5.284325055390909354e-01 -8.678639216020701541e-01
7.398340110463161867e-01 -4.587811416799397746e-01 -3.262951359339631707e-02
5.730046125412857627e-02 -8.688790351098533982e-03 -5.257912562821313862e-02
-5.932189006076336035e-01 1.688374002321199607e-02 8.244342062119288661e-01
7.535264199459686951e-01 -4.546059387263515772e-01 -9.574435891410486288e-02
8.630173619728516432e-02 -1.314743442120206440e-01 9.151679546607618398e-01
1.747513313266945423e-01 2.174403494102047085e-01 2.951279538783747047e-01
2.634502710392503944e-01 5.944456398684538900e-01 2.746567380746040704e-02
7.454642265440454274e-01 -8.711306647895952771e-02 -3.979620369431459692e-01
8.647370085899785952e-02 -1.944025129685648945e-02 1.002477895139634589e-01
1.321284515515011027e-01 8.820533659531990534e-01 -2.647092405116615588e-01
-9.076451353585801574e-02 -9.099984421934580459e-01 3.167550316783442066e-02
-5.065804025103390895e-01 -3.899457298066851818e-01 7.507920966694328069e-01
-2.416538881580045928e-01 -1.278055547418807392e-01 2.609916997145218798e-02
2.230166376328636402e-02 -8.223312230546619972e-01 6.320849421133218904e-01
6.023193829367274876e-01 -3.990640370340587384e-01 3.101565082104150717e-01
-3.634888848067886480e-01 -1.577225815535909514e-01 5.681795776274160825e-02
-1.962105269864064250e-01 -1.877783350195545015e-02 -7.395732382658031477e-03
1.133707612673554577e-01 -9.352056929462442270e-01 -2.149020205722612931e-01
-2.283649259439571311e-01 -4.537953506829298655e-01 -1.525155158279483114e-01
5.823252670764899053e-01 1.816962249385344341e-01 -2.524374284897597520e-01
-1.613052991337761144e-01 4.057845820125320115e-03 -2.146064460317300901e-02
-4.346174963909017752e-02 4.739916913158055689e-02 -1.379536547360166003e-02
-4.123745122058321277e-02 -8.625056084799002931e-02 -9.271895128038859513e-02
-1.246264417302290622e-01 1.317257500373468157e-02 -1.289439935374878110e-02
-2.850282459767884968e-01 3.751483209342736935e-01 8.708773392979054506e-01
6.758438362083649120e-02 8.954603447846716247e-01 -3.416573486826665618e-02
-3.116771445862085432e-01 -7.096017089814339318e-01 1.324725878362724152e-01
3.094557811033948336e-01 -1.970022981969944686e-01 7.272071837074710610e-01
-6.259416105295610988e-01 3.543196817031898926e-01 -2.744895587493596523e-01
4.341632907772514094e-01 -1.680002613665794176e-01 4.110127940631136401e-01
-1.859340605241375788e-01 -7.375062573096689833e-02 2.150405816950392776e-02
-3.418844306960087120e-01 -7.320363744856922539e-01 2.954603801389555362e-01
-2.291975056475712910e-02 -9.380499099225856341e-01 -1.867932906392064454e-02
4.006535483019815769e-01 3.387737735000113243e-02 -3.346323535062459276e-02
1.110467197494030278e-01 1.486317174364032989e-01 2.970209729422353812e-02
-4.786684669283359783e-01 -4.389400576454143277e-01 7.433588328834866976e-01
-2.178371157719130591e-01 -2.110822685128951048e-01 -5.386967418003795194e-01
-2.270531562557613348e-01 -1.743290168064040579e-01 -5.855646354189520952e-01
1.638561000051786398e-01 2.462610269712255939e-01 1.069109866735828973e-01
-2.908347474352362405e-01 4.527872031907150263e-01 -7.826752477377874051e-01
6.476230981154769140e-01 2.196260689065221428e-01 -5.359416294040030282e-01
-1.354727804573906680e-01 -1.936806913177595013e-01 -1.651215296174568525e-01
3.106046260621170840e-01 -6.387173966794175151e-01 6.851835497707915446e-01
1.536452726453171880e-01 2.942368533782705464e-01 5.982795862826923994e-01
4.762702448861551030e-01 2.064359785347516796e-01 -1.544897936442579667e-01
8.404336995949540645e-02 5.539329300917390092e-02 -4.018210799611578177e-02
-2.731647501124007116e-01 -5.502160609991207929e-01 -6.042838929202997561e-02
-1.546485091365067954e-01 -3.545164229307139637e-03 -6.744904440053974513e-03
-4.479835349530374433e-01 -3.509980087272218663e-01 1.491878381442798274e-01
6.717712403587322578e-01 1.613241172840546855e-01 -5.136044835148410037e-01
-1.165296909523307750e-01 -1.341749713017451051e-01 -7.672648876100516798e-04
6.371146291129535788e-01 2.440848433415573060e-01 -5.356829176748868493e-01
2.675897942454167344e-01 5.691173902565129783e-01 -7.987411271121800382e-01
-3.657671981015503948e-01 5.162557113793367347e-02 -3.778822228189728794e-01
-1.682837197034730559e-01 -3.198056991491377010e-01 -5.877906836524131595e-01
-2.956180561475235113e-01 -1.991834352467701241e-01 9.676610027446880258e-01
3.215635591329698423e-02 1.445238325085469906e-02 -9.697058812824383978e-01
-8.857071737448023174e-02 -2.610097822868250317e-01 9.704004958729480768e-01
-4.775789584763976414e-01 -4.775897301480359902e-02 4.474079299978089147e-02
2.266960147619490051e-01 -1.730924228500040074e-01 8.158475448872396507e-01
6.147539159762759331e-01 2.880321410284106820e-01 -4.661720343678450451e-01
-6.317052720660566445e-01 1.297881719564847880e-01 4.025480287659792588e-05
2.249235005948576060e-01 3.232951495467353831e-01 6.049126890142349222e-02
5.381748964162215154e-01 -2.223167099526082713e-01 -8.571644544222324358e-01
-1.211322074089868223e-01 4.924142215768362307e-02 -8.987369607140386352e-01
-5.836317749206647587e-01 3.241575183680542316e-01 -3.427828617041637771e-01
-8.444790428695649054e-02 1.914050921530085006e-02 -7.879807594958813943e-02
-2.620947792362104956e-01 -7.891339112243006548e-01 1.550621946176236055e-01
4.662206664244563092e-01 8.942789762462179104e-02 -9.547815830805905790e-02
-9.048153519748403095e-02 -1.467601372390397729e-01 -1.060589440463086675e-01
-1.785386447899923179e-01 -1.030241468306492131e-01 2.259577386059646170e-02
-7.534548335435328759e-02 -1.286806083402460832e-01 -1.009606552354174597e-01
3.672752817549427284e-01 -8.015330160637805790e-01 5.041951348058103521e-01
6.971479924210872980e-02 7.071857836843488121e-01 -7.421391478109513606e-01
7.664321378169456356e-01 -3.490721009049448376e-01 -4.467449749792006264e-01
2.775006118258238064e-01 5.009500667645008232e-01 2.651145399541414427e-02
-5.604531513655328645e-01 3.493495923418976634e-01 -4.117638784804416030e-01
-2.880337920955035602e-01 1.905700984689410460e-01 -7.818501369514259114e-01
1.328906526120234577e-01 -5.636550901398634794e-01 -7.415476893563409666e-01
1.583116100699587803e-01 7.356489295777470794e-01 1.273683575194070050e-01
-4.736624099047812703e-02 4.501848886995081511e-02 -1.181796680823012915e-03
7.666351395188141238e-01 -2.151077444124561977e-01 -3.324549745573026072e-01
-9.594086092250150855e-02 2.880446926069226907e-02 -3.915181982226571128e-02
1.887662928345323898e-01 3.934036172119969449e-02 7.680691880582486419e-01
6.633349801688774861e-01 -7.474503067831260728e-01 -7.644533430373987026e-02
-1.088929688919665177e-02 8.889616545156175942e-01 -4.811754481874100375e-01
5.572944817859194488e-01 3.455453486881821523e-01 -3.479808691246465413e-01
7.249457712168241863e-02 3.599343688619334736e-01 6.957947193937616959e-01
-2.957782962443012420e-01 -1.516303139502057640e-01 3.684771049039021334e-02
2.932989879091644769e-01 -9.634136825709284091e-01 -1.788790295608590208e-01
4.831133136534176975e-02 9.683437036546330146e-02 7.138368465195817081e-02
-1.876990564004536732e-01 8.786540881085688204e-01 3.278934566881340218e-01
-5.237408338406890351e-01 2.021373288446528249e-01 -3.136252159407793005e-01
-1.857519227900691627e-01 -2.701729765669499267e-02 2.740092693547146758e-03
-2.444199749763066587e-01 -1.511251421923171488e-02 -2.405070024972330925e-02
-2.123317348204730448e-01 5.390952670637795263e-01 7.574198219130846566e-01
3.929336918871635664e-02 -6.036452086610530898e-01 -6.457197611255719449e-01
-7.158821378172420813e-01 2.528060747267650288e-01 2.775141091601872681e-02
4.751540048640447989e-01 -1.553176565292635480e-01 -9.092207059652549495e-01
-1.314667967573072138e-01 -7.409641733060636781e-01 -2.358177895573014826e-01
6.781838455773300245e-01 -8.066776413297256643e-02 -1.765344280309036062e-01
7.724053547836211564e-01 -2.795621890985675595e-01 -4.197248240815142917e-01
5.153896859621081017e-01 -5.018382538943150228e-02 -1.202418551949491557e-02
2.756524655057000783e-02 8.030899172875750891e-02 5.963575696786729829e-02
-4.644425965145484447e-01 2.546606917637316350e-02 -3.578262315338666399e-02
1.799869170817161579e-02 6.024253044460362583e-01 -8.353491666239349911e-01
-7.007808277560955146e-01 -9.070404701048097318e-02 3.660858858141022298e-01
-4.255986751522181089e-01 1.536464114114272916e-01 -5.021912340365100036e-01
-2.250273259367145673e-01 1.341542176444893240e-03 -1.790487359051324001e-01
2.787369168617910842e-01 8.218259436519083361e-02 -3.753957388887173285e-02
-5.669238286011873962e-01 -1.932910060665033458e-01 8.011396158280483792e-01
-4.677695404103312526e-01 -2.882299783736505527e-02 9.179330990770715459e-01
4.686903601630262872e-01 -9.884231220428485454e-02 9.868703168240952617e-02
-3.560901274655930981e-01 3.563278651666854091e-01 -7.329489568348807049e-01
1.240049910319212523e-01 -9.297380015715199786e-01 -2.377791335669225681e-01
3.232332726569821513e-01 -9.804774119679746658e-01 -5.799408961301060622e-02
-5.757203393854853912e-01 -7.415120907629120517e-02 1.338937206051780127e-01
-6.400292533388807215e-01 -2.817266920958058085e-01 4.884005070178276675e-01
-6.089647837926621260e-02 -9.394062787732269104e-01 2.963764655536032522e-01
3.206314841085390888e-01 -5.916460488645122751e-02 1.775094243284239259e-01
-1.712526561394780988e-01 6.448599043526589622e-04 -1.388567746108728129e-01
-1.739308251647508352e-01 1.148103143435215412e-02 -1.090491559076729455e-01
2.520443749794717414e-01 7.701298750860429143e-01 -4.994975510013696107e-01
-8.850254932445540679e-02 -8.078142861113449258e-02 2.850810867026802239e-02
6.152264405150854876e-02 2.405997263823331581e-02 1.145100413998765415e-01
-8.322921455493254017e-02 -1.261059199797152919e-01 -1.043530923223927494e-02
-8.586497648969457219e-02 -6.611204119648916855e-01 -4.203174621580183512e-01
-3.710405741474575581e-01 -6.452633483845825468e-01 1.917612946671063967e-01
-1.351289815366095159e-01 -6.015498104611822008e-03 5.805395013907292505e-03
-2.512868096033378795e-01 -4.922000091087566642e-01 -1.066197711048293001e-01
-2.810781419528337044e-01 9.477959949730540012e-01 1.529374699441458929e-01
-1.542016259180198356e-01 -5.179954559999119246e-01 -4.046535124849660048e-01
-4.521427227041055832e-03 -7.601934023409767649e-02 -5.772340266438305556e-02
-6.305453225250078342e-01 2.639409689551759919e-01 -1.731984527789490469e-01
2.257715918413559231e-01 9.880926750164391315e-02 6.404016167865999032e-01
-1.609849597409770960e-01 3.030446800351345726e-01 -8.930278897172791996e-01
-1.268109979517876296e-01 -5.870509074090686230e-01 -4.145600980858935580e-01
1.422441974167011070e-01 -1.445669794049707635e-01 8.813119005993150790e-01
-6.564668698828493021e-01 -3.800501768920021978e-02 2.042375593009803092e-01
-2.154369816794175496e-01 -2.509253039581749167e-01 -2.658104160958054893e-02
-2.013769790062769904e-01 -9.407484849794434112e-02 -2.798515299997226258e-01
4.912501221003084950e-01 -1.495478500422923462e-01 1.800216270934740515e-01
6.644266102898789550e-02 1.138797054431665567e-01 2.615235920366263192e-02
2.639114017037808013e-01 -7.491779672677146840e-01 -5.949853408937251231e-01
-4.553168044597832864e-01 1.452974973975631745e-01 -3.741445580627408840e-01
3.319602082536865506e-01 4.763616574487785083e-01 -5.907597357094270668e-02
-6.519057388749774917e-01 7.432405876821760460e-01 2.208350178579858158e-01
-6.763756529431831366e-01 -1.518493763816668174e-01 3.683656360652640127e-01
7.220121716425276226e-01 -3.404754924204737576e-01 -2.490091814352086985e-02
3.227495743587507036e-03 -7.608334236784868310e-01 -4.270252863036542723e-01
-2.061642029173203772e-02 5.823161146247079339e-02 -1.215265262287108794e-03
-1.257587077721934732e-01 -1.208377089799034243e-01 -1.843975093519500397e-01
6.121090894497024371e-01 -7.882204368530204563e-01 8.456918107534926177e-02
1.245443537658576655e-01 4.100197568675155724e-01 5.462490217345405963e-01
-2.033039766372346513e-01 -4.358695193268613544e-01 -2.318654906105052926e-01
-1.388770773000700676e-01 -1.642085955325510993e-01 -1.599578294796818317e-02
6.708418602167062206e-01 1.156174339529035533e-01 -6.300726657663082708e-01
9.580558876402366086e-02 -7.758281619600422285e-01 -4.948053227880269689e-01
-3.186818860197395131e-01 -6.310403707317492339e-01 6.251675847264173691e-02
6.198231453849080141e-01 7.632152976414080525e-02 -2.251971536384569372e-01
-2.619024545369563490e-03 -2.855915212029453421e-01 -8.504619234030864616e-01
1.307221206444703354e-01 1.902372162301109726e-01 8.246289409122077585e-02
-7.079819110406413429e-01 -6.235080297099697411e-02 3.507327906786329441e-01
-2.597546243151805934e-01 -6.687602664766353344e-01 -3.167226260562326645e-02
-5.306609527015262451e-01 -6.613509150085573884e-02 9.076981224909250190e-02
-4.713373289972465074e-01 8.528584010541413463e-01 -2.819444001073838080e-01
-1.515862780425927536e-01 -7.020462674078625787e-01 -2.404746247436926609e-01
9.764823687261726948e-02 -7.981344146297579822e-01 -4.648616478289813170e-01
-8.792703612909869015e-02 -1.325426983688078875e-01 -1.615936371635626895e-02
-7.727515216448671564e-01 1.478633755016310891e-01 3.878015680624257722e-01
4.531690606435355151e-01 1.101361706844020821e-01 -9.919317055745643930e-02
6.080342271316673680e-02 -6.209352045157742195e-01 8.157080878590127204e-01
3.443332772566544409e-02 6.147871001834287995e-03 -6.224385025656342663e-02
3.879314988960024801e-01 9.703354270973550688e-02 -6.540357856463356601e-02
7.641770578950629611e-01 -4.948833536416001877e-01 -2.352770483264626233e-01
-6.093430439854194969e-01 -3.452682503458713303e-01 5.323354969474025644e-01
-4.397812770837882801e-01 -5.471002161511541173e-01 2.395682375501402561e-01
-4.821118637610951052e-01 2.239314873589225707e-01 -4.612701147947889657e-01
-2.263533614781828296e-01 7.366985818728613578e-02 -8.120951315486180100e-01
-3.502554661827345650e-01 3.334586121393006558e-02 -4.427849919788263700e-01
-5.669752103352383443e-01 4.388549256711430369e-01 -4.358918656785873424e-01
-5.631161767890603409e-01 8.225113051601391501e-01 -1.414269847624373966e-01
3.016823221692764914e-02 7.124094983310568230e-01 3.957432489526019337e-01
-7.289297136519230502e-01 6.259815885710550143e-01 1.729144403198541735e-01
-1.154121655113157369e-01 5.333145083555294041e-01 -8.500027230333880857e-01
7.536319530958045521e-01 -2.262098040490600759e-01 -2.341641357367679754e-01
1.472210073997247959e-01 -9.684387431449607009e-01 -1.345633699775093672e-01
4.978301509355056442e-01 5.011495817634884498e-01 -4.414992468396192749e-01
5.423911141748780640e-01 2.631723580891138226e-01 -2.515575121132349046e-01
-3.779975596995927001e-02 -3.684321097498861053e-01 -7.688970383600619574e-01
-2.058284636393902245e-01 -4.896490780447764202e-01 -2.302445661146614031e-01
-2.983458505879502121e-01 8.977934616209772845e-01 3.045059721655740126e-01
-5.859199618123066555e-01 7.782963185975736442e-01 3.197928319418533172e-01
-1.811726617829741981e-01 -1.981235437212090500e-01 -1.599763752288586513e-02
-1.229493139387507900e-01 -1.648778194167236644e-01 -1.628198000429600112e-01
3.132977827932058035e-01 -9.338630778814648314e-01 -2.703866490038180359e-01
-2.831605998550918990e-01 -2.627881620691889172e-02 -1.662147217546356900e-02
5.091147609987390910e-01 -7.430214047826377843e-02 2.239160145964677259e-02
-4.557312404443865650e-01 1.113138807390846724e-01 -2.394888026943197412e-01
2.960011382120320556e-01 2.832955674080347985e-01 -3.542090516139166645e-02
4.374344666073550214e-01 3.956350984748893129e-01 -8.084533363646153603e-01
3.125189785470413040e-01 -9.706622288124333586e-01 -1.356521342776034478e-01
3.432321962953646111e-01 -5.970031444754795441e-02 4.544476949146693534e-01
-1.042282843668293491e-01 -4.062051648957230587e-01 9.365955387818631905e-01
5.087815641440570635e-01 -5.802217625456400629e-01 4.954456427534190133e-01
-1.361036377192949565e-01 1.772565400770627700e-02 -3.727848601302694020e-02
-2.070303525847746462e-01 -2.483564843352046858e-01 -4.645832360926896443e-01
-1.490158211046869463e-01 -8.992109474865768171e-01 2.524144235577736595e-01
3.617520298602980300e-01 3.936142454356492126e-01 -8.915098005910504497e-02
5.734618337080483741e-01 3.568471893866642652e-01 -4.192694610147269518e-01
8.062793946163181180e-02 1.204025779674818136e-01 1.057477405015690430e-01
-1.896765928083631314e-01 -3.319448134451897237e-01 -1.977347284215552337e-01
2.011267575698589549e-01 5.458139827186597737e-01 1.883443431096084864e-01
-1.697921617487319346e-01 -4.883173616956021368e-01 -3.733922619949919808e-01
-8.210225064785803273e-02 -1.446753462381568656e-01 -7.538294661520797413e-02
-1.253285705784645543e-01 9.220476608026884069e-01 1.834617442355940542e-01
-5.062395734167012273e-01 -7.882779740058289131e-02 8.324146354691999705e-02
2.834642883888459641e-01 2.394366413424649925e-02 5.436890991624850900e-01
2.053820566801498049e-01 -7.549613869512596942e-01 -5.766604611178139939e-01
-2.332420092029552916e-01 1.011323496615525591e-01 -8.146171707378819793e-01
-4.830397862036960865e-01 -2.626020390997035880e-01 1.545452404669537816e-01
-1.200718218273387761e-01 7.033594278156267698e-01 5.593492382766582782e-01
9.856677389645282505e-02 -1.579980991362457676e-02 1.090259807717223473e-01
-5.139963471681402440e-01 -5.403118995112090456e-02 7.052408735757129121e-02
-9.013523417314411867e-02 -7.734139217863990334e-02 -1.445108043768251194e-01
3.099861529519876147e-01 6.379147673198428681e-01 -6.866503885338312019e-01
-3.410942585990527909e-01 -7.111713234533183492e-01 2.222469218912583588e-01
3.334382781905672055e-01 2.314052467057135798e-02 -9.785959207496354173e-01
-4.806256878121629161e-01 7.942719096244910126e-01 -3.723206759563381651e-01
-2.241179994080065019e-01 8.453542773281252920e-01 4.048548195974525088e-01
1.397826327423973558e-01 2.270813827487123959e-01 7.018869750970962995e-01
1.576892397728014983e-01 6.655123055464892690e-02 -3.394885382728213274e-02
4.258940101244931831e-02 -2.606273489548903421e-02 -5.493365181735192226e-02
-5.370598190312692033e-01 8.643261127343514483e-01 -5.659320952179149739e-02
-3.468481498117489958e-01 9.536419567176200873e-01 -1.497310228675067800e-01
-2.907659317136435106e-03 -9.463829724963587209e-01 3.554670735195174514e-01
-2.109834453285552025e-01 -3.008151290446620663e-01 -7.443117885400753198e-02
-2.141379354757342590e-01 -2.089855937575332001e-01 -2.203272027434366020e-03
8.808008419047457307e-03 9.334631666007778827e-01 -7.050747130110199268e-02
-8.126182898582214043e-02 -3.266855935073372658e-02 3.959948756795654556e-02
-1.924954560705267048e-01 -5.494963250340189065e-01 -2.585489664463923032e-01
-6.199822623193672610e-01 7.269856573311429537e-01 3.663412327596605733e-01
7.245447741032413624e-01 -5.658286064857909192e-01 -2.378025525140008926e-03
-4.275672484709795440e-01 9.329084512440716237e-01 -4.773209564680250955e-03
7.357017832567354088e-01 -8.607265822573732794e-02 -3.312319715690738020e-01
3.121389095681291193e-01 -8.733947180921665110e-01 4.552535858090793197e-01
-5.751630079007369334e-02 -1.059573167616474215e-01 -9.754596313533417384e-02
3.990400359157436627e-01 4.013815527526707894e-01 -1.341409361733160721e-01
2.935963384925163178e-01 -4.714931870873597664e-01 7.628163956445010996e-01
-6.888211203568568308e-01 2.280448813131353003e-01 -9.878576941187235810e-03
7.270159144139163310e-01 -1.082939440641014633e-01 -2.672563716084354057e-01
7.829959861268034893e-02 -9.882293167249187049e-03 1.060762397744445112e-01
1.836732766653320081e-01 -6.054160709333080703e-01 7.820743911403821302e-01
-4.191444967034047009e-01 -3.781702832659731839e-01 8.484318981820561101e-01
-4.155939832188350613e-01 4.291927376467796762e-01 -6.643393971132411924e-01
8.607173032130510659e-02 7.727727002193335304e-01 -6.570773025987656224e-01
-8.467726817738699396e-02 8.647225040267492169e-01 -5.440098024935045018e-01
4.086417484423017221e-01 8.905314489003779421e-02 -9.468107767730586932e-01
-5.485800312583689609e-01 3.390069706604339483e-01 8.017983333101152965e-01
-3.287779489785737641e-01 -1.739236367816883455e-01 4.809536007064309920e-02
-3.124484806703149986e-01 3.126643284423947372e-02 -1.835303682400936387e-01
2.166944286531301833e-01 1.544227105480306672e-01 4.252780470797268286e-01
4.843729304625092325e-01 2.554638746137821020e-02 -6.328979378593332927e-02
1.723125119079674250e-01 2.546683402957615749e-01 9.473067436990412205e-02
-2.636404089783813132e-01 -7.872683880062799622e-01 1.549451669954739763e-01
-1.082486926909777408e-01 9.675567621989236144e-01 -2.182612100255779397e-01
-7.182256385358366524e-01 4.917832290592070166e-01 4.986761459274787200e-01
1.974430250004696394e-02 2.004578592453823416e-02 -6.267159232264091218e-02
-7.102440466557480292e-01 -1.034131697493605034e-01 4.712734743307715468e-01
-2.358246417717626553e-01 -7.187103819622277234e-02 -7.070818703841612596e-01
5.720902236151773623e-01 -4.181286309308255844e-01 3.833487457486211003e-01
-6.465790882944724149e-01 6.720484591501253435e-01 -1.917595956372886157e-01
-2.297103990018082853e-01 -1.116044070846847341e-01 -3.527044762625008434e-01
-5.066175197129854091e-01 -1.196490624013098747e-01 8.815097690043470768e-01
2.314403335838597364e-01 4.337691361687884828e-01 -9.075520749759232730e-01
-3.489128110186625054e-01 8.871013653874347815e-01 3.181224065740876350e-01
-6.662687643515075031e-01 9.275477759035763436e-02 9.414977769317983691e-02
-1.881635834037378163e-01 -2.389451253324744243e-02 -1.923891342251859982e-01
-5.296197992996702908e-01 -4.911524142788506464e-01 4.916155664990888297e-01
-2.194894362617820227e-01 -1.141322217237327082e-02 -2.023566985575802335e-01
-3.814187663340722328e-03 -6.067864423299849097e-01 -5.999544482638984322e-01
2.302822439095171259e-01 1.319086680964067504e-01 4.643514196819844564e-01
1.833930039896111142e-01 9.784353820282651326e-02 2.744880270487569662e-01
-4.799625793818214636e-01 3.033123750861899670e-01 -5.407440504672050841e-01
-7.066236006680818305e-01 4.774999521788518830e-01 5.369862431607872466e-01
-2.065998864605311236e-01 -3.532693933044627754e-01 -1.448611174262510737e-01
-7.163894636747309974e-01 3.382515752983832891e-01 -4.376738080228758515e-02
-3.725470039824110846e-01 -3.669603226035363930e-01 7.722349753279547646e-02
9.395178579394430907e-02 -4.192826417050285470e-02 6.428375714032491528e-02
1.567000841733366678e-01 4.638187327771235435e-01 3.779819070139636139e-01
7.027616743856284209e-01 -4.463428420026883114e-01 8.955446269701278217e-02
-2.482672564379413693e-02 1.290269834204139238e-02 9.443904878137905357e-01
-3.837261739831314133e-01 5.770010637808562631e-02 -1.771375344154023368e-01
-4.515467818651789367e-01 9.218398473096005574e-01 6.326271218683912623e-03
-7.005849345258401417e-01 6.437839205027749978e-01 -4.027018275378951156e-02
-1.926249966622623488e-01 -2.814561304943277720e-01 -8.759785597501913712e-02
7.509268293642429315e-01 -1.512720421467990406e-01 -3.141544188598344722e-01
1.012498737065645887e-01 1.464859207427041399e-01 1.182153354417674329e-01
5.429758165412715970e-02 2.829228693474209466e-01 7.762236766844829994e-01
-1.560113483854619620e-01 -1.954578853932261995e-01 -2.229102729801785143e-01
7.344770927148411288e-02 -4.665965726251364992e-02 5.552433561659045336e-02
-3.840490885982881242e-01 1.095807397937845346e-01 -5.508837087846256697e-01
2.605698684512248731e-01 7.544205511019309862e-02 -3.432985276982699480e-02
-4.385344749325437719e-01 -4.750074176773315116e-01 1.837262947105349487e-01
8.231541110500784075e-02 -4.688626474371248437e-02 -7.798519250179189498e-04
-3.471279107147807741e-01 2.626100470392289665e-02 -9.804161837775716981e-02
7.200358888157190052e-01 -5.506887197098051523e-01 -4.338097632521528135e-01
-1.971047842527903216e-01 -3.619842261976163877e-01 -2.015259592457508686e-01
-3.715094427030579127e-01 8.250721807237876293e-02 -5.379751816201251424e-01
2.570259824289724548e-01 2.921767560188694435e-01 1.833579509505375718e-03
-3.052682224768907618e-02 5.252640724031008151e-02 -1.473392086227209852e-02
-1.871004571470455680e-01 -3.326096557283844679e-01 -2.519453344170501374e-01
3.958306276186507322e-02 -4.801592462008807960e-01 -7.531079179561882553e-01
4.205205508198624487e-01 -9.591356737078457831e-03 -1.813997104206843810e-03
-1.527115210880383989e-01 4.003752960362825242e-01 -8.816502699853123737e-01
-3.052430335543527273e-01 -4.276533540982015436e-01 -2.860988555689447654e-03
-4.363001098633527142e-01 1.144932390550068985e-01 -3.269077597880633568e-01
-1.543633241057400241e-01 -2.073917487841736573e-02 8.983269468752157205e-03
-2.298155356649546344e-01 -1.014732713316456175e-01 -6.899401101779206735e-01
-6.491615040399552339e-02 3.172252906668020234e-02 1.038246537770448445e-02
3.189401481103989466e-01 -5.857285017924095810e-02 1.825755564963823241e-01
5.560193928074846914e-01 -2.683135663624173217e-01 2.804997752743100814e-01
-2.429991491403470927e-01 3.813280966225903734e-01 8.657956801480874987e-01
-3.219967107964538666e-01 -3.337133619205525092e-01 3.286903066510748345e-02
7.117740176574472999e-01 -4.355036154804312054e-01 5.925414751691832072e-02
4.882993687219721601e-01 -2.074282225304681648e-01 3.369152409797346870e-01
1.832522907508904453e-01 1.224652895942744124e-01 2.885932624806733515e-01
1.292839738685996331e-01 -1.863988297952716075e-02 1.185469528163119873e-01
-7.056882918117000081e-01 5.402921722433238205e-01 -1.189481975356068838e-01
-5.930976698910430667e-01 -3.015093560019190821e-01 6.847595563517363537e-01
-2.558067360435471449e-01 8.869998486804042681e-01 -4.517786852302028144e-01
-2.045165271436658050e-01 8.596604411246957372e-03 -5.601186599666761051e-02
6.003542213389925220e-01 -1.510045176643470544e-01 2.069499216461181609e-02
2.712883516045916932e-01 -6.582213447499075665e-01 7.016547136071276114e-01
1.757910081033150773e-01 3.414001018298657431e-01 3.680754879475410801e-01
-3.598800360280609567e-01 -7.773360560183814605e-02 2.577530721590107904e-02
1.714221613098585173e-01 1.001442312636397075e-01 -3.014243836387904898e-02
6.466348167720128437e-01 -6.222435220443385540e-02 -1.413742429975717585e-01
2.346629438270991519e-01 -7.829397218253171253e-01 -5.479652048759668936e-01
-3.509611993558756637e-01 8.096695287059034740e-01 -5.025854491390768786e-01
-6.652880936038078064e-01 1.905338114873384447e-01 7.340639835470048613e-01
1.413314765787497540e-01 -3.872804181959113579e-02 5.669575202371091027e-02
7.061155149032073419e-01 -2.172745336090587398e-01 -9.496966740200912804e-02
-5.155658326044885165e-01 6.367721692951949786e-01 -4.748097572602567595e-01
4.548017539339444526e-01 -2.632892404661174232e-02 6.055058934825340499e-04
4.318442650307775521e-01 1.912989752062955739e-01 -1.180399540004708342e-01
1.293335953106210245e-01 -4.021366939577453864e-02 5.672982402810458624e-02
3.209994682963669965e-01 6.272962218671696011e-01 -1.133234499774775639e-01
-6.450508106112790019e-02 -4.253670533339113519e-03 -1.010000619578558939e-01
4.479165633691323256e-01 4.805193766036540137e-01 -2.456573911144847022e-01
3.230600278935620850e-01 -2.834164620056385808e-01 7.371412378923921649e-01
3.723838517570683404e-01 -9.686581033239767269e-01 8.460782066603951546e-02
-3.522572576201923877e-01 8.148861307172803325e-01 -4.944941182447328276e-01
4.619818961795649215e-01 -3.576008516593135594e-02 7.475493910825528436e-03
-6.801343052883399021e-02 -7.255406713358311666e-02 3.293414049380043868e-02
3.483620468472330423e-01 6.995752966714122723e-01 -4.298081984828314162e-01
3.097903704338198991e-02 7.961430019843510619e-01 -6.405448859461377875e-01
-3.648168211487357593e-01 -6.049308493133693787e-01 1.353808438431442218e-01
-1.863482320202512199e-01 2.580167034088514111e-01 -8.793357248089520573e-01
3.976036875696428718e-01 1.260854510685791852e-01 -9.467318162398390413e-01
-1.530622208522341293e-02 -5.158051276436441748e-03 6.609821596783806152e-02
-2.421928853005655413e-01 -7.758616126406710223e-02 1.827068874763356637e-02
3.547144783956814318e-01 -6.310928644029166479e-02 1.247075494535094531e-01
7.562767161347416778e-01 -2.254772758573891089e-01 -5.187178914548943309e-01
3.924703043863875807e-01 -9.071190282887646728e-01 3.044213860600766264e-01
6.014045169173097838e-01 -2.752438883200343245e-01 1.907795366855675745e-01
1.705823379265932471e-01 -9.831545561720005377e-01 -8.461971547254450166e-02
-1.191641883007058395e-01 -6.956151742171526875e-01 7.564941171446818435e-01
-1.234938344456784978e-02 -4.919687657590367524e-01 -6.979613771968944391e-01
6.849427500891631659e-01 -6.930819914267511983e-01 -2.781113054339983681e-01
7.216496673218852909e-01 -5.117357443515717641e-01 -4.757691203971732841e-01
4.225978860863211506e-01 -9.888276777578344778e-02 1.572431957638268096e-01
-2.555499480956012759e-01 -9.552792833340052747e-02 2.322126516055141032e-02
-5.216444565189308491e-02 -8.054611951833838546e-02 -1.076124530944819330e-01
1.620441531273203728e-01 5.080751313069910811e-03 -1.669258712321000648e-02
4.688024061591811731e-01 -2.360627946965632440e-01 -8.955240797814598697e-01
1.918835304007811826e-01 8.397171540860750572e-01 -3.520316565649178608e-01
-1.514553041829705127e-01 -1.311112724090011603e-02 -1.503552545479502622e-01
2.706440314918189260e-01 -3.504209416237383939e-02 7.410754303907997331e-02
-1.893004392495733768e-01 9.788951411146855630e-01 -7.370670794134476234e-02
-3.301678308617062019e-01 2.896797250632526799e-02 -2.919955265846989056e-01
6.267927849570257420e-03 -9.711778346559831743e-01 1.685521211413556208e-01
4.686850603454598141e-02 6.619486117570386741e-01 -7.885636667033321112e-01
5.255577425182134110e-01 -8.759013523046729199e-01 1.073615709214921360e-01
7.478685275766765450e-01 -5.192976583607136210e-01 -3.671777391607292107e-01
5.135770644681774133e-01 -3.740187931902633767e-01 4.762015121773588988e-01
2.783934646913207023e-01 -4.275836285326090752e-02 1.046411757070644238e-01
2.925066117029954116e-01 4.405027313902281638e-01 7.728674303560656694e-04
-2.677387955514678453e-01 3.802143498408342391e-03 -5.822590781260402609e-02
2.468144661190395939e-01 9.630361248312135913e-02 -3.732664724063734091e-02
3.226667238350053313e-01 -4.397198099037568503e-02 5.404566538956708799e-01
4.330773030924963130e-01 3.611511775069496666e-02 -4.649248396059931648e-02
3.997985973552006800e-01 -7.028106968187554371e-02 1.029679763581971969e-01
-8.252459610854370742e-03 4.973931926041161300e-02 -3.902745867597793433e-02
-1.700133036671796494e-01 -8.669768866714955280e-01 4.208378449031520696e-01
6.923231291529666209e-02 -1.554558523858274866e-01 -9.427179278326247580e-01
-1.900334624777342274e-01 -3.168105089245725758e-01 -3.684420183243750091e-01
3.769122946798013074e-01 -6.949785793580438575e-01 -6.470866626352721473e-01
4.856026041295133377e-01 2.786221403965730148e-01 -1.912511684000010870e-01
2.397978725833363745e-01 7.006726265329373815e-01 -1.027474971117115464e-02
-6.661912717985891685e-01 4.459851451348202378e-01 6.284348332030978979e-01
-4.629545798778723076e-01 6.333269292496381819e-01 6.502126901639186940e-01
2.940086218984046540e-01 -8.098238554981032275e-03 5.823882203757663190e-01
-7.231996633068297209e-01 2.769387812212155131e-01 6.197116195825564944e-01
-1.557974437835081272e-01 -1.157692897914483765e-01 -2.248855948236425373e-01
-3.402969252536916511e-02 9.531913934706034430e-01 -2.246592983250243758e-01
7.405026740204857516e-01 -6.327431956917264899e-02 -4.131625031307953888e-01
1.705502954527827464e-01 -7.882459630399807349e-01 6.463461660044302892e-01
-2.739984735813527639e-01 -1.067167260471009599e-01 2.686218173943307613e-02
-2.436615725139266719e-01 -2.095661095418107495e-02 -2.510824127239709713e-01
-8.158018723807071437e-02 3.422922160472238046e-02 9.593838325222941998e-01
1.404590796252734031e-01 6.639147960565686679e-01 2.508431715864015699e-01
8.112430666125051981e-02 7.535837393389967220e-02 -3.042872732003084474e-02
-8.285098488631803537e-02 3.134973055130447356e-02 -4.558512880945487372e-02
1.038663902929131272e-01 3.245576170715618047e-02 8.624156074166862140e-01
-2.721462975963386821e-01 -2.430579460800283698e-01 1.773128761647449828e-02
4.274624916721798673e-01 -1.700860370280422029e-01 -9.291605136273584087e-01
5.075057519706474007e-01 -4.861817098562227768e-01 5.125539620162289367e-01
-4.686216985688463899e-01 7.153559434138447859e-01 5.552857354560577496e-01
3.666691083642946436e-02 -6.253809675140935276e-02 -2.403898595212154363e-02
3.004276084726348328e-01 6.904029284246561149e-01 -1.428103866939783584e-01
4.206310494869986982e-01 -3.433145340073333329e-02 2.724474261695736602e-02
3.024622965084084250e-02 6.224583428948672267e-04 8.940921371007282126e-02
-7.076890866639386213e-02 -4.581069341715853227e-01 -6.554659866435312843e-01
-2.353651116109779090e-02 -7.683873018576725666e-01 -3.821305214769536440e-01
5.334496418945389173e-01 -3.037057445992621396e-01 3.795429082374693897e-01
-3.473614360556681602e-01 8.963977564463839753e-01 -3.575644993147586437e-01
-2.206932888835554663e-01 2.310144338494929950e-01 9.306895924873034298e-01
4.778944971879486303e-01 4.331715941664704417e-01 -7.236357505768149512e-01
4.917672218676688578e-01 4.229087906062068969e-01 -2.825259719663114621e-01
-1.159759027252477981e-01 -2.920625432635048369e-01 9.675303111770483522e-01
-9.966982572334512347e-03 2.301480010611624272e-01 8.598532997237657849e-01
-4.032736045868506869e-01 6.995199854363262082e-01 -5.673565281128151172e-01
1.890343633744608065e-01 4.382124548676372827e-02 7.648325050504859446e-01
-3.502517027252175508e-01 -3.733233724478646209e-02 -3.934221024805554211e-03
-5.197482597834853640e-02 -2.847387904776775905e-02 4.940985767957381536e-02
-2.832415697553929412e-01 2.178496988936027071e-02 -1.221218905497714891e-01
5.315600633376137418e-01 -5.165641262551891044e-01 -7.293836153960520097e-01
-2.711678461450367505e-01 4.336327223131407060e-01 8.380852134771488160e-01
-1.181776282226841140e-01 5.747338239634101065e-01 -8.277869732525899860e-01
-4.577726251216659437e-01 -8.162280182285656938e-02 5.896402207987559707e-02
-1.661910193571365935e-01 1.189477402231047323e-02 -8.507895711072550604e-01
5.828562504522707272e-02 -4.995079272468443132e-02 -2.221650066403239865e-02
-4.114453197099612880e-01 8.653235594312821966e-02 -2.753106374582191540e-01
2.322760493573163276e-01 -7.785921229940543364e-01 -5.532389840693204830e-01
-1.674458244593952580e-02 -9.199622820472032059e-01 -9.530973149314919679e-02
3.695539846711166920e-02 -1.743310049945724360e-01 -9.233143871936438929e-01
7.180677916294002650e-01 -3.115956302191754679e-01 -3.652754167015209025e-02
1.439667730149373414e-03 -7.455286972036033744e-01 7.220925924434583587e-01
7.012533860032119648e-01 -1.771109948784189148e-01 -6.737581487310438932e-01
