1.769309100378139155e-01 4.842488752421016951e-01 2.981466865431542934e-01
1.949742856487761689e-01 -6.857993597730476232e-01 6.118939990697749159e-02
-2.067328185878046787e-01 7.995157131988264165e-01 -1.234973476630074340e-01
-3.163811452028346682e-01 1.369074316087048049e-01 -7.741818994472858817e-01
2.670292881459674847e-02 -8.247964087054197035e-01 -7.956567099980126068e-02
-1.765525057652748420e-01 8.925078645445099212e-01 -3.947221882075039878e-01
-7.576442079539931207e-01 -4.623027773595670964e-01 -4.445960987212252413e-01
-2.700141425922170657e-01 5.950403918862255948e-01 -7.194056086512978787e-01
-2.706540657687618312e-01 -3.550224684257078378e-01 -1.400925521821612674e-01
3.498887993395004975e-02 5.550118302750370880e-01 9.962695554679507071e-02
-7.422434341721704243e-01 6.863476290227663035e-02 -4.052204195494449324e-01
2.403175153914374196e-01 7.140629984964019794e-01 3.679349096143109121e-01
2.474221200215231675e-01 6.145124918445573625e-01 -3.900598997848562233e-01
-7.543621830790112615e-01 -1.740045482059693893e-01 -3.212487063222069228e-01
2.534803823436526105e-01 -1.175675545139168165e-01 4.139156353003977662e-01
5.128905717809426612e-01 -6.739467521742037448e-01 4.897759769987753975e-01
-3.133641922690627579e-02 3.789412627658985677e-01 -2.627238030516333422e-01
4.939520506241406594e-01 6.402955111564869739e-01 -1.443910585665226509e-01
5.760114117674889345e-01 -5.688217486206349482e-01 6.035742871763618567e-01
6.441059266280143580e-01 3.346826013200144279e-01 6.948139827071870833e-01
-1.991187025494158339e-02 -9.883695622535190184e-01 2.768911075072685857e-01
-2.174282679561879150e-01 5.714716961943280132e-02 -4.642256036536668851e-01
-3.335940102865503354e-01 -3.969470780218407602e-01 -6.086652550513255155e-01
5.484932282806763426e-02 -4.865761239386812154e-01 6.329178531567927202e-01
2.932352922619112928e-02 -7.940285975110489280e-01 -9.058325729095695333e-02
-2.306592286750179244e-01 1.739469554018686082e-01 -3.515369857380483687e-01
2.638585493324592801e-01 4.252022753707925262e-01 4.817528257601625952e-01
-3.210428969493010487e-01 3.547402308802095616e-01 -2.274835724229500866e-01
6.631039557569502474e-01 -4.193806155866222629e-01 6.329647008023642218e-01
-1.251083351317715531e-01 3.659599516813637488e-01 -2.369766392891958784e-01
-2.525731377181868881e-03 4.355066046580785555e-01 -5.682175442136825350e-01
-4.925589394371534535e-01 -8.068633027300992078e-01 -3.471062250724256115e-01
3.267041243667228034e-01 1.117850191882791139e-01 6.858790640521928994e-01
3.737003153644264386e-01 -1.118388815854537699e-01 7.953258082424451425e-01
-2.853136832377711762e-01 -4.259196993893914485e-01 3.652093919728501004e-02
1.717835685627843445e-01 -4.349444027002666857e-01 1.944574484577717421e-01
3.234891799635689069e-01 3.912694447740325820e-01 5.800891955960049140e-01
1.225479696630454446e-01 -4.369687632600861016e-01 1.908767047835582265e-01
-1.763426998251952926e-01 9.026200352871689425e-01 -2.927497050033546766e-01
1.304734090491460330e-01 -3.449150162540220443e-01 3.196509630262903690e-01
3.344946345268740573e-01 9.448500630923146737e-01 -8.510417386852388300e-02
-1.472264329416795026e-01 -4.551989727813279818e-01 -9.744643843504982583e-02
2.850329100033571761e-01 3.673128576153197877e-01 5.288849410086388092e-01
5.776032890697258004e-01 7.202153685753301948e-01 -2.033178618895057493e-02
-5.141445590946295274e-01 -5.380606698650272079e-01 6.435921789065594811e-02
3.858977071049546348e-01 4.842107925457806994e-01 -1.371073555849015302e-01
2.688638518935059785e-01 -7.613298280878562085e-01 1.427596898840969852e-01
-4.821261300861159893e-01 -1.106195905630414644e-01 -2.153689556997916421e-01
2.883047042900113710e-01 9.278640474540147953e-02 4.091981122000959981e-01
-2.356437842252039894e-01 -3.208840273483406502e-01 -4.088490275168830124e-01
2.450324051736818831e-01 7.143153637295138747e-01 3.715340045585585060e-01
5.414944157894623356e-01 8.008881054264453958e-01 -9.399896342367812518e-03
-1.651654850932575413e-01 -8.633023019008497778e-01 -2.209157656383343993e-01
6.940674479424016052e-01 5.457819392335701014e-01 5.113141161486012276e-01
2.813647544025236757e-01 2.337007613535242445e-01 3.458484012771061988e-01
-6.122971739563501936e-01 -2.668611297814183492e-01 -1.575316759357436869e-01
-4.015326645334410527e-01 -5.164250008253614688e-01 1.334514686562940089e-01
-4.616583535114163750e-01 -2.102261696343754593e-01 -7.512591922767684061e-01
1.100154519708668316e-01 -4.087390864848184924e-01 6.592699638789297767e-01
-1.357029589549758053e-01 4.671807741643603795e-01 -1.270320610183587606e-01
3.818262923855182400e-01 -4.630586738241838640e-01 2.227325013199602244e-01
2.530517470513415357e-01 8.969669358171735718e-01 -2.943852710727707933e-01
-5.420581379466972161e-01 5.762345704170451777e-01 -5.563938125788331357e-01
3.878498852011433851e-01 2.233911368683939858e-02 2.951039385290009087e-01
2.959579343667048668e-01 2.618987624267528624e-01 2.678806590409606447e-01
-3.067230725748097409e-01 1.144164935100745045e-01 -7.631549904037180365e-01
-5.118970757318495046e-01 -2.089845511700856029e-01 -1.647742629343607046e-01
-2.114406629030695373e-01 -4.201536072163759572e-01 -3.849904414117378271e-01
2.736849214244257422e-01 2.827652071692381974e-01 5.085306387942920558e-01
6.719257822375378497e-01 4.852164059484053160e-01 9.685144119443291066e-02
2.855176171307705624e-01 9.346910088235724778e-01 -1.957467708377854942e-01
2.879263663721428612e-01 8.961843488843602712e-01 -2.615757438936674451e-01
8.284356026962055863e-02 -4.856346178632283683e-01 6.599501155446033662e-01
2.871951853175455649e-01 3.148278214398708696e-01 1.967545913107634215e-01
-3.245256818274486754e-01 -4.924484811141672802e-01 1.538667018798463015e-01
-5.044458651954472073e-01 -8.688204645768875523e-01 -1.716896469066953868e-01
-5.213923574525843874e-01 2.661989900842530177e-01 -7.956385037387114778e-01
-5.362078632568179071e-01 1.166878890114062504e-02 -2.500993222379744307e-01
6.563756841837343758e-01 4.049942896344004839e-01 1.061181957834718415e-01
1.499462732946909571e-01 6.727190209555756750e-01 2.961617859050691970e-01
7.872250375904496500e-02 4.207621668700536888e-01 -3.573120134087854338e-01
5.763730646615271569e-01 8.003717043239636508e-01 9.463587880598414714e-02
1.204577913111832127e-01 -7.015431366071551711e-01 -7.996767364367329822e-03
9.443019890863750543e-02 5.969345559566248127e-01 2.165194996855898113e-01
-2.049145524735994719e-02 -4.875718141478772027e-01 5.406464061813576194e-01
3.133220367396480910e-01 3.592359219262541981e-02 3.671223022337215536e-01
-1.192904799797720600e-02 -5.855249085418059440e-01 5.977348833483892010e-01
-1.718187514163466989e-01 -6.201764730178767060e-01 -3.494598059714151272e-01
-7.769376144116265648e-01 -1.756846992140075336e-01 -5.928822045389881001e-01
7.689810572337280048e-01 4.642768788202474017e-02 6.734733810459970771e-01
1.960244209834130225e-01 -8.984670488705014391e-01 1.885323382855322860e-01
4.460730461864483853e-01 -3.614972702499049534e-02 8.084735955032463783e-01
-2.886821296895461519e-01 3.464002559911161239e-01 -2.297307108190264346e-01
-4.853429981738271448e-01 -5.865465568513815731e-01 -5.748572014918424955e-01
-7.899306797108732736e-01 -1.324611354642770966e-01 -5.591643664865223462e-01
-5.685709355686594524e-01 -1.296755581415564851e-01 -2.080380097686941321e-01
-2.303337052247071692e-01 6.544205406181162754e-01 -9.828893736962115990e-02
-2.537469632659805074e-01 -1.762567842458512002e-01 -5.320015472117628486e-01
-3.479865115918022722e-01 5.125655879341262794e-03 -7.623333264882176108e-01
-5.387262082858368384e-01 -2.548487784023908964e-01 -1.401886158040435981e-01
-6.742019309887244960e-01 3.137230453040600053e-02 -7.430559442066468900e-01
-3.204107589441477777e-01 8.132187098817098558e-01 -3.739501462942796950e-01
3.629495305272911199e-01 -6.105503556090335210e-02 3.177418332607164220e-01
2.199372215090752147e-01 -1.352660850120080416e-01 6.324577312378034666e-01
-2.467930192485062180e-01 -5.216558509630755402e-01 2.656575930865252566e-01
-5.124764174859578469e-01 -8.660553522554544914e-01 -8.262735396672005184e-02
-2.804102536597438133e-01 -4.440191541120400709e-01 7.882894268775070268e-02
-4.805009614146955876e-02 3.253828404689265152e-01 -4.136827199039002090e-01
-6.761227060859632543e-01 -5.923768625223927442e-01 -4.671137786676101689e-01
-4.813567819730533714e-01 -8.644849973299273405e-01 3.519031558930176690e-02
5.585455539761783328e-01 -5.691897951248551246e-01 6.372975827048331654e-01
1.789261198116995910e-01 4.238598417361321702e-01 3.961844354976668675e-02
-7.133045420874567499e-02 -7.307334986340180416e-01 5.470778736433615785e-01
-2.041419047103112949e-02 -9.314995486376481670e-01 -2.454490865262206473e-02
-2.974344123366074455e-01 3.126460236068226428e-01 -2.449544882489331499e-01
6.205823946767263788e-01 4.369443870574998834e-01 6.495828269752627060e-01
-4.079407729357374390e-01 2.057454636252027402e-01 -8.115132422550891400e-01
2.102718769952476585e-01 7.395469889055202861e-01 3.282561909305278247e-01
-4.917436494026034000e-01 -3.079712028367559418e-01 -7.223512517959984613e-01
6.614434510605261552e-01 -3.352613695997895271e-01 7.107739934424519568e-01
5.228321335313438345e-01 8.281233767685560743e-01 -3.894129435547625823e-03
-1.920358271062845290e-01 1.478929866437718732e-01 -4.272449218548086680e-01
-2.480065685065303838e-01 -1.236320384523896809e-01 -5.336750732489470295e-01
6.591970653714975814e-01 7.116183207808902678e-01 2.613689640036327977e-01
-4.552711208624177774e-01 -1.163861549145149693e-01 -2.190364898763219881e-01
-7.382706218521604136e-01 -4.529181820152942128e-01 -5.122386605595089515e-01
-2.435628473230974367e-01 -4.273655455506793210e-02 -6.003738028354003164e-01
6.615328131862270311e-01 -3.377705403094260483e-01 3.896413614180962992e-01
3.680834037760149363e-02 -4.543894396510136935e-01 1.583465043468995914e-01
-3.246773815833227106e-01 -3.868019077601569239e-02 -3.183250957891922694e-01
-4.998221268232660441e-01 -5.641259937923412404e-02 -2.321178599969486722e-01
5.889226232232156466e-01 1.512356814701070196e-01 1.996949584620261731e-01
2.175577139330832632e-01 -1.226538879396261994e-01 4.960606907612649663e-01
-5.015605121946974387e-01 1.493498017391721167e-01 -2.675655520793414621e-01
-4.872586266452504367e-01 6.527253864773232550e-01 -4.386560058307666932e-01
-6.548364239096063910e-01 -6.957598035112435575e-01 -3.272051448296766640e-01
3.132090929581834993e-01 4.619927799991258022e-01 5.444089960795711614e-01
-4.431189239122012014e-01 5.483095102992409098e-01 -2.619273187830587490e-01
6.575220998781204917e-01 6.585208336351333624e-01 9.760257987129350443e-02
-4.793501392957823931e-02 -5.993047928511480160e-01 -1.560894621255904113e-01
-5.112972732240579354e-01 -4.602649557071504804e-01 1.517660574667856720e-02
-5.850427676073900463e-01 5.159179965672359147e-01 -5.633756412812284120e-01
1.624444834650759784e-01 8.336391292189295754e-01 2.210424092198167711e-01
4.226069864078136999e-03 -9.256677211641299863e-01 -9.210614905619614670e-03
5.893925520138488805e-01 2.128243872199202941e-02 2.502556037596344596e-01
3.087065330677682407e-01 -3.741738063980331042e-01 7.915431013107353531e-01
1.339493922168978335e-01 9.809829671431424813e-01 -1.228087893144673148e-01
1.661571081798905725e-01 4.379561615365250571e-01 -1.902206248387240117e-01
4.818301568353260400e-01 6.512063354619259670e-01 5.181595244586657545e-01
4.421045835660787349e-01 2.842904725822084644e-01 7.142724695279436542e-01
4.498159561420307928e-01 4.818495335573207417e-01 -9.270536629759457137e-02
4.753327716561790983e-01 -2.081638794544895532e-01 2.767858986869822235e-01
-1.712142349856778378e-01 1.580054926384689418e-01 -5.957719900375103572e-01
-6.604029647918457924e-01 -2.691752736180165750e-01 -1.855046290662401842e-01
-1.419640476803923912e-01 6.535969450229895950e-01 -6.722909415842506231e-01
-2.434732892575325325e-01 -8.905184166665353063e-02 -5.421054871940046427e-01
3.176811525645934497e-01 -5.967419316187454470e-01 1.651626549919909814e-01
4.050804928781330250e-01 -7.703048240016452386e-01 3.528820051889396403e-01
-6.397391211864709992e-02 -6.800649191144906291e-01 5.605239990064435629e-01
1.976440535159066370e-01 -8.922334271717169418e-01 4.743978289599661835e-01
3.220476688411888500e-01 8.099566326297494845e-01 3.356333136449136667e-01
2.016792565307251317e-01 4.807422620930849044e-01 3.576048150049134233e-01
-2.883736691777813443e-01 -2.871632729497661796e-01 -5.897931458820923067e-01
-3.791918343340921482e-01 2.754377060626405083e-01 -2.535208474956534563e-01
-4.980135591291036112e-01 5.534609923616663762e-02 -2.573995972560628176e-01
-1.212439074427299202e-01 -4.633273968227271111e-01 2.717877524393816913e-01
-6.655136397146798055e-01 -6.941937446842982862e-01 -2.315976923320768321e-01
5.018313801191521817e-01 3.751992642404585743e-01 6.935785109613578081e-01
-2.479615198324015279e-01 8.007009623392720085e-03 -6.522139879078968638e-01
5.044518400625827015e-01 5.252704921240257674e-01 -8.561720484080169447e-02
3.031163713556951356e-01 6.845420582492806050e-01 -3.531015411989854025e-01
-4.048156774447636552e-01 -3.054684679692106775e-01 -1.083098509492730760e-01
-3.566620085949633312e-01 3.778088961571451909e-01 -2.252367781499362009e-01
-1.815038366434999773e-02 -4.221530060856239497e-01 3.030642089097352332e-01
4.617652520570807995e-01 8.560812338359531370e-01 2.545642979087840430e-01
2.989233159162449360e-01 1.821277787484906208e-01 3.446738170303151882e-01
-3.931271184223816273e-01 -2.397056380200232317e-01 -7.139663439370991238e-01
-5.047560194559209679e-01 5.867513494509080108e-01 -6.183445552529268641e-01
-3.365712409083545520e-01 2.410498816136044387e-01 -2.667978314701021092e-01
-1.301700676357374353e-01 -5.359576988369485484e-01 4.349230956289635297e-01
-2.649930794163195547e-01 -2.366635057710367029e-01 -3.390741849403617336e-01
7.860088373794076044e-02 -9.423086372508604480e-01 1.040449967054674352e-01
7.972513232288757079e-01 9.908241129309847128e-02 3.936016744205785289e-01
6.949738932473741304e-01 8.196727068090825519e-02 7.468212805080088890e-01
1.228029568835012630e-01 -2.821135797587815963e-01 5.114039763408975148e-01
5.561306906317480259e-01 7.401276193834473160e-02 2.287907252454245699e-01
-2.118594716258619948e-01 2.933611791587396045e-01 -7.355368511670093978e-01
6.677427219775110556e-01 5.846497527696763452e-01 8.618892689856594291e-02
6.823326539273756597e-02 5.881646807280817013e-01 -5.600049639076690733e-01
-4.372828540608501013e-01 -7.612444001398224191e-01 -4.234581315014088743e-01
-7.057126353890400550e-01 2.002494146396785746e-01 -6.647223965265076639e-01
2.786892989293278111e-01 1.834490194453766154e-01 4.083628241453023389e-01
2.210641267041381364e-01 9.085422096216759780e-01 -3.063843951817875610e-01
-8.287415450921641058e-02 -4.656335655186957800e-01 6.482653891886827613e-02
9.992289645553295574e-02 7.745354972241745850e-01 -5.059027862071264758e-01
2.011802266273178263e-01 -4.023005976290420782e-01 2.245080547257032044e-01
1.699899633976667546e-02 -4.072781804878111145e-01 3.019103379732813175e-01
-1.328591986554899795e-01 -6.588713078072011564e-01 5.007239311882444310e-01
3.513537013923794250e-01 9.426660233150119250e-01 5.720813575028387693e-02
-5.235070355383083518e-01 -1.182493555146332392e-01 -2.087754505336850142e-01
2.565949737385445628e-01 -7.804669750038967235e-01 1.390808425760239053e-01
-3.108154470214915532e-01 -5.237429311283328115e-01 2.097312678630621763e-01
-5.937097101051324044e-01 -3.011808279032742730e-01 -1.306452607622976270e-01
-2.557388421754602792e-01 -3.950539632773316656e-01 -6.317538766561768548e-02
3.197883312016153723e-01 7.022510959620392734e-03 3.592176492399658527e-01
-1.203510276133030327e-01 2.339639946090688871e-01 -4.786348843315257340e-01
2.500545406211403601e-02 -7.422709792309044596e-01 -1.065511472943517363e-01
2.134124824137422494e-01 4.567738125377087677e-01 3.742089222301586693e-01
-3.529319960791849065e-01 -5.243711750693240692e-01 1.772547523301417072e-01
7.483943227441074431e-01 1.588452120784769050e-01 2.918435745190132713e-01
2.573609699127006600e-02 -4.848018752971253731e-01 9.292150398240950349e-02
-1.010754533648945963e-01 9.206617597258115460e-01 -1.645778684678095016e-01
-2.702866215119887894e-01 -2.532001483162636957e-01 -3.061009863534356334e-01
-3.041478230902860402e-01 5.739992990913518334e-01 -1.590378179349901111e-01
3.972720744404611426e-01 -3.027046833514778212e-01 2.640738396038930791e-01
-3.855848067821887049e-01 6.040593698080358731e-01 -6.952783822799458724e-01
-6.009129298467123098e-02 -4.639244478615008327e-01 9.832194333331992220e-02
-5.020977867789543359e-01 -4.820327952621506484e-01 -6.412393597267025402e-01
-1.928679178562123508e-01 5.724075286972662990e-01 -7.161301722301569583e-01
3.103941815987357536e-02 6.494485263920853901e-01 1.509827911043449544e-01
7.773779837089773714e-01 4.551677399367983767e-01 4.369345964936383053e-01
2.816829156806528456e-01 -8.500368564714330111e-01 2.450811943559206008e-01
6.530555914392556227e-01 -2.731466147125999888e-01 7.488513219856686165e-01
-6.480100119826548433e-01 -2.081901504771732081e-01 -7.276894528644516358e-01
3.394555313688209508e-01 -5.654472102484229233e-03 7.444203433923520796e-01
2.278046674037634833e-01 8.174051323418886073e-01 2.815974732873820496e-01
1.782411496162575673e-02 -9.662536020339860254e-01 8.438622025962475015e-02
4.892496135190690237e-02 8.344049283919554583e-01 -4.929658885419331837e-01
-2.829107155607758495e-01 1.255871962480419601e-01 -3.310121068892263319e-01
5.958890340000648767e-01 5.362523166142049019e-02 7.957886909297762212e-01
4.421178526551018673e-02 4.065695390696216771e-01 -4.222287132164894152e-01
-5.234974232186929699e-01 -2.653478759404015452e-01 -1.313895860166304219e-01
1.640170378788559091e-01 4.303278031461157949e-01 2.202345143567527655e-02
-2.419480926885176908e-01 -5.123693878050004091e-01 -4.620388922738851711e-01
-7.071239548081291737e-01 -5.651689647396366256e-01 -4.456002929980949490e-01
9.547264443031454328e-02 -4.162757940167727821e-01 2.241515622280640663e-01
-1.973880797590484293e-01 -5.238117698048369020e-01 -3.880566606676982833e-01
-7.398349787152737056e-01 1.729637530921122879e-01 -5.933781568413221130e-01
-3.240875844203393585e-01 7.907086438400598438e-02 -3.134337893057787539e-01
7.630254250592317655e-01 3.060288645550774955e-01 6.088571791715933212e-01
5.430664034042997912e-01 -1.525058638725377003e-01 2.798819408096070438e-01
6.302160746800383739e-01 -2.657492184649599132e-01 7.695274743648033988e-01
5.833628379800995939e-02 -3.593952323837122376e-01 4.844879009125081515e-01
-6.032574725161220508e-01 -7.222617581174649581e-01 -4.507764192445560397e-02
2.499175481093642293e-01 -6.318252901161752755e-01 7.212065043221908001e-01
-2.021661048661265447e-01 -6.024966601454985193e-01 4.071745885495248740e-01
-6.128558424297875229e-01 8.643822666467543270e-02 -2.876040842049545354e-01
-2.473388413001610386e-01 -2.471457261304240427e-01 -4.378592693444781081e-01
-3.227279636511031224e-01 -3.637221843668932975e-01 -7.046907820507389286e-02
-2.392694760249427510e-01 -5.555176824008311448e-02 -4.876753376843900867e-01
2.890592140686319422e-01 -7.089354084849264215e-01 1.455735357003636044e-01
3.251110245294202561e-01 -2.767234046649128532e-01 2.811534351299038170e-01
3.328144441142722454e-01 9.475505008392585138e-01 -7.356624274611621439e-02
3.027220258931925811e-01 2.660730203868957866e-01 2.481743480762169107e-01
-6.025637735968769615e-01 4.289480099845039418e-01 -3.923733183820430903e-01
7.311011948489773427e-02 7.470839410916324530e-01 1.933967436405734652e-01
6.939290582692159148e-02 5.076433603672806383e-01 -5.271291146770644698e-01
-2.705164858252894766e-01 -1.918035386736733072e-01 -3.591574284438390219e-01
3.174553571623155990e-01 1.904892748944348735e-01 6.404537247263315525e-01
2.011997691372285346e-01 4.074670349397727098e-01 2.087010653610066879e-01
-3.563465506198173482e-01 6.154829266575916336e-01 -6.970766100947641819e-01
-5.544451753345475131e-01 -5.482759448863547824e-01 3.251220280758779918e-02
-2.460011961752284759e-01 -6.036662027030983424e-01 3.602076985622697514e-01
-1.845192772943379245e-01 -4.242471629934235766e-01 -1.927020360550956990e-01
-4.171050122309356012e-01 2.454080769225592488e-03 -2.650039248818111259e-01
-3.520386213192070457e-01 2.483717467776146992e-01 -2.621062547613067784e-01
-4.222741527247789867e-02 -4.347309104878472330e-01 3.745160375631356731e-01
2.750710537367223596e-01 7.354529976393557600e-02 6.009626576780201512e-01
1.684256809551009093e-01 -7.536968581184058102e-01 3.958526118539907462e-02
6.406149196038555260e-01 9.372599090486995188e-02 2.389615997387729562e-01
8.160536754836592577e-01 2.626211227844028606e-01 4.822649618594229692e-01
2.179588343578016743e-02 9.674538708438126244e-01 -2.398841351498285923e-01
4.270359342275772963e-01 4.251043542067436953e-01 6.468336147236600775e-01
-2.266053926657403683e-01 2.310398235475830675e-01 -3.154814878817268076e-01
-1.493646542985841152e-01 -4.812762024263014804e-01 -2.299219277835935216e-01
6.669829870260313154e-01 -3.282478693729017905e-01 7.079393984549360308e-01
2.204539667583206852e-01 -1.872432263052873358e-01 4.094881044148361848e-01
4.428553349094186409e-01 3.229729217154458376e-01 6.991483462875845989e-01
3.668758063711172190e-01 1.294600083742301622e-01 2.771421676050334071e-01
3.650791453801772168e-01 4.945259265200013243e-01 -1.645771009168597032e-01
6.945757590437826590e-01 1.109286564199850680e-02 2.971739158631645505e-01
-4.776408212353659422e-01 -8.617596331225836348e-01 4.909490445762498823e-02
8.672165604924671894e-03 4.197137493111444129e-01 -1.751001193004998457e-01
5.627881222753010615e-01 -5.700603688612453368e-01 3.981992986936784829e-01
7.732039901910089386e-01 4.774341032210359659e-01 4.104586586302049755e-01
3.030002028007723336e-01 5.663249731018695776e-01 4.944385897925989704e-01
7.283422183722148002e-01 4.623252530392069626e-01 5.475738175749982339e-01
-4.524829742632250906e-01 1.193166773982606704e-01 -2.656557458344508960e-01
-5.464379399939276460e-01 4.785943101306716629e-01 -3.428838793939410490e-01
-4.609474718011656869e-01 3.043795068147561733e-01 -2.605885097110243187e-01
-3.100754285648613107e-01 4.926357230385150499e-01 -1.779193690871826161e-01
1.241962649819170102e-02 6.558506337113176876e-01 1.307359584418137932e-01
1.338789526727704460e-01 -2.957114652063811966e-01 4.035271580027796623e-01
-3.836437791320094215e-01 6.613490838075087863e-01 -6.459976211388938072e-01
-6.189698457890612238e-01 -6.452032860513037260e-01 -3.608841033559460898e-02
7.325330031041932255e-01 5.344169308707042987e-01 4.597173998792993266e-01
1.774947679206870244e-01 4.401465540148539746e-01 -1.888178971197649880e-01
-7.319454751413191351e-01 -5.470396548119658142e-01 -3.978701287534927022e-01
-3.833028807696595153e-01 6.727423451217116046e-01 -2.504691580394086126e-01
4.970121582929288850e-01 1.515931712690434807e-01 1.983862748259325182e-01
-2.141493446259801758e-01 3.653783617961866570e-01 -2.214558310089183579e-01
-2.202918414793096358e-01 5.520290681798599719e-01 -1.124145374261256436e-01
-4.457995860126296450e-01 6.859745915527967197e-01 -5.364903503898137416e-01
-7.130817857953900551e-01 2.140818589583158293e-01 -4.401402293658738252e-01
4.171601972356631105e-01 1.868000922781657691e-01 2.051529662183158853e-01
-2.599699653377404718e-01 -4.403338835641444349e-01 -5.026510694246045796e-01
-8.381969803762850946e-02 4.319461094258609801e-01 -1.541847780719775018e-01
2.969239462599535528e-01 -4.021864912033990686e-02 3.832493290520735951e-01
-4.795132078928246999e-01 -8.920793226578001001e-01 -1.054595813557391848e-01
3.192303248979223018e-01 8.585960902637007619e-01 -2.723877406828466019e-01
6.158768091016851853e-01 -8.296910904221843630e-02 2.851525291158193420e-01
-3.371210061345156217e-01 -4.865156870181954196e-01 1.373990737826686903e-01
4.207114314348016082e-01 2.750788594942084608e-01 1.290733945742943423e-01
-3.057025390483635308e-01 -9.396655422874483632e-02 -6.918290032867103756e-01
-6.299412340570742508e-01 -3.001725596678664343e-01 -1.507531936102024794e-01
-1.894240034106970394e-01 1.397840051557452945e-01 -4.433361525788832580e-01
6.326774397946693940e-01 -4.196224932739493485e-01 3.949759617320715566e-01
-2.834086869561268651e-01 7.704616581242439144e-02 -3.467340419985598388e-01
4.046509005522103131e-01 -3.018393551672746838e-02 7.929155044193147983e-01
2.710964569989334216e-01 1.284837414039357861e-01 5.233312817189526012e-01
7.202489629679289518e-01 2.319449448103008404e-01 2.350254044624019989e-01
-3.907619423981651408e-01 6.949980685131742497e-01 -2.779709145998966457e-01
-2.818466752217716476e-01 -6.982933752295367169e-01 3.629933352681840586e-01
-3.509079801318516489e-01 7.894631052228997525e-01 -4.132230447173375065e-01
-4.295340552128781297e-01 -5.028116348539794084e-02 -2.497343323876126120e-01
-4.918509105480308174e-01 -6.558187227181582202e-01 1.326487756325358258e-01
-9.844913158926120456e-02 -5.558134281972767488e-01 4.942277179731552894e-01
5.595646722003856377e-01 6.057731013209377569e-02 2.338495577554494942e-01
-4.035391615969489143e-01 6.021091601682424521e-01 -6.889328662717884022e-01
-4.934618239162377740e-01 -8.450630115889382066e-02 -7.896426131929088488e-01
-7.413429214069976458e-01 -5.100053943614232255e-01 -4.317610126174913354e-01
-4.401015725496595921e-01 6.060330749238571624e-01 -2.808918545253625831e-01
-4.525466961098403851e-02 3.336747983331527778e-01 -5.084295589707041874e-01
5.431602141223641489e-01 9.204168600875410611e-02 7.951443374354469906e-01
-2.478759380885801056e-01 2.905601307913360451e-02 -4.109046758792146981e-01
1.727741684216667906e-01 -5.669288611101466202e-01 8.697641441056989942e-02
2.211245612745150191e-01 -9.053847768686236197e-01 4.113063633025634269e-01
4.517091435273378752e-01 3.456530862911251223e-01 5.118265933882529956e-02
3.139893061002567709e-01 -2.316513910016406719e-01 7.847882652542871318e-01
-4.430116685654409553e-02 7.967949558455151848e-01 5.371046711886149488e-02
3.315526588092689297e-01 -4.743633950649028819e-01 2.017978615603395198e-01
-4.832937283936250550e-02 7.156000939289949292e-01 7.122332416019272472e-02
-4.982749281266450891e-01 4.368078774911985374e-01 -7.475570560182707158e-01
-3.048311170301085671e-01 6.491762802357879947e-01 -1.611987931113330330e-01
9.858956677782979017e-02 9.237018032130411838e-01 6.094622695335605994e-02
-7.892775803903238074e-01 -2.259994853869606024e-01 -3.886210314781983755e-01
2.649555787825739195e-01 3.279282773562116060e-01 2.229367869205835795e-01
-2.309474986820659881e-01 -9.179489230718695936e-01 3.089642062245819276e-01
-2.683321634280694951e-02 7.653646596543507430e-01 8.431381575226616631e-02
3.673586973463623395e-01 1.176630232831266665e-01 2.822827327126136154e-01
6.083206623910587529e-01 7.559160739639675386e-01 8.998485888995816362e-02
8.062971405997361105e-03 -9.882172810482106051e-01 1.625351004735210991e-01
5.139731912760999721e-01 3.871182915200168106e-01 6.895599143473919446e-01
-5.491696922736983844e-01 5.395852069733194645e-01 -6.137569964547299195e-01
3.216495688465824121e-01 4.361126500842025799e-01 5.627140223225940430e-01
-7.735094915156004447e-01 -1.857562107392224660e-01 -3.539042474988950970e-01
-9.596609067977983354e-02 -8.195218824293883930e-01 -2.010706563935597546e-01
6.443252182785078608e-01 6.476514334257003069e-01 4.479042534115233454e-01
-7.177880517355775813e-01 5.848946255493395890e-02 -6.951134783567576303e-01
-6.115332662943717690e-01 3.072701689834267946e-01 -3.434287139967728275e-01
-5.677399030360290588e-01 2.911199863418063583e-01 -3.054395346537001066e-01
-1.131495369833220715e-01 2.450016261573580434e-01 -4.713232648997081609e-01
-3.221467234901604915e-01 5.272696537953787121e-01 -7.494295148509516613e-01
-3.554157548586794196e-02 -8.686924273030010024e-01 -1.097838718560063820e-01
-2.073582142798733874e-01 -4.538292943369985344e-01 -3.918543040166756475e-01
-4.636813735843084427e-01 -8.973613108050745302e-01 -1.467812348347014573e-01
-6.789246994347293285e-01 -5.610166552320876576e-01 -4.996262614025254734e-01
-1.380059612394766710e-01 6.570833626836164454e-01 -6.696568169919983049e-01
6.596546559286560196e-01 -4.130437642856699676e-01 4.384917946284947465e-01
5.048176167254549984e-01 4.959260123290123445e-01 -6.567345379549018036e-02
-2.897968313336166113e-01 -1.810768880990932528e-01 -3.228265317893179720e-01
6.330501404767516771e-01 -5.025545564434957813e-01 5.580501499204423288e-01
-5.962520369345067905e-01 4.584068271253440296e-01 -6.378783063819525312e-01
-3.731619478648460220e-01 2.776660007276137154e-01 -2.530172284461350007e-01
-2.493775179610236703e-01 -4.206286601507759904e-01 -4.862932367301790459e-01
6.254837332653688797e-01 3.725630729199759794e-01 9.631395388889661680e-02
-5.980358689218725349e-02 -7.286025287862964994e-01 -2.010231421896582771e-01
4.606990898236262844e-01 -6.946306606436088993e-01 3.456354910147554360e-01
-3.160039690172881111e-01 -4.421625307341812139e-01 7.055600114493844333e-02
-3.994038254004695365e-01 -3.698726971132236807e-01 -3.857158492066162930e-02
9.999185823675955931e-02 -7.512362627641532287e-01 -2.829888548233861628e-02
1.483320001356678297e-01 4.380659833157649063e-01 -2.294099564028590776e-01
-3.346494001025132059e-01 4.075758757395064324e-01 -7.844111803100627389e-01
1.677042091532451318e-01 5.895180330909380872e-01 3.247458259749634868e-01
-4.508429789286516609e-01 -6.123182303353759404e-02 -2.397421684382044782e-01
3.254068181537247972e-01 9.518395242844289728e-01 3.503895933266221174e-02
2.002478997744927547e-01 -7.062118391676853735e-01 6.493146451842445044e-02
1.853814381684712187e-01 4.208243038308208672e-01 4.117454113952421363e-02
2.204226296128165286e-01 -8.621000066562932718e-01 1.658522402269423657e-01
-2.921232826927214754e-01 -2.861675739132947816e-01 -5.964582174333217246e-01
-2.401569241976435898e-01 -9.040121032477113072e-01 3.173193448998272714e-01
3.598163639351679710e-01 1.866583126328394682e-01 2.490480217552877573e-01
2.366221024132605655e-01 4.305983592178383446e-01 -1.028712325575219660e-01
1.748259591568967486e-01 -3.065781706795263073e-01 6.857960562039351338e-01
4.141232393808388368e-01 9.084166939319656686e-01 -5.191845723316995675e-02
2.116133637565025816e-01 -8.842807489737453119e-01 1.867761776780175742e-01
7.464224052541312826e-01 1.592845289517300922e-01 2.893892388872248422e-01
-5.870117664978951044e-01 -6.893898940329662439e-01 -4.473066660783092119e-01
7.595332796025138222e-01 -2.193398182268018748e-01 5.704704624096373911e-01
1.258697867641803136e-01 -2.827672183976403519e-01 4.657836585865681722e-01
-2.265079471732296401e-01 4.189675094690087365e-01 -1.850855643352509183e-01
-4.211932253930084080e-01 6.183813348231060880e-01 -2.652548892817397364e-01
-7.637875903631556884e-01 -4.672509030510938466e-01 -3.760703734359883144e-01
-1.526991260583616949e-01 9.134920910172076303e-01 -3.192164517923945510e-01
2.559487169273784168e-01 1.230829285400491385e-02 5.730953131486199448e-01
4.413942750126329528e-01 7.821378375268214223e-01 -1.861357658677648685e-01
-1.333775595926896818e-01 8.006959202615541171e-01 -4.147363244457008546e-02
4.540800040798913528e-01 -4.306335869500781399e-01 2.560854141722003208e-01
-3.729608002070925604e-02 -8.935644829394649991e-01 -8.772576087214491170e-02
-5.312950908481229861e-01 -3.654047345000626112e-01 -6.451465663340044676e-02
2.196999103117515395e-01 -1.038519140075479796e-01 5.341776647264839806e-01
-3.997467929260981601e-01 2.988363142251546090e-02 -2.747703834872952111e-01
7.226707019368402984e-02 6.401086537146906119e-01 1.999785290046821595e-01
1.151149412281479989e-01 -4.466671731510422627e-01 1.778700790721939595e-01
-1.736101636558182448e-01 -8.204590444975625729e-01 -2.650047029298736034e-01
3.575536839684426704e-01 -1.062899255215989658e-01 3.168722127582992432e-01
-2.524706373922782077e-01 2.987267346023765868e-01 -2.598115495534673580e-01
1.919142317811938780e-01 -8.960201498319152469e-01 1.769109319910131817e-01
6.889850228393779030e-01 5.958946648456564521e-01 1.312846916469689040e-01
-6.002772861768917306e-02 6.313593834007604766e-01 4.478036112926233464e-02
-7.111235221344035240e-02 6.066340904547197210e-01 2.281978713585311111e-02
8.091623968129951772e-02 -3.592892329109760308e-01 3.507294512261169839e-01
2.488649324432709586e-01 5.124099548079853461e-01 -2.975057759993323114e-01
2.311621072943923216e-01 5.766840494658526106e-01 -3.856894342935998088e-01
-2.491817607391857703e-01 -2.245541660324781585e-01 -4.639403482806501167e-01
-6.178399477916719507e-01 -3.477904513844164679e-03 -7.776362049683809285e-01
-3.216499125594152186e-01 4.967858441043823681e-01 -7.604853145257923774e-01
-6.956519005773269260e-02 -4.590537994790995224e-01 3.975990053913451838e-01
3.273224909041891895e-01 -2.014622788035533296e-01 3.095077353135206599e-01
-7.964497680927428158e-01 -1.418498837986471861e-01 -5.219469711563884395e-01
2.373765276477049768e-01 -5.109774201538372362e-02 5.499090734085899657e-01
5.312840271589751584e-01 7.078760226911251507e-01 -9.658267316357389831e-02
2.552363353855609529e-01 -1.233465181490012996e-01 4.074870829165088693e-01
-3.385244643598760150e-02 -4.402196608879990203e-01 4.356042340242691213e-01
2.252597820476716708e-02 4.678508664062881461e-01 -5.587687106807118775e-01
-1.815779331959376519e-01 1.507290993189844275e-01 -6.192198702729605486e-01
1.598441593845904007e-01 -4.795156687479217861e-01 7.185643675231577765e-01
7.106576861743935103e-01 2.884364527685819302e-01 6.752244275284566832e-01
1.059237061413482138e-02 7.073210089846383442e-01 1.337733113981418309e-01
-3.654541080322348257e-01 7.392002113186207923e-01 -5.552997977956271036e-01
-1.214283584765310509e-01 2.444905987497217326e-01 -5.750699826080277743e-01
6.701619199269094329e-01 3.265264991050280119e-01 6.856894455472613004e-01
-5.056439772237876495e-02 3.248116787062165223e-01 -4.033385487380968804e-01
7.427318939864576697e-01 4.804114099364302226e-01 2.156302630632307149e-01
1.888744758996341033e-01 5.999293561353900017e-01 3.545072026108794794e-01
5.036464720575824922e-02 5.712375656567946214e-01 1.357561048025452688e-01
9.284348000078412877e-02 6.032232453288852714e-01 -5.404390771608870159e-01
-8.631553321696595893e-02 -6.596759342248560420e-01 -2.345965487219471846e-01
-1.143346995326509352e-02 9.622639945675590667e-01 -1.946733169643175276e-01
4.625762463713429806e-01 -5.487385100823033435e-01 2.665116498732648664e-01
4.480830143923335007e-01 -3.665646019787554000e-01 2.596682831572144079e-01
7.731427028401236523e-01 9.596823949704436085e-02 6.631201713538555920e-01
3.848173193411044135e-01 -1.139428423763665238e-01 3.016778650077359680e-01
-4.360341454502601466e-01 -6.754074053659300247e-01 1.978822636794338174e-01
-9.921423150790259493e-02 -4.726648903358993126e-01 3.696643500777913594e-01
7.853233528540051189e-01 2.812000881398958874e-01 3.133977064408255409e-01
4.403343599528378172e-02 -4.782308327374645285e-01 6.174874591213931341e-01
-4.661407750755337115e-02 -9.694866952944821703e-01 2.339975617543538916e-02
3.488478235544327233e-01 4.834532114060430263e-02 3.227598471172410388e-01
-5.662494073040559295e-01 2.554682006641733477e-02 -2.576987684827782843e-01
9.284419807508631495e-02 8.597311992216529752e-01 1.400954379628370494e-01
6.910538178512876106e-01 8.080613496066833823e-02 2.700188149581548847e-01
1.217727178392410681e-01 4.745581710703034584e-01 1.215953766145392162e-01
2.572719876925396720e-01 7.255430751288424185e-01 3.737353027578140252e-01
-5.141157401927846093e-01 8.049197517917822120e-02 -2.614552319268199643e-01
4.669114881511119419e-01 1.109473905647899578e-01 2.260289334921831428e-01
-7.267359168848921414e-01 -7.664488510218640804e-02 -3.193786364489607510e-01
4.229214291990655572e-01 8.845460610287237957e-01 2.125882837951944826e-01
6.828655583824528863e-01 -2.815923640096958808e-02 7.646776525912786227e-01
-5.353477067115403054e-02 6.381290225141196260e-01 5.381365064738638515e-02
8.139963638938212398e-01 1.614722831976503625e-01 4.236330568584681378e-01
-4.387784273382983602e-01 6.947334115792779263e-01 -5.295413235564280230e-01
-6.487962334549501886e-01 -5.034146019967579155e-01 -5.813390053371773059e-01
1.367756295729996019e-01 5.320928239906566048e-01 2.490524430433273539e-01
1.013806096588256989e-01 6.743211465390533954e-01 -5.353282993811244728e-01
3.544410668493601091e-01 -2.337334674706952331e-01 8.041038174550064754e-01
2.674077154740179818e-01 5.860762802796957299e-02 4.801296073191627656e-01
-7.352631859080006604e-01 -2.801486467892461141e-01 -6.293385360096614978e-01
-1.869729531484074503e-01 2.560111367768082014e-01 -3.236332248995543726e-01
-2.472171646053951954e-01 -2.970383570036397303e-01 -3.227489687274975316e-01
-7.655097707202397350e-01 -3.174372708217542693e-01 -5.602717852163532353e-01
-6.691241233742658556e-01 -3.032395879040537534e-01 -1.777918048330906220e-01
-2.663551044875750451e-01 -2.598939380711491332e-01 -3.089707148034051554e-01
-8.889637869653728430e-02 8.943475378778193985e-01 -4.441969529153184104e-01
-5.145201925039092350e-01 1.240639905066716203e-01 -8.111818616301271767e-01
-3.263853939907070956e-01 -3.764521824258408866e-01 -4.720211033994227423e-02
-2.550584359641300813e-01 -3.879695597243830729e-01 -8.400107920538374406e-02
-3.595954211987121840e-01 -1.771427228130240950e-01 -2.393560228640503329e-01
6.020102375930444505e-02 9.536354974557648134e-01 -3.091302009531898265e-01
-2.757305961534060046e-01 -9.843683793790010128e-01 1.340353941489760836e-02
2.669779476425616083e-01 7.896059579772486681e-02 4.992504117078641612e-01
-3.257458472651265646e-01 -9.660888620533332194e-01 -5.051354602473390187e-02
4.267864710152276531e-01 -3.487743092801890432e-01 2.574178862323991956e-01
-1.358112936054123310e-01 8.998034353283952402e-01 -1.669785134230406254e-01
2.309081056438604673e-01 6.178417205365591691e-01 4.021705338663282281e-01
-3.244640783443439314e-01 -5.281673391669161610e-02 -7.267825152261767618e-01
-2.265450177050047087e-01 -3.823918208825076159e-01 -1.682766588069984082e-01
-2.471627332239881847e-01 -4.479278341047443490e-01 9.153598736401133418e-02
-7.418559661895850199e-02 3.062775137820023530e-01 -3.949670499766961274e-01
5.872937663489578020e-01 -1.603903403074386502e-01 2.913077796140237652e-01
3.500236662838962509e-01 9.142572963257481478e-01 -1.557377026048439861e-01
6.095686136648783560e-01 -5.422059447240100694e-01 5.392341549928755251e-01
2.686318707697513686e-01 2.439273599205233622e-01 4.748729086095015428e-01
-2.678359590431086956e-01 -1.178129454776753737e-02 -6.764573776063950161e-01
3.619068905058799857e-01 9.184327598398818182e-01 -1.270957323320044408e-01
5.131610972615937571e-01 3.686857192407319572e-01 4.156472657422685679e-02
-3.282368200612149067e-01 6.094676314968220376e-01 -1.761915071558916579e-01
3.536764548767264427e-01 8.211033098604307856e-01 3.312006153372644701e-01
3.177354352058859854e-01 8.801493039134797858e-01 -2.506008400274216674e-01
3.867882531318336259e-01 -2.785164020887149761e-01 8.154311762657422413e-01
-4.747042925649099798e-01 5.964867283795580732e-01 -6.431016658409567377e-01
1.223572546399368938e-01 4.468737028380029841e-01 -3.453732708344604552e-01
4.677645997812024947e-01 1.488782898703052138e-01 2.068968537534703334e-01
1.224505470697392212e-01 4.300817489387813164e-01 -2.170266215541555577e-01
-2.202506980486723664e-01 -3.723706056708414591e-01 -2.449812192243211173e-01
-7.304992502141735011e-01 -8.077441594766539279e-02 -3.223307256582650382e-01
2.309000379720975715e-01 7.225491404104846804e-01 -4.214128898922946398e-01
-3.417210671093709462e-01 7.741004557707118483e-01 -5.128494337954994098e-01
5.396507835524095853e-01 8.152046804540862279e-01 1.198145397957542206e-02
-8.833136903303204224e-02 9.229792461367750667e-01 -3.739341474354018757e-01
4.679966406566525849e-01 -4.107080738164361339e-02 8.139907500539859120e-01
-6.546564045520998354e-01 -3.481083963535634429e-01 -6.712087930498745747e-01
4.285423602047806063e-02 -4.612271228561988234e-01 1.453757991084958512e-01
7.265199954026237972e-01 5.441721926800420217e-01 1.976049671598626989e-01
2.747048533163708450e-01 -4.627191627076980840e-01 7.733820781633862218e-01
4.908193804662516202e-01 -2.358173966630428275e-01 2.771211028747922467e-01
-1.413505399915315486e-01 8.915827292516852465e-01 -1.568794988685150160e-01
-8.732543903431080889e-02 -5.881688899434975859e-01 -2.108625816685337218e-01
5.512892920236242000e-01 -1.953279826242664274e-01 2.859074292708835840e-01
2.717432461499081908e-01 -4.720221842117644853e-03 6.502670008296717041e-01
-3.516093284627442861e-01 7.306256249324353247e-01 -2.537827106446077230e-01
3.150599400639711445e-01 -9.106169203572600512e-02 3.513409835702565043e-01
-7.024113921171773467e-02 -8.115211332405994904e-01 5.147689559492785172e-01
6.021660462151809945e-01 7.798357803502573571e-01 2.183182247190400549e-01
-1.690608893897985465e-01 6.978099232197273460e-01 -6.550721577828046982e-01
-4.098729698903535307e-02 9.551827519846050052e-01 -2.314454309675084975e-01
-5.513284948456508711e-02 -4.432727715853644890e-01 2.222677131507035386e-01
3.458377640813414255e-01 -4.149747035269812367e-01 2.259390434885800991e-01
-3.272316244177133626e-01 2.025542248906987697e-01 -2.813412965987893144e-01
-1.866383044789642898e-01 -6.063394705848508259e-01 -3.708343030083533498e-01
-1.468216536407130068e-01 -9.098220619753151217e-01 -1.554517635944387133e-01
-2.079557005895227018e-01 -7.013612509706428355e-01 4.355372530613794146e-01
4.035254379024609817e-01 -5.973194198520919151e-01 7.284740878235913542e-01
-6.047751585457692425e-01 -6.942800050030636938e-02 -2.396736240492396142e-01
7.422946475493296115e-01 -2.711849849272449098e-01 5.348487030319944990e-01
-3.836804904868499344e-01 7.286584882076623249e-01 -5.522351979755559803e-01
4.682193912422554227e-01 6.437001755281461790e-01 -1.732277226915561186e-01
6.745672572473955519e-02 -3.580897470801207572e-01 5.263092475656305780e-01
8.402913284597650356e-02 -4.183382765128666470e-01 2.236709350320206791e-01
-3.087818394909021547e-01 1.011414832365344768e-01 -3.194113903315459191e-01
-1.159892032840167259e-01 5.419640016303186592e-01 -6.918313304533757480e-01
3.986168229195404256e-01 9.268328632452716986e-01 1.085980010726392622e-02
-5.969606828417056005e-02 -6.020142314619356672e-01 5.574180356728062335e-01
-4.001520140798204284e-01 -5.555684041939795703e-01 -5.770637082789585870e-01
5.765807106012988958e-01 -5.312940086179329668e-01 6.575931173169862198e-01
5.227083667757305152e-01 -6.587087803723589152e-01 4.530757115185782280e-01
-1.631060182037124551e-01 2.804458005253027686e-01 -6.849714515038770601e-01
4.534700416011316904e-02 4.093870880919600053e-01 -2.354614071117350493e-01
-6.979094734393456179e-01 -3.580494238804036722e-01 -1.858048012034469454e-01
4.984954055298720377e-01 -2.017684921955287813e-01 2.779771303466590515e-01
-3.723458691267984844e-02 6.596405107197069739e-01 7.716309154092312883e-02
4.721180215857445628e-01 3.952908759037076503e-01 3.939825924133737514e-03
5.430555373379568618e-01 2.729165880149068135e-01 7.406065839228830328e-01
-1.610771649987025045e-01 -4.606306292314954476e-01 1.764343634162232888e-01
-5.613301537004488084e-01 -1.024554419033925634e-01 -2.176594835184801902e-01
-6.186542028605043209e-01 -1.245380316007102112e-01 -7.614824206137380536e-01
2.010271713074311406e-01 4.293541887738081542e-01 3.046040564858529254e-01
-3.373540524969682042e-01 -4.697173856475201914e-01 1.114911638902161134e-01
6.441965396875540817e-01 3.158778903137271499e-01 1.383310839831189687e-01
-2.036110527596251274e-01 -4.259124711866760227e-01 -3.243526975887428554e-02
-4.823235755710247319e-01 -7.040651773808199732e-01 -4.779076712064042054e-01
1.796070738117808430e-01 9.680804403376874756e-01 5.886951575588472496e-05
2.911536060779508772e-01 3.111350031478070655e-01 1.962320768868844323e-01
4.346880850792712025e-01 2.707641819925324933e-01 1.286938523364318798e-01
-4.905135140884835931e-01 6.279884216713599310e-01 -3.832239266686000012e-01
4.052304781501337438e-01 -4.311234498061515263e-01 2.372517747805522326e-01
6.043731668903457033e-01 7.768837810076318906e-01 1.441304204314404758e-01
-7.748095971918268487e-01 -3.749827384275956077e-01 -4.887264471171092195e-01
-5.980928846696828005e-01 -7.639615699739039645e-01 -8.580552368224676762e-02
1.705752162903310665e-01 -5.182872539340974694e-01 7.245416516133095231e-01
3.387327482946462243e-01 -1.528511915963764178e-01 3.184933058157085606e-01
-6.562339617728031316e-01 4.672807627924313589e-02 -7.561801679054372949e-01
2.313935303510286090e-01 6.886285773021771917e-01 3.741653265530823780e-01
-2.303632396326493748e-01 4.776631130872757008e-02 -4.368225847931631045e-01
4.958032961964219387e-01 2.827610625090409280e-01 1.103415412413529945e-01
5.756678688517082865e-01 -4.393910423751746785e-01 7.344826727775615183e-01
1.014349233396795447e-02 4.499741783576194365e-01 -5.620140440092158407e-01
3.615241629573704985e-01 2.421770474250153626e-01 1.988079026748427180e-01
-3.126871609341547176e-01 -7.839574473124534260e-01 3.265555960417829140e-01
-4.174219087851451793e-01 -2.990227375212524130e-01 -7.046136271443717014e-01
2.827209203278761504e-02 -5.838096765579513514e-01 -4.333947488846271595e-02
-6.031349278692715865e-01 1.718786216009625112e-01 -3.023507384577233115e-01
-2.029991992732758932e-01 -4.117013775934214581e-01 -1.237689912939765602e-01
-4.976941597358973124e-01 -3.891857872888025427e-01 -6.884705671648546632e-01
-7.445538090334702375e-02 -8.120940025621884439e-01 -1.857057002181923544e-01
-2.771523614048778117e-01 5.946017094049101948e-01 -1.383160973354134460e-01
-6.417642992197582219e-02 3.423376349545115827e-01 -5.780106500114511325e-01
1.520253743329539886e-01 8.323247966921798469e-01 -4.361275126973997440e-01
1.985525221916863703e-01 4.657423526572114225e-01 3.402886354675977998e-01
-5.186848110602153561e-01 -4.579394195452054367e-02 -2.343592535199529869e-01
-5.496471248157017674e-03 7.327540109404645507e-01 1.141084739127030678e-01
-8.256568628543950461e-02 4.036449144382515120e-01 -1.946733120506108083e-01
-1.539425876732640197e-01 -8.909653213892978485e-01 4.007037031491382240e-01
6.229209042028082122e-01 6.952810985603542493e-01 4.895523748863184199e-02
-7.963029194233532948e-01 -2.608029488952124941e-01 -4.770387001169957841e-01
1.690169230230834929e-01 -4.315101667162565269e-01 7.200989343220713934e-01
3.995122449902139272e-01 -7.691856592714643170e-01 5.339929236622258379e-01
-1.828682032070612917e-01 -4.676117717270969476e-01 1.924398108124965590e-01
5.885025011515742088e-01 -4.802481893670350610e-01 3.689882668329153570e-01
1.223127001108449269e-01 -4.750394538459525862e-01 6.913345902624831174e-01
-2.320800202075555818e-01 1.133756159929884960e-01 -3.896849140284789903e-01
3.884601438448932464e-01 5.582355527114252203e-01 -2.098720833568113731e-01
2.315062840316728376e-01 -5.382863663580352842e-01 1.348935120120410003e-01
-6.289109111133175389e-01 -2.210165066626222918e-01 -7.330818331050500403e-01
-5.904309387620290117e-01 -5.382191202300999899e-01 -5.892288173526423201e-01
-2.966217203884057296e-01 -8.406525732756184865e-01 -3.142683063061366688e-01
2.706506359283827878e-01 2.038309318860631325e-01 4.665332696275000801e-01
3.733293742936193982e-01 -5.751177990414041430e-01 7.475927438791453161e-01
7.784014584500711931e-02 9.222023662576949166e-01 -3.736726288580726751e-01
2.632949202250761123e-01 -4.145444229341207348e-02 6.573181269016661332e-01
-4.047879840826659192e-01 7.120140158258866370e-01 -5.550050800715938815e-01
4.275637827672311153e-01 9.689158012313188462e-02 2.486222144868615591e-01
6.295344631979802319e-01 7.510955575655258176e-01 2.144853379282183337e-01
-4.747509351910069592e-02 -4.347176026893905809e-01 3.144454025184647561e-01
-3.095290093477638949e-01 8.111467664161512436e-01 -4.612271183626890370e-01
-6.881426866536083375e-01 4.663488662577984500e-02 -3.254228102353819985e-01
-1.639215969161097464e-01 5.642213534931229679e-01 -7.229368805614241889e-02
