-3.279956934220759068e-01 -8.877247997899595511e-01 -1.738696753327500788e-01
-3.239366664179824801e-02 9.074987638401129653e-01 7.121658016033035471e-03
-8.394304375679327856e-01 4.763525875361592221e-01 -6.259094922032755470e-02
-9.252115329517196507e-01 -1.508817525148817562e-01 -1.515660452000012481e-01
-5.714269080628978648e-01 -6.649458469210606237e-01 -5.946079505933848236e-02
-1.805877527593988119e-01 -8.428649587859750048e-01 -1.179868680171372725e-01
-5.510048950784236510e-01 6.226476050477333102e-01 1.641249116184169757e-02
-3.600162990196111856e-01 8.732790054668502222e-01 1.004320783604698980e-01
9.114794576698627138e-01 2.373764123941851656e-02 -2.476756974229595096e-03
3.511173521136635722e-01 8.908763328118445290e-01 1.226432039015618453e-01
-6.914143192533975246e-02 -9.782054268365262262e-01 -1.418571249462224071e-01
8.369993470647973943e-01 -2.339720619934171075e-01 -9.792063619220579482e-03
-6.427888377526894681e-01 5.365395600256525066e-01 -2.319975496190829906e-02
3.121955359615739001e-01 7.966763309069702093e-01 1.591910206795316973e-01
-3.378277214954469865e-01 -8.667499079838469900e-01 -1.765922675823221877e-01
1.393428086355269213e-01 -9.249762507605804318e-01 -3.823688423200093459e-03
1.423894821286393886e-01 8.750037371100782835e-01 1.594831269795298490e-01
-8.527956441329354043e-01 -4.617971735529893262e-01 -5.060400008424167928e-02
4.006947622693442512e-01 -9.101976911730347286e-01 -1.834009043088949409e-02
-6.741768271966140924e-01 -5.690509521087807610e-01 -1.663358571390191887e-01
-5.919930899340495323e-01 -6.186467884933627426e-01 -9.327233371525162076e-02
-8.783073657538640333e-01 -3.428510789637371770e-01 -2.938165357833940824e-02
-1.592627034497311744e-01 -9.364634948780151680e-01 -1.650464268086392905e-01
8.656427253429904711e-01 2.679875809315760971e-01 1.622178691981517387e-02
3.553337409127808599e-01 -8.245387875201456440e-01 -1.144162754408011712e-01
-1.583333328151401431e-01 -9.355671049114426818e-01 -1.652909466168627772e-01
-5.835588172222106601e-02 -9.996874038396685869e-01 -7.972905028473921407e-02
6.828888058280726536e-01 -6.077857285196054393e-01 -7.585720330421399926e-02
6.006980056989914551e-01 6.450497721571705201e-01 1.730290976084636334e-01
8.404357815454556180e-01 -4.892947504745405463e-02 5.210658348115573130e-02
5.556285666949808411e-01 7.604006334572130932e-01 5.210082605893530394e-02
-4.662486624469842078e-01 -8.105311628476984387e-01 -1.800076317755129329e-01
-7.465539578858695346e-01 6.240867086570582867e-01 -2.103617607662310388e-02
-7.405771767419485618e-01 -4.576954326681710317e-01 -1.534427974431163966e-01
5.303710692785753578e-01 -6.756634848048492792e-01 -1.626640504244320981e-02
-1.512986749868499292e-01 -9.892101213134464333e-01 -8.444361177880169156e-02
8.639171664263085582e-01 -3.807412598442322382e-01 9.517969808009549282e-02
9.003984861977457621e-01 -4.165916947209906129e-01 2.896114638699479743e-02
-5.520007379700314631e-01 7.537931416186172129e-01 8.680834921112765001e-02
-5.828965061673360148e-01 -6.312572736309763899e-01 -8.477376318819193624e-02
2.078328072285936245e-01 -8.510051982466072529e-01 -1.110746032301626746e-01
2.642992315737807130e-01 -8.661472067840528810e-01 4.029832327240465313e-03
4.616669397709956962e-02 9.164094279106859142e-01 1.485688431874856996e-01
-9.731888503169300320e-01 1.167218582623081591e-01 -8.510596304106576859e-02
-6.614049897781139054e-01 -5.424347739591652839e-01 -8.957443638480956649e-02
9.663647227275602436e-01 -2.968865857602977221e-02 1.083922934619263728e-01
-8.956275312869493854e-01 -2.978612063801382437e-01 -2.707324675076402259e-02
6.546979914355620656e-01 -7.302345781073819042e-01 3.032206279742289193e-02
3.886286434664577155e-02 -9.048401053194489174e-01 -1.493753130738385559e-01
8.369075769991914937e-01 -1.871868905671873751e-01 7.269934202041840321e-03
-6.120582989706789823e-01 7.512782578804987343e-01 4.080644219103311821e-02
-8.121717441922066127e-01 -2.660369515623413061e-01 -1.224668885365951532e-01
-3.101929946609248701e-01 9.021102371029099398e-01 9.434306894215517547e-02
8.680065859957776242e-01 3.680281549904416138e-01 1.495762316166963923e-01
-8.343784724354679216e-01 2.940896134691530772e-01 -1.054141207173310835e-01
9.792864559977919603e-01 3.847236802881730255e-02 6.111042358687401171e-02
-9.124091942958675316e-01 -2.958979713279766832e-01 -1.520838934644590246e-01
6.619844536507537569e-01 4.930421540136104008e-01 9.710506016799246021e-02
6.179644279232768822e-01 -6.393754151008256281e-01 4.599327058235737342e-02
-6.089104513406475849e-01 5.722358558061005906e-01 2.425083267634525405e-02
-3.999731079258527777e-01 -8.737623652556921749e-01 -1.704620575815602723e-01
8.371632054950250978e-01 2.884127367541560738e-01 1.997950329631221350e-02
-5.772930515193807066e-01 -8.130031225962949248e-01 -1.030091523589101027e-01
-3.449149491241415011e-01 8.280263740673829975e-01 1.185191041282062374e-01
-1.570306912489689843e-01 9.439266745733512209e-01 1.000849589091643288e-01
4.228491907129867666e-01 -7.600528405868882675e-01 -7.771074811253184111e-02
6.629053870720834629e-01 5.530777050079943580e-01 3.853382914820869393e-02
-7.957659254341148403e-01 4.587549386870027335e-01 -9.046021430082760995e-02
4.670637356506914251e-01 7.268707879410896133e-01 1.675467351796036120e-01
-6.655504512745387125e-01 6.511591652734730618e-01 7.252861586112335779e-02
7.645781590000778616e-01 5.214173366848460223e-01 3.466073291773873188e-02
9.293587330950195957e-01 2.381579291081111216e-01 1.290466842819168736e-01
-1.661783673258940969e-02 -9.725605708571972707e-01 -1.452349099700442070e-01
-6.657490333996989307e-01 7.102220744714177192e-01 5.154996028633256587e-03
7.555169043782888894e-01 5.032190871566954993e-01 2.918808586406296257e-02
8.006904288434448791e-01 -5.828434246173019861e-01 3.312764676508529738e-02
-3.096159273429711090e-01 9.155439762202711718e-01 6.271531774153635275e-02
4.477734701470488798e-01 7.802032550451176718e-01 3.109726282104614825e-02
9.580495642835247239e-01 1.981367603457879004e-02 1.203771502054761938e-01
2.785423201296072238e-01 8.234258158612175471e-01 1.636028865089297901e-01
9.592958318799755801e-01 -6.248658071635124212e-02 1.125257747043770101e-01
8.651937660500910177e-01 -3.880222659974589816e-01 9.297224871440240568e-02
3.128657291975469046e-01 7.836401149898940544e-01 4.516003352328808867e-02
6.305906642451131194e-01 -6.182872700917340092e-01 4.477733762401216178e-02
9.669104313685884522e-01 1.437300045023190420e-01 7.139654690647284641e-02
-4.593139177802081363e-01 -7.228479978684220209e-01 -1.154027319998592732e-01
-6.868573728023505964e-01 -5.238230986573938486e-01 -6.916015989079773996e-02
8.152819632920375037e-01 -2.534369050831788983e-01 6.939585843011722432e-02
-8.196879735229324337e-01 -5.239247746808327610e-01 -5.548674751727622478e-02
-2.401044625995817361e-01 -9.629366103960025347e-01 -1.343195562444818025e-01
7.722827713622833386e-03 9.621306333282220180e-01 9.251164469137158897e-02
-3.389302066307831041e-01 7.642858827956816592e-01 9.572372934395494137e-03
4.212152545555982730e-01 7.117646495054238409e-01 7.267289220561153062e-02
1.232542613262518558e-02 9.147120240155898196e-01 1.473303630904152228e-01
4.871794066039015769e-01 -8.597308747894926162e-01 -8.267739138508128915e-02
-6.888987355215511199e-01 -5.813120932207030966e-01 -4.165203049034264804e-02
2.299833795485976828e-01 -8.977247705593746074e-01 -1.373022141133134755e-01
-4.063747217111727261e-01 8.736050187742464557e-01 7.002310082286541948e-02
9.752756195873110157e-01 8.758076384841451123e-02 7.631423702919204466e-02
8.698137638447327458e-01 -3.122745610859239962e-01 -3.612728473629434750e-02
-3.318512778301480060e-01 -8.392950329165854706e-01 -3.999289905203350093e-02
8.243608420856347596e-01 -2.002037670633371458e-01 2.659326077290849813e-02
-8.130110295659176423e-01 2.898487260085950701e-01 1.462597459331193422e-02
-9.385258319258474868e-01 1.153657198294916059e-01 3.623692916502432079e-03
9.674360564394357542e-01 -5.193048908200779273e-02 1.046322025795371619e-01
-5.652745084211800997e-01 -7.239979726553390504e-01 -1.813498110203853875e-01
-7.107833671792186392e-01 4.742372768873742706e-01 -6.130367516955371326e-02
6.286782867759450610e-01 6.371461179777373474e-01 3.210358769160449183e-02
-3.102800436621496599e-02 -9.934268319491095234e-01 -5.486359637261351008e-02
9.447694640360326801e-01 -2.812860718541667082e-01 6.115840801380924979e-02
-8.182632323242329253e-01 2.121991330828840727e-01 -2.238850852212988934e-02
6.606601662594230318e-01 6.966767591073451671e-01 7.816031500745306004e-02
-8.195137681890251047e-01 -5.535094640922696430e-01 -1.313573092645331508e-01
-7.841598484092097976e-02 -9.280956272823484010e-01 -1.628792791094485770e-01
8.649769469930940202e-01 -1.655150246544793979e-01 1.123845206303593219e-01
5.638025086426590171e-01 -6.633433123828472722e-01 1.996692098422352124e-02
-5.722451581850345192e-01 7.477589746386938963e-01 -3.689754204763820433e-02
6.278753149029475678e-01 -6.852283979405831005e-01 -8.810588368059386888e-02
7.342756788185266226e-01 4.535506453065680232e-01 1.602014800406812711e-01
7.403469315674434670e-01 6.208657212131575287e-01 1.031947631327046894e-01
-7.956659709223788679e-02 9.280384800613035168e-01 1.304441388258464549e-02
6.535036398169258298e-01 -5.523311036480271774e-01 6.950159892551823274e-04
8.376816538297267301e-02 8.635416508821044390e-01 1.826475284200050619e-02
-6.349197286147777453e-01 6.348421827526710137e-01 -6.318616746792880823e-02
6.830716355820086738e-01 6.804926031923633767e-01 1.137699116091834550e-01
8.578416913192221660e-01 2.089161417143945154e-01 1.513151454189992917e-01
3.993046695928371970e-02 8.997632075022183873e-01 1.129046438174790244e-02
-4.410508868499750101e-01 7.360899470984808568e-01 9.141367889588163098e-02
8.096991393975669915e-01 3.311318420903489601e-01 1.577070936892759345e-01
8.104008429267585412e-02 8.173508816653406450e-01 9.318675064514808648e-02
-8.444286308131341290e-01 4.938937116932080595e-01 -1.424142876873179045e-02
6.003584515634149410e-01 -6.708870459197922020e-01 4.752957125996856019e-02
-7.475912350287582386e-01 -4.248242939654667261e-01 -1.380095034742878091e-01
-4.820314979374204153e-04 8.476951570422331939e-01 1.340961762338154784e-01
-3.570393674249209837e-01 -9.158952240615643170e-01 -1.516062506443734692e-01
-1.529389096869255560e-01 9.209976411397942098e-01 7.875552935610359226e-03
7.860034253784138336e-01 2.831413596926042331e-01 6.549889177196957513e-02
-9.506181190953773008e-01 -1.989692360098684054e-01 -1.334769102729703449e-01
-3.371051498074087438e-01 -7.901187510127662961e-01 -9.365421641456884994e-02
5.961232219657028875e-01 5.691872054883675425e-01 1.129874474483595626e-01
1.088026497906541268e-01 -9.941906735026503350e-01 -9.732580489591925732e-02
-7.785489920792458829e-01 5.659794061210464688e-01 -5.178283484706825562e-02
5.081086416812727879e-01 7.116952394594432407e-01 1.715411492902567114e-01
-6.063266518453143128e-01 7.594135844162421822e-01 9.894033592709426672e-03
6.185912001515100345e-01 5.467172366570511866e-01 8.754272726714440456e-02
-7.418864979955377414e-01 6.004010808879062244e-01 -5.454823143631309240e-02
3.558361713148894268e-01 -7.948049117587937529e-01 -8.731639862462330093e-02
5.529453821638652400e-02 9.607979042041451256e-01 9.189848729522835658e-02
8.523018706209153361e-01 -2.031808805959416375e-01 1.046623365058247379e-01
-9.649537409588319070e-01 1.700483282356718695e-01 -7.879885924265640773e-02
-5.772177491893067947e-01 7.517665592923863382e-01 7.532031444260302300e-02
-8.214987411984995269e-01 3.949072739955400424e-01 4.354570595803725769e-02
4.968621403490999233e-01 -7.471258638837339205e-01 -9.648384276841752427e-02
-7.511597576796567033e-01 -4.533729228632062402e-01 -1.594707407381594499e-01
-9.023871387459780902e-01 -1.897411887959451204e-01 -1.553911829775059261e-02
6.818676787593308530e-01 -5.188478289030836743e-01 2.030882077683671474e-02
6.481453155017731227e-01 6.980264777176142799e-01 1.426400955166832463e-01
6.407888924908874406e-01 -5.675346865859982604e-01 -7.389314600316657621e-03
3.616060851409881871e-01 -8.081622653011659718e-01 3.999614706693114044e-03
-3.137732091369621612e-01 -9.483101157357137767e-01 -8.921225761213866234e-02
3.366504042474919856e-01 -9.443810059113202371e-01 -6.017557533016972687e-02
-3.612473799365277516e-02 9.629944360967316319e-01 7.973375751672857892e-02
8.755036561266233974e-01 -5.614679325312491032e-02 1.233648272787310901e-01
9.647837179657593465e-01 -1.068717578087173131e-01 9.919724962288277437e-02
5.513740737141017423e-01 7.858908831270130513e-01 1.237213963767557628e-01
9.804990373118479541e-01 -3.507985435972860166e-02 4.973738932063191676e-02
6.624864246342169194e-01 -7.011344977848351645e-01 -7.636418522276078313e-02
2.449489313582057029e-02 -8.764612072147670574e-01 -1.294169739295693844e-01
-8.235992369896830700e-01 -2.011248168944617942e-01 -9.526338854668672806e-02
-4.852512699286252174e-01 7.599827286951430505e-01 1.017587674836352429e-01
4.879012380408355165e-01 -7.559344085805557167e-01 -9.909897701130704339e-02
-3.461473051097208598e-01 -9.381851534031923068e-01 -1.083586974744863152e-01
-1.016184467197575048e-01 -9.226366666527844318e-01 -2.236722183894687688e-02
7.935066537144745968e-01 4.364479187845741182e-01 2.595117839545647148e-02
-1.660147362422782769e-01 -8.471603598544733549e-01 -1.208537174857522017e-01
-5.567073654812709771e-01 -6.501297538081812766e-01 -1.236828911290012017e-01
6.145271743917806173e-01 -6.343654957038554754e-01 -6.897285834562064122e-02
4.853189406226071645e-01 -8.680608196693659906e-01 -7.273562463201924122e-02
-7.361096429913354111e-01 -6.176939983763454212e-01 -4.844572459505706863e-02
-6.132948203900334683e-01 7.344254575613100577e-01 6.238264519220599463e-02
-8.438269229291244233e-01 2.730765415587403933e-01 2.558459750938235286e-02
-5.336480659148669092e-01 -6.785418734705138677e-01 -1.436920162497461739e-01
7.324003415283499852e-01 4.340411961671455932e-01 4.442157840009918618e-02
5.557528807609135590e-01 -6.950195335460503943e-01 3.546592905528828804e-02
-2.689576665155910540e-01 8.401163240081354067e-01 -1.495257012313435004e-02
8.324225049638986906e-01 -2.302471618636047213e-01 -3.918064795663834914e-03
3.470112993035404658e-01 -9.080733492909228710e-01 -1.142344277714526096e-01
8.359743916576741762e-01 -5.070517922318449333e-01 -3.213371061172342474e-02
9.751097780615590738e-01 1.364807045736450564e-02 3.896500747943783954e-02
8.295442677906764706e-01 -3.318055589854402299e-01 -3.466043641786646645e-02
4.012425414449483085e-01 8.211294335285796997e-01 1.673606486683780481e-01
-6.944621945021876019e-01 -4.989871592830731895e-01 -1.276657497254812534e-01
-4.271215507333783190e-01 7.790880892576550476e-01 1.076533763797067333e-01
-3.001496594694490552e-02 -9.422374926486504210e-01 -1.585999008208293370e-01
-6.686747829953775257e-01 -5.623076830819115912e-01 -1.590116995598202243e-01
1.064184969781999113e-01 8.188145480150614830e-01 6.080394117232796464e-02
-1.394341503406274496e-01 9.241930922706105278e-01 1.264458690564922994e-01
8.552438763294005764e-01 -4.044277417492805893e-01 9.192501158473474765e-02
-8.261376793149691755e-01 2.507895171146733992e-01 -9.605612263809518159e-02
7.773465398693095718e-01 3.275571515724489124e-01 1.340563278220942289e-01
-6.690755328142871106e-01 6.022618398794532535e-01 7.371177129614436829e-02
6.545725057574811601e-01 -5.508945057191937389e-01 -3.314834334244020925e-03
9.010643714943002147e-02 8.159604787589197494e-01 8.253258527310318449e-02
-8.623983721211508913e-01 -3.038953869467362345e-01 -1.656057332922348801e-01
-4.963263941889272113e-01 8.333956690060601025e-01 3.920562528630907456e-02
-2.060557820267521767e-01 9.108667836826996878e-01 2.898784507857278536e-03
-9.422056432158419925e-01 -1.251576869216785015e-01 -1.439124230981233543e-01
-9.085842746803908243e-01 3.606839546382910600e-01 -1.377852487181821690e-02
-8.243432406406795421e-01 4.661395798556877690e-01 3.857344272656447470e-02
-3.399595708476517708e-01 7.837069225781581050e-01 -1.067493406612775135e-02
-3.496063417946439489e-01 -8.808485996533672591e-01 -1.742798981558093818e-01
3.232281626954159881e-01 -9.279976873692650230e-01 -1.081237201947181648e-01
6.445634931812384005e-01 5.454957766095920313e-01 5.249337264856396290e-02
7.607526019438817233e-01 4.049465684656175513e-01 1.565291165297986731e-01
1.942855968434190339e-01 -8.669505217528078456e-01 -1.266646708514736382e-02
-6.573370774987033482e-02 -8.647933774786741301e-01 -6.044484335418244536e-02
8.339733468125666294e-01 -3.933718721768640902e-01 9.653206073788460351e-02
4.444896491381080672e-01 -7.359521615869512035e-01 -4.164826342254642627e-02
-7.701988376859884022e-01 3.947317260138152317e-01 -8.182652456116712436e-02
7.768845776726189811e-01 -3.694497809714634151e-01 6.107236223993207924e-02
4.301225557739419419e-02 -9.105609612823740706e-01 -1.510923730080165062e-01
1.750779174819703798e-01 9.461039674544915457e-01 9.421402423195204823e-02
-9.367123090957176768e-01 1.861627809439911629e-01 -1.102116468259597554e-01
-4.639345871994547399e-01 8.514394745516679075e-01 3.711811664214953455e-02
-6.346143680237532614e-01 5.951072623174379350e-01 6.739713442314668179e-02
1.562608781761517379e-02 -8.996170448176697976e-01 -2.149224334603391101e-02
2.612024084302222438e-01 8.792719740744932011e-01 2.862163221252849235e-02
1.640575900574423041e-01 9.457655471679056181e-01 1.077151716148214283e-01
5.717650183112407136e-01 7.301489238076360744e-01 4.134439771903212352e-02
-5.668519104538661812e-01 7.503403750713772968e-01 8.174208117212801439e-02
7.131546126564325405e-01 4.193394908418549560e-01 9.561350215469267833e-02
8.141733493871354532e-02 -8.583213400373639335e-01 -9.270783771949921148e-02
7.991459280787491792e-01 2.361220219736893111e-01 9.701055002860933807e-02
3.078169727954624957e-01 -8.614365444099685298e-01 -1.269901198360695871e-01
1.137950120666065407e-01 8.381897246566245574e-01 3.293069027216144473e-02
-2.231139230814667765e-02 -9.810161747083356865e-01 -1.383519535232520803e-01
-8.646891528355837853e-01 9.815633092268080673e-02 -1.169791494569516477e-01
-4.300139330515784786e-01 8.347631956789314245e-01 9.791360378462966862e-02
-8.765039934552497636e-01 3.810411651931167598e-01 -8.579942745067195564e-02
4.736003331929367066e-01 7.773077548182810714e-01 1.705061107586325342e-01
-7.349475153257333249e-01 4.367108257396851712e-01 2.960174239352567072e-02
7.970683574717372100e-01 -3.789208150014764520e-01 8.464211757302807226e-02
8.387068491915679047e-01 8.826167624552225255e-02 4.540677811679012799e-02
-4.802555059818212069e-01 8.230638187208643153e-01 8.083997409475755791e-02
-8.588318813502554550e-01 3.901469182357192311e-01 3.244518898247816113e-02
-8.274453303982506336e-01 2.002953813081960743e-01 -8.590896651506015058e-02
3.672669753520504399e-01 -7.906963487484429676e-01 -8.766949435895568521e-02
1.667073227452833817e-01 -8.574644176646750715e-01 -1.117392662528038511e-01
-8.443499495088052642e-02 9.469379337227508131e-01 1.145531247205123504e-01
3.125251600826188247e-01 -9.527532621152682291e-01 -6.025674253421840765e-02
8.685937076055421091e-01 1.832273233447294647e-01 1.505527515692023643e-01
-7.527382469752005312e-01 3.807302772598232243e-01 -5.419783107205851380e-02
5.212266032018532114e-01 6.886024674770029330e-01 3.838230962215599673e-02
-1.276573576198760107e-01 -8.737732180724461228e-01 -4.288209106322365960e-02
-9.465781625580599323e-01 -2.616670949807269331e-01 -5.865127029598594943e-02
7.062682273468067207e-01 4.817501707085940499e-01 1.568059565046748816e-01
6.599132694745185601e-01 -5.655752519154134683e-01 3.835777628791577770e-02
1.256527194586702645e-01 8.588872087056711457e-01 2.076411418661493202e-02
5.378041978426147812e-02 -8.655912857609013855e-01 -5.216399616908061476e-02
-9.157685644391155844e-01 1.076077298461764059e-01 -1.311976451787590370e-01
9.310958244074629686e-01 2.773393150306360799e-01 6.666580157706181176e-02
8.856078481429364713e-01 -1.391641645890008550e-01 -1.564368208408106406e-02
4.677536099491844679e-01 7.895876137766991709e-01 1.677928030091146161e-01
3.955353460414005040e-01 -7.671257456851122702e-01 -2.440118330312292250e-02
9.488128235389864384e-01 -8.058956707643175066e-02 1.186069722553268202e-01
-5.970716870478279814e-01 7.299402323899821798e-01 -3.961447355260732522e-02
1.558408538446363206e-02 -9.795362078150305907e-01 -1.373793048256779503e-01
4.725862288692758151e-01 8.093250724601505075e-01 1.560892448093777196e-01
-9.676439874625599735e-01 1.736173067274464632e-01 -4.504360317748548614e-02
3.138734677718685862e-01 -8.922819988553061243e-01 -1.280847897509944378e-01
-8.018612566046831036e-01 2.564142444914139229e-01 -2.566230855395757599e-02
-5.608306724465674797e-01 -8.105597610412191845e-01 -1.500029338223513586e-01
-1.303038603866810419e-01 -9.198144180491558686e-01 -1.661907966851656759e-01
-7.717333897579646829e-01 4.950827976756377868e-01 -8.557255302728529467e-02
1.963510488769451279e-01 -9.285679501825886417e-01 -8.894987751338160340e-04
-8.546855964108629466e-02 -9.366587513994300007e-01 -2.180526883387682441e-02
6.103475564892945487e-03 9.567416775149271135e-01 4.940716066862140682e-02
8.333397488335226866e-01 -2.186860299027277854e-01 -4.388170158778466551e-04
-9.305629984821829348e-01 -3.072635260762477949e-01 -5.676970264876623345e-02
-7.567518244440445407e-01 -6.280818614064163086e-01 -7.046322029798349207e-02
-7.624953887812599973e-01 -5.248711342619374332e-01 -3.552682547160392751e-02
-7.175772068419035143e-01 -6.537041871971770446e-01 -5.601718856613209507e-02
-8.343559289057453920e-01 -3.877981780325197025e-01 -1.707985552777320226e-01
-2.743808311456846227e-01 8.784375424206061211e-01 -1.137747590585992154e-02
-8.007439358202009805e-01 -2.939875509616960980e-01 -1.193593038305828524e-01
5.243609206797169575e-01 6.336332023297888139e-01 9.585999638848287374e-02
5.556501783315282994e-01 -7.152123841142580263e-01 -9.272761058874307016e-02
-9.824268320059618143e-01 6.843024899929317506e-02 -5.648145411972167740e-02
8.740824520421828225e-01 -2.981770001055386587e-01 1.077953556930215245e-01
-9.801160167979563465e-01 -4.181217147168926618e-02 -1.024386768466054448e-01
-2.739260687367724434e-01 9.261136662090488914e-01 6.740253539148424733e-02
-1.008223055487810355e-01 8.219372628463165187e-01 4.330024079792299530e-02
6.334231039282707254e-01 -7.655783017547904690e-01 -5.172509763090625545e-02
-5.302310281620566945e-01 -6.721649652273483655e-01 -9.928393996278506162e-02
-6.704810521908728393e-01 5.288822891725266651e-01 -5.369198619001176731e-02
-8.258869692887989000e-01 1.844752660645153086e-01 -2.461491294258132470e-02
-7.672050325596181386e-01 -3.734914299322812381e-01 -7.947752653130195355e-02
-7.185817773272465750e-03 8.249950427028942546e-01 5.688501653273869002e-02
-2.099841990490267651e-01 8.388174326661770319e-01 1.248558862738885777e-01
8.405523710378518532e-01 4.979291225089932382e-02 9.456532153270877372e-02
6.376727688906440594e-01 -7.568039152008476655e-01 -5.821581308873943761e-02
-8.207585507444756789e-01 -3.939921450922829194e-01 -1.705968056677252820e-01
-2.133521087376660796e-01 -9.661489360897236311e-01 -1.383628132414141398e-01
5.776974166280257617e-01 6.942384316917735720e-01 1.734537836336419447e-01
-8.078476926927498358e-02 -9.987386782737576185e-01 -9.391964032457496281e-02
5.826471103598284129e-01 -7.913403004032986132e-01 1.908645437738140660e-02
4.009478771841682443e-01 -8.431289507851426057e-01 -1.192626548783378565e-01
2.391641291361575050e-01 -9.549205568651176756e-01 -1.146169862813078560e-01
6.096068287973755995e-01 -6.850922503198990654e-01 -8.872379454936207832e-02
-9.333826884388186640e-01 2.894007772566253300e-01 -6.864407448621963337e-02
8.839210983951399925e-01 1.973469107267817324e-01 1.134282631101451479e-02
8.422487064938273260e-01 4.712629684369903371e-01 7.216444913536654293e-02
-5.003549305866369368e-01 7.710804076420708641e-01 -3.898520658705860453e-02
8.668986973419702258e-01 2.498512869728822423e-03 1.230736738631675597e-01
8.956008783281388386e-01 -3.281288364959477066e-01 9.663757844901312011e-02
-8.583596465204232917e-01 1.919495813992974087e-01 -1.139833141700792585e-01
7.648462847713194401e-01 -4.879118673363325720e-01 8.107742279773307026e-02
-2.639077227126550018e-01 -8.780771766574255732e-01 -3.284290004985389311e-02
4.605185012471983974e-01 -8.762329649498925566e-01 -8.376660222099377440e-02
6.647291487534550125e-01 -5.816178094309489843e-01 5.177605103921784774e-02
-1.908612458032716841e-01 -8.868931463053169040e-01 -1.661220753578924458e-01
9.050023463722050021e-01 3.489666160027559139e-01 7.169030674277090953e-02
4.245163739160974226e-01 7.074509215902879955e-01 7.784534291140653151e-02
1.392950972782110441e-01 -8.814204238066808417e-01 -1.524017427864673979e-02
-7.947516976401955979e-01 2.764638426788010306e-01 -2.318564789457499761e-02
-1.309270029586353801e-01 9.067190676514417236e-01 1.088638108821777823e-03
-8.521230702836339876e-01 -2.137657378079081405e-01 -3.031426502727276734e-02
-4.164874983055164570e-01 7.162772657643470264e-01 4.162999244490966227e-02
8.486393426463308964e-01 2.124949744299861887e-01 1.486357649699977523e-01
8.781424655764038523e-01 -8.482218138321936940e-02 1.227464073638691588e-01
1.224330662736387680e-02 9.627798087214449740e-01 8.793677560681596728e-02
-8.646970393171302671e-01 1.619389954410745680e-01 -1.171299622217209929e-01
9.778822927912474983e-01 3.097886740447081816e-02 5.074500935216908620e-02
-2.003569193002157078e-01 9.013238449246510076e-01 1.278162223142184639e-01
1.178966828703443270e-01 8.612237053671176756e-01 1.546943383063092703e-01
2.855298960977750711e-01 -9.239330800632713503e-01 -1.174667569795420882e-05
1.060602870032431033e-01 -9.871823025578537747e-01 -1.145387214327667214e-01
-8.751219454985842416e-01 -5.835828401172011431e-02 -1.354262201896424545e-01
-6.865161025630405200e-01 5.087323109552196465e-01 4.171110189762272658e-02
-5.226534374005867845e-01 7.803293999622665789e-01 8.771539102517784958e-02
-8.720004708948836392e-01 -2.056138996210468695e-01 -1.555898971189774715e-01
-8.502306487513647260e-02 9.189184513010617561e-01 7.821222024906128445e-03
-6.162266648739930242e-01 -6.441156781634712614e-01 -4.807126762042534390e-02
-7.940003151614717369e-01 4.311524836821855056e-01 -9.382450022768414055e-02
-4.332387402951315969e-01 -8.298148427611222733e-01 -3.822204081291710048e-02
-5.481504064668336618e-01 -7.398840430071038643e-01 -1.814531940648586583e-01
-4.852603943986333879e-01 -7.798943024044319161e-01 -1.804001682355340641e-01
8.457876574677692938e-01 -8.130979502875264331e-02 2.675079188015368550e-02
8.995533678669958011e-01 -1.960411142329322731e-01 1.188749875478051637e-01
5.317201829473024999e-01 7.441385166174738774e-01 3.560064527564837239e-02
2.021224781994026831e-01 -9.219088722623733911e-01 8.702940002145772430e-04
-9.073762813514075765e-01 -1.330162223360247253e-01 -1.101202883603771658e-02
8.252199023749856588e-02 8.230027294066722954e-01 1.143787699837675725e-01
-6.447553210248444522e-01 6.227354722084504912e-01 -6.485755650158364638e-02
3.412025706462665231e-01 7.465780650534826757e-01 9.098413076506425834e-02
8.695321642084914426e-01 3.840221787162655942e-01 1.433346724869274946e-01
8.847647760704951958e-01 1.141052134096511295e-01 6.884756979040267816e-03
-5.456659295797804399e-01 -7.684880039604468083e-01 -1.797515519973719167e-01
8.738863913797314531e-01 -3.907884748945821829e-01 8.846130324992602934e-02
-2.270464105699404045e-01 -8.518563664432334814e-01 -1.532346741830629411e-01
-4.980628197978937410e-01 -8.042911506330394644e-01 -4.159964245282025269e-02
-5.927884723063292505e-01 -7.106853429944081091e-01 -3.995384534001788363e-02
8.725526249488951835e-01 -3.249831323369791192e-01 1.041798676049351530e-01
-6.560246104583785653e-01 -5.676977952982752429e-01 -1.520880226776936406e-01
-7.651131141737905761e-01 -5.768099241980327863e-01 -1.693770263980699242e-01
9.502440210031401491e-02 9.433938391154823577e-01 4.211567665798400528e-02
6.583417074356707754e-01 -6.752189542268076661e-01 5.637236584632100006e-02
9.385497042354070674e-01 -1.996670330673141480e-01 1.043176067261789852e-01
-2.080015815237852561e-01 8.663920472019741581e-01 -9.820851739706237468e-03
-9.584043115611594610e-01 -1.087851137046438738e-01 -2.718418802338062185e-02
-5.990806176145095918e-01 7.488621561134942706e-01 -2.231572502706989994e-02
8.913273191138966212e-01 -3.891814181346456292e-01 7.676250628677824817e-02
-7.139192097831119632e-01 6.277174229088532398e-01 -5.303007912519070582e-02
-9.121526362947883770e-01 -3.026929971773435479e-01 -3.625102872862174391e-02
6.218759966754620061e-01 -7.631494326058476663e-01 -6.773920621759361993e-02
-1.452912536461205828e-01 -8.735602098838870511e-01 -4.169565432558283713e-02
-8.109863474597330812e-01 -4.242795446786366553e-01 -3.120608647392738785e-02
1.099104795568126985e-01 9.030583938815494038e-01 1.771997780910921846e-02
8.985213387010565489e-02 -9.390146040849197684e-01 -9.017777507275791943e-03
-7.256015675391552788e-01 -4.891234563929532375e-01 -1.587075002196758622e-01
-7.562113093949623943e-01 4.282762737508362116e-01 3.921310474705200916e-02
-5.805419999449482615e-01 7.779192540895619734e-01 9.694269474328942593e-03
-6.204860604381497169e-02 8.986451855977383163e-01 1.449506167933754253e-01
8.783260893546364079e-01 -1.857046427091792531e-02 1.747613460467927534e-03
-1.033484123599882759e-01 -9.515958427022196409e-01 -1.592801267041512592e-01
-2.198242866449964805e-01 -9.459027917723699108e-01 -4.178668641372598053e-02
-2.728305582353155456e-01 -8.289916196616714528e-01 -6.116283415751790770e-02
8.829758645904124681e-02 -9.124568313188070601e-01 -9.623724212373004766e-03
6.309731856085256663e-01 6.777193898363368385e-01 1.662827465695496110e-01
-5.780587528712727297e-01 -7.839044325490580611e-01 -1.633457331666289813e-01
-2.388241065133437507e-02 9.571241645106348672e-01 4.816669612579846382e-02
-5.254973915568774689e-01 -7.289397333074217888e-01 -1.758723086910733147e-01
-6.474693254181244084e-01 5.980418683269526081e-01 -6.385058783433589236e-02
5.620302113636128638e-01 7.211996380554722696e-01 3.566718674751347823e-02
1.451246859140416512e-01 -9.816932668256970196e-01 -1.123141393360453794e-01
-8.034251604944705472e-01 -2.736687333742668926e-01 -9.908672048190332593e-02
-2.221542407007362496e-01 7.943772163126938679e-01 6.488334295154171705e-02
9.431115054242096285e-01 7.891084098596506946e-02 1.286931909130692962e-02
-3.373950573016576970e-01 8.526342569363810631e-01 -1.950036621891820809e-02
5.992344074464474035e-01 6.801550821486108678e-01 1.729428222767032952e-01
-3.931983539893378343e-01 7.838571748595444255e-01 -2.740543355271065143e-02
-9.258748705081593089e-01 2.170453923291360276e-01 -1.094536861858191878e-01
-3.129244368883361826e-02 -8.824061305419070855e-01 -1.406515419953966728e-01
5.318639846377911651e-01 8.023873270218779830e-01 9.603587896476405150e-02
7.660591254886500723e-02 8.177778267687021430e-01 7.718523543894392769e-02
-9.763033771958242735e-01 1.219860633686889462e-01 -6.938501363399102173e-02
-7.647749289028260566e-01 5.409896272355457780e-01 -7.449926314124373505e-02
2.712686086365109772e-01 -8.257937962027156464e-01 -2.668158521263698513e-02
5.601840012184798878e-01 -6.656657465813642371e-01 1.851350354416360366e-02
6.841044594868203044e-01 6.109039276196154278e-01 3.500553142549866353e-02
-8.826243792268554378e-01 4.201310609758819314e-01 -1.038107966211123181e-02
-7.635026084514495714e-01 5.641090850132778334e-01 -6.432448690521255785e-02
4.586990172046656045e-01 -7.860267513779014559e-01 -1.076714874879227124e-01
5.064059938698947105e-01 -6.939354321935565784e-01 -2.286928332907907369e-02
9.103995787594535427e-01 1.436219574426342294e-01 1.477324454666354148e-01
-7.330498179008535509e-01 -5.902280473443587416e-01 -3.970849842451699280e-02
4.442835706059624079e-01 7.881161109211876070e-01 1.711257709528556659e-01
3.191117387348217371e-01 8.854781186968546658e-01 1.470188285526956573e-01
8.732692743612587849e-01 4.100514506887412147e-01 6.486517712989872675e-02
-8.582583793433792296e-01 -4.443170986419214818e-01 -1.564925219539294587e-01
-9.845650580908901772e-03 -9.487640139838352527e-01 -1.559062312325109056e-01
2.036424741644440317e-01 7.947096019983367343e-01 9.667232075439896599e-02
-3.086318314166054400e-01 -9.454934620175474702e-01 -7.543475623628270732e-02
8.353516827195680561e-01 -1.155657873045039252e-01 5.903400198085422684e-02
5.321681554406354486e-01 7.360934932617720916e-01 1.720620951617776173e-01
-9.705575190496544824e-01 2.927471273702666674e-02 -2.462051094811423813e-02
4.903721525375382417e-01 7.004060914948175842e-01 4.248674239122746804e-02
9.410408557082524661e-01 -2.589761516959622201e-01 8.255608277634843284e-02
9.126448989574178494e-01 -3.483856402911014172e-01 7.505233231890763579e-02
4.678924369142169887e-02 -1.000000000000000000e+00 -9.741145507529495873e-02
-5.325497424393580426e-01 7.066269962343634248e-01 9.207727921291640472e-02
-2.813739739920098626e-02 9.110186410123363165e-01 8.298819993681448570e-03
-7.908712986701077474e-01 2.843523932668903242e-01 -2.654870613939004642e-02
-3.621430091937863360e-01 7.669467996380704422e-01 -7.923506973582709542e-03
-8.401936095561782780e-01 2.632015321831034371e-01 2.188632965592828342e-02
1.108957933521797917e-01 8.159422823747609632e-01 1.067815850503091163e-01
-6.690440246309484751e-01 5.112761012883947354e-01 2.582402710736124082e-02
7.047803403199429662e-01 4.554401430626218161e-01 1.394104515409243794e-01
4.192563729023506824e-01 -9.102514233111235198e-01 -4.586953090344422779e-02
-8.891217042524411918e-01 9.154803982594436618e-02 6.638927277122274109e-03
-4.983861484489767180e-01 7.033251241926277153e-01 -3.425178715461589529e-02
2.033228722576506386e-01 -8.380515545273965472e-01 -8.118971958344042839e-02
9.049403550394931051e-01 4.644315046580448775e-02 -4.454041536539912164e-04
-7.671680764475085068e-01 6.009750945570334624e-01 1.060223390256261229e-02
-8.050505748377555504e-01 2.506888633470159555e-01 -2.189548859834350089e-02
7.526536214086702870e-02 8.211533680302821603e-01 1.072441572357523687e-01
1.346075754531040614e-01 -9.871279901984575389e-01 -4.621467936816240490e-02
7.734533457939970491e-01 3.898147668882390726e-01 1.578818572881439120e-01
3.644384953656188419e-01 7.386913740055448541e-01 1.214523372670568563e-01
-8.320810955196817904e-01 -1.602486709992143599e-01 -9.368193843544382615e-02
7.756594377463275070e-01 -4.228690429243747162e-01 -4.034455578472280479e-02
-7.713925488541096831e-01 5.983749186714173440e-01 -2.570937083910642459e-03
-2.375042243364674371e-02 -9.502838620926943314e-01 -1.564050399533040148e-01
-8.627945204529288148e-01 2.569662808917191898e-01 -1.144041843889814086e-01
7.403289966109029008e-01 -4.352539925056621573e-01 4.538014959596712444e-02
-4.049453454415324893e-01 -8.002606005104303533e-01 -1.720827309721751353e-01
-8.667883705733258060e-01 -1.231710439437000149e-01 -2.420406886481815678e-02
-8.726568283139850557e-01 -1.150139606283409333e-01 -2.022795142542205618e-02
9.328852696915256038e-02 -8.565424945054977979e-01 -6.844812329766174208e-02
-3.969340759601668878e-01 -8.119607605286576213e-01 -4.149815617404085943e-02
5.728442261102586475e-01 -7.585376793900761028e-01 4.119001289902107787e-02
2.550146237640953939e-01 -9.688926889526509045e-01 -7.714195411910333700e-02
-7.561084750664847087e-01 -5.731687776329084105e-01 -1.738950257473525773e-01
-5.101825282182209653e-01 8.255641805541461542e-01 3.147999567404537874e-02
-3.878123919340832337e-01 7.314397637705050137e-01 3.236423791831352648e-02
-5.921413526004984385e-02 9.485277897908079847e-01 1.165549423653126637e-01
7.309618833807400851e-01 4.757020635199962766e-01 3.274379335397227531e-02
-6.833632578678512370e-01 -5.400659572082753268e-01 -6.050136870917223464e-02
-8.047381341511806729e-01 2.636011094531844901e-01 -7.182696618308825887e-02
2.884179293625344642e-01 -9.601969744597094181e-01 -6.766777284659127034e-02
-3.585531402958178626e-01 -7.900813772161813242e-01 -7.097659128295065456e-02
9.189503652145274426e-01 4.757887007608557067e-02 3.323636201049478211e-04
-2.638911969928069978e-01 -8.260019069129727054e-01 -6.970405759411715807e-02
-7.269791259296501384e-02 -8.639337372730293563e-01 -6.149414181360343679e-02
-8.306734538405822210e-01 -1.732034338658819672e-01 -1.007457188537033560e-01
-9.130346362651164949e-01 -4.482484997728976989e-02 -3.553725426133104263e-03
5.626471839133699859e-01 -7.403396625477810522e-01 -9.799936031463186981e-02
8.581687315759003454e-01 1.122770113320125523e-01 1.908353389483901860e-02
-1.967810022970064021e-01 -9.719360979394737754e-01 -1.340876998742981385e-01
-7.617237706213363380e-01 3.787677254478351019e-01 -6.747856263708575109e-02
-7.330812240357094112e-01 4.859407447834272475e-01 -7.921661216553689544e-02
9.150208050528285675e-01 -1.545669258113189504e-01 1.221502500463936269e-01
3.316477379463485531e-01 -8.734424407554824965e-01 -1.271385668416524783e-01
-8.260559922113869247e-01 -2.167974036771800617e-01 -1.190847577780240057e-01
-1.004611662847243805e-02 9.544653933628488574e-01 1.129161880819793268e-01
8.460864200200397534e-01 -7.872555351738040608e-02 2.675425466431775520e-02
6.848525236833091778e-01 -5.129122919038505701e-01 -8.680291849875084939e-03
6.371989073414389138e-01 5.543068508837238895e-01 5.235091616389540847e-02
-9.343449432939999744e-01 2.735602411984450200e-01 -7.864297550570363560e-02
2.412132964129369284e-01 -9.121896688280159982e-01 -1.358393703001712360e-01
2.865053910240462631e-01 8.535857400273937357e-01 2.563794353372778403e-02
7.143253173882879725e-02 8.470536041842532393e-01 2.694223526569746938e-02
1.019297805059642681e-01 -8.703328317120547775e-01 -3.337495101761830257e-02
-8.107411066943248645e-01 -4.456214248907118258e-01 -1.736883466898448969e-01
6.661496597847271772e-01 6.780151549383826026e-01 1.458178596449538067e-01
4.621079226666588990e-01 -8.869875779881152278e-01 -2.839546864341157065e-02
4.668424746254178359e-01 8.405654200556741396e-01 8.965239481737781457e-02
9.079882593004883207e-01 1.300212860821559346e-01 1.476328866160404873e-01
-4.395554728858048765e-01 7.588285246957597874e-01 -3.297542213306247499e-02
-7.557481151634406480e-01 3.741589049831546276e-01 1.360467232831005964e-03
-3.036049257178921601e-01 7.811202387568287886e-01 9.624078754621219131e-03
9.124575945610259309e-01 -1.015006052747217530e-01 1.283124833306310275e-01
5.964664317473901134e-01 -6.567671837874767826e-01 4.093978821512486710e-02
8.663354881438725119e-01 3.346760549536016704e-02 1.266413230047013228e-01
-7.338685261590803810e-01 -6.453048274179205013e-01 -6.238063765456530740e-02
2.634959931880950235e-01 7.823972042273142913e-01 6.894976855863317600e-02
4.386960997399950157e-01 8.542101948305702575e-01 8.369955828532987807e-02
-1.875427591065359223e-01 -9.430449063484982464e-01 -3.435412654468897320e-02
9.037049456968980765e-01 2.673722752308670958e-01 2.707601310432342090e-02
-2.267023118147833693e-01 -9.283187741804411752e-01 -1.665507504488678292e-01
-8.069222427073167170e-01 -5.338828676134070861e-01 -5.103171056813964740e-02
9.165221565668049131e-01 -2.219128966046366169e-01 1.116769222498672914e-01
-5.773772163356576392e-01 -6.831826037750443614e-01 -4.719016668379961282e-02
6.065190325938090155e-01 -7.753451709909406908e-01 1.981549194660775851e-02
8.920615359925094801e-01 -1.856708447392147465e-01 -2.247213518331497850e-02
9.088149106222870310e-02 -8.991857764429931343e-01 -1.346621803995957933e-02
-3.816330994946704469e-01 -8.482920360210687294e-01 -3.630629773573499502e-02
2.034703364040207907e-01 8.712037300417725394e-01 1.629314728898343390e-01
2.254931366870026876e-01 -9.693279838994124376e-01 -3.610336271535971586e-02
-5.706189552520792851e-01 6.140320376224621679e-01 4.168683510356391286e-02
-4.475032309447135037e-01 -8.578008336969621395e-01 -1.675611491065503444e-01
-5.329827945753611296e-01 -8.254601902186388118e-01 -6.609040657926701368e-02
-8.505204076344897723e-01 2.735820314741891912e-01 2.739142079714286873e-02
5.930756115019224506e-01 -7.991297415702768303e-01 -5.949910995239595041e-04
3.881044705548579721e-01 -8.895284133525777071e-01 8.261486393953370103e-03
8.214141185289111080e-01 1.526506527432056615e-01 7.230722922154804444e-02
-7.355283089973098098e-01 -4.279184500611088460e-01 -1.044113378791911156e-01
-8.668197708826541614e-01 1.460311123917734377e-01 -1.183265347915188614e-01
7.737309735137647415e-01 5.742091179699483350e-01 1.231310152644132239e-01
1.152693341796828114e-01 9.097948798201047627e-01 2.037642855630534058e-02
-5.517140847070436394e-01 -6.644968829638706609e-01 -7.669373488265535110e-02
-3.454647860939071280e-01 9.014111511691395018e-01 6.780175072178463991e-02
7.974358681863712439e-01 -3.549181677326442297e-01 8.008929935804519340e-02
8.549812780960224234e-01 1.772541815047921632e-01 1.448075201525597933e-01
1.266291664453429722e-01 -9.777699750907253851e-01 -1.226331511249258294e-01
-9.650108003262849454e-01 -1.595629808536034588e-01 -1.203654063490777748e-01
5.926758981696483852e-01 6.914560797690041394e-01 1.719870712553667469e-01
4.909421047063394217e-01 -7.620171838212236315e-01 3.240135244865446906e-02
7.721217201232450922e-01 5.625073647775675756e-01 6.085987365694556922e-02
3.966750295648209246e-01 -9.076132437064915459e-01 -1.175191431145886437e-02
-2.114144981583827021e-01 -9.437588244887178401e-01 -3.875294531449301888e-02
7.936978536078258539e-01 -5.196343827268330440e-01 -5.667562183322980007e-02
3.893899556202541357e-01 8.475834528650538768e-01 4.196728187537020899e-02
-8.090140223766257854e-01 -4.149712771748100826e-01 -3.161196807695984545e-02
6.736952748091603604e-01 5.263167696599539980e-01 4.329987896954897580e-02
-6.512746494545998965e-01 -5.751522249771268136e-01 -6.486556412697438989e-02
5.291196118262703196e-01 7.287096103847249262e-01 1.734226459547470733e-01
8.344427312547501030e-01 8.557830124047553777e-02 9.030038578071428179e-02
-9.561787902377613113e-01 -2.103781530023609847e-01 -1.235706696133178351e-01
-6.943885042697153231e-01 5.096222184580091463e-01 -6.370407048372958569e-02
6.094427364525573793e-02 8.468503011254694401e-01 1.401400829494264533e-01
-8.015837293808673880e-02 -9.424908931099645892e-01 -1.613445568344679670e-01
7.128727584033746068e-01 5.933286463594823479e-01 3.853071599716838963e-02
-3.566830890752732686e-02 -9.729525218926458052e-01 -3.165798710728759402e-02
-8.746434613895666121e-01 -1.098698893771805352e-01 -1.894567750380777085e-02
-8.367763717581759852e-01 -1.490929986431613341e-01 -1.055990528797812328e-01
8.388860904329894508e-01 -4.276559036329993235e-01 -4.669397994755940945e-02
5.604049326385153185e-01 -7.228501268815246128e-01 4.423709430681189991e-02
-2.979407233875189069e-03 -8.938929329945434210e-01 -1.467918768701072518e-01
7.640049406668889542e-01 -5.536008952849019726e-01 -6.372500237473255336e-02
-8.995956693356148559e-01 7.242131257755474172e-02 6.556542602130530605e-03
7.961853923134247779e-01 5.494536078479674845e-01 9.213425192979417255e-02
-8.541703683212258369e-01 2.960291107106749475e-01 3.152013711207522079e-02
-3.450486134435299529e-02 -9.484065695306704846e-01 -1.575658777843444713e-01
-6.999260962099216332e-01 -5.232706587206105153e-01 -5.651332129480452632e-02
8.879484554821280851e-01 2.111094715366095276e-01 1.263954374507589989e-02
6.165960933448728643e-01 -6.082305372961152035e-01 2.429427472988565304e-02
6.661458737470506986e-01 -6.169952076509885863e-01 -7.649290399787853079e-02
4.566201958582356557e-01 7.517501506093029473e-01 3.214438192074858813e-02
-6.304944900885267600e-01 6.148875438950025529e-01 7.430336159268162433e-02
4.982781890268926372e-01 6.667009639187833070e-01 6.557240879522410748e-02
-9.736848862477137656e-01 -1.280997662795862191e-01 -1.094553843440574797e-01
2.185914327612978325e-01 -8.422163126392258059e-01 -1.009267467898553039e-01
-5.328775520559531076e-01 7.344508015345764251e-01 -4.663441599765431184e-02
7.613256954852930525e-01 -5.833492442108745291e-01 -6.063701090717108638e-02
-2.102425878144669191e-01 -8.498967981947427308e-01 -5.513450949713893934e-02
-3.005786633126809049e-01 -8.381635553603259403e-01 -4.533011518954301045e-02
-8.853882666165185933e-01 -2.306187892476281309e-01 -1.606538926647026466e-01
-9.010401523594857576e-01 -3.752779853866715087e-01 -1.416855437862422351e-01
-8.383758731868321545e-01 1.687649662333089995e-01 -1.078116582411086689e-02
-3.502731799539016144e-01 -8.049573089676516080e-01 -5.739259917455641347e-02
9.040756132852817428e-01 4.598259356033139456e-02 -4.328540984885105190e-04
-3.055191302018404054e-01 8.505956094859622452e-01 -1.909363487077850308e-02
-8.630766898388346764e-01 -3.905368453198733436e-02 -1.227870190084109775e-01
-1.465648826795364588e-02 -9.965432715645827777e-01 -1.151938838130287523e-01
-8.373495884723325400e-01 -1.248875493079703997e-01 -7.600373395850801295e-02
4.260215938687512693e-01 7.491184123005830697e-01 1.658360205579088031e-01
-9.113515296882045424e-01 2.124096440938671726e-01 1.728373892930539987e-02
-8.089512435520219702e-01 -2.859750768936856757e-01 -1.299257952794353188e-01
-6.436139400622298279e-01 5.718574224266400607e-01 5.835333385290800146e-02
-9.329105992401363068e-01 -2.383024063726823377e-02 -3.851370340964822142e-03
-9.247476350151399016e-01 1.155543994218291657e-03 -1.411510375073025403e-01
9.568758922128437483e-01 8.127539035920258725e-02 1.215655622363787242e-01
-9.207968368243518720e-01 -1.942095888918117796e-01 -1.538189751061670718e-01
-2.356825739748134030e-01 -8.966836435342118161e-01 -3.019157812094409518e-02
-9.353860628493914087e-01 -3.146712406086818459e-01 -7.206757736393681890e-02
7.781684095318641692e-01 5.277690386039919357e-01 4.332696921598820639e-02
-4.384404725062457375e-01 -7.553888687135079660e-01 -6.377234344646576236e-02
4.526059936849712861e-01 8.468596136050320355e-01 1.183909837847545721e-01
-1.896510061549851467e-01 -8.579394116117790015e-01 -5.058536051373354464e-02
-7.187864727112917018e-01 4.828210437724684834e-01 -7.108308688422830535e-02
8.628161112316639070e-01 -4.437655588573474752e-01 -3.098064396949028534e-02
-2.969753555432248504e-01 -8.940780179977528830e-01 -3.397432657378680193e-02
8.384541451666231993e-01 3.235119194913638196e-01 1.983589536239204962e-02
2.308462616353484931e-01 8.105431961271741814e-01 4.224482208122285615e-02
-3.267456752591990643e-01 7.900118492264306402e-01 -9.761369608091334873e-03
-8.316365799955789395e-01 -1.623258157780438915e-01 -7.765799250062138670e-02
-8.080405306371308827e-01 2.352857139121883046e-01 -5.744553491533307271e-02
1.546719941527140152e-01 9.432303426320859385e-01 5.882742016277094088e-02
-8.051463760374077960e-01 3.048471502596383775e-01 1.482796786591420932e-02
9.816549412060556756e-01 -4.396547674239813241e-02 6.563731435655306701e-02
-1.241032577570142514e-01 8.609985358043265036e-01 1.357124293722334341e-01
-7.044485569395967373e-01 6.684848914384818874e-01 -1.720747565849808924e-02
5.376285884773812640e-01 -8.307035852115230989e-01 -7.394078163548011007e-02
-9.069504141305322342e-01 -1.471879659080328751e-01 -1.543714089411489521e-01
-8.356768490924670889e-01 3.576664461813952034e-01 -1.036587581218533644e-01
-9.285044162504842991e-01 8.927048888996708120e-02 -1.310654759048542617e-01
5.331258448891917912e-01 -8.461858691090042850e-01 -2.294670190280050093e-02
-8.253394407761394103e-01 -1.919091331943900136e-01 -8.701168095186556650e-02
-1.968709846486995374e-01 -9.602732702889631433e-01 -1.489422752669021244e-01
-8.019444815396740978e-02 -8.899255437281051728e-01 -3.189319398723796523e-02
7.551111919084939617e-01 3.469783694186019951e-01 7.833477620702947175e-02
2.016600608307031472e-01 -9.598957723712631118e-01 -1.854498689569458736e-02
9.219433220894563963e-01 2.095485255884358688e-01 1.409573953470274199e-01
3.066914272500254057e-01 8.604041816990717351e-01 2.932701017153073117e-02
8.477540963396801299e-01 2.647226665681050584e-01 1.792403800629607802e-02
