2.962282425585960333e-02 -1.863427065207086120e-01 -4.973582021964728650e-01
-1.915474036489719922e-01 2.453276297116284976e-01 -3.087684766500871647e-01
2.119843379344452938e-01 4.948463897357510133e-01 -1.718984037295490375e-01
4.979716047621939867e-01 1.661942504410302557e-01 7.291353648040829194e-01
-4.500721796856883006e-01 2.494197519829379484e-01 -7.875263017046997271e-01
-7.136345173388551621e-02 -2.488113036860216676e-01 7.373752538288296243e-01
2.585779564680966702e-01 3.864191554954004015e-01 8.629655800597610948e-01
3.277733134728202380e-01 -6.438669407831719704e-01 1.731089257874248721e-01
-2.058238189265803875e-01 4.723398707336633473e-01 -7.261470080293822016e-02
2.796449446534581273e-01 8.319895154209124843e-01 -7.490053621780139170e-02
4.081317960533081268e-01 -1.239718585463240735e-01 8.712438787523987260e-01
-9.019046097725511024e-02 3.143126630273707645e-01 -2.468651565968383033e-01
2.058092175822950065e-01 4.454677213376462830e-01 -2.996000550942787451e-03
-3.837822240965493847e-01 -2.448251513577793526e-01 -3.727696498699386018e-01
1.178086578168911422e-02 -2.583114030073351275e-01 -4.200270017049534954e-01
7.318652252121746193e-02 3.295073201577393696e-01 -3.502398097759040763e-01
-1.439512583243029442e-01 3.245802432210223576e-01 -9.025628144425252852e-01
4.855238331697331322e-01 -2.553511802897120431e-01 6.021790584789662448e-01
4.855452627788777731e-01 4.270159712755600134e-01 5.826211416650771691e-01
-2.813695429582975804e-01 4.471486946831627063e-01 -8.376456326829881949e-01
2.035022437494851399e-01 -2.674772896003155820e-01 3.001207670024291230e-01
-3.149559202253047197e-01 -5.331748067863090884e-02 -3.918145924744679820e-01
-5.819559387543243346e-03 -1.070032432257383981e-01 4.602839727156378125e-01
2.238386632197996717e-01 -7.696418620253731024e-02 9.492687818796260446e-01
4.616707580217477291e-01 3.937287387321946608e-01 4.052346622288285904e-01
7.677737063780312732e-02 3.166714619021014365e-01 -7.291828860598192907e-01
4.259940917397420090e-01 -4.566412482316957178e-01 6.825471118275893145e-01
-8.368123722989784241e-02 -2.776771989784818095e-01 4.680253796816856160e-01
-4.781848344907282944e-01 -5.124763431250424217e-01 -5.069324747751573490e-01
-1.593053308250257649e-01 3.206000942043177315e-01 -2.430088452340962990e-01
-3.491954503168739343e-01 4.784882903695404921e-01 -2.719463324713961017e-01
-3.475499409963607733e-01 -7.166545494599955157e-01 -1.660951471581522190e-02
9.251247921899745374e-02 3.917758520716960735e-01 6.764577733738050269e-02
-8.722291639942186814e-02 4.047163229857858591e-01 3.454684587976873944e-01
-9.853980365046641210e-02 8.746320047592376357e-01 -4.419313313531891829e-01
7.110092070847287560e-02 5.431301881091363942e-02 -6.712625715360980294e-01
-2.674635548545203911e-02 -9.879410051855572750e-01 1.496123964012520957e-01
9.483656505686170746e-02 -4.334382327628534815e-01 -5.238744775922726804e-01
-8.754767855622237749e-02 8.040184705837148671e-02 -4.025173946303446937e-01
-4.320612177068329784e-01 -6.028082883389003152e-04 -4.700496409603175940e-01
-1.633579460078877776e-01 8.578590564334863666e-01 1.356953520513757838e-01
2.864926304481115737e-01 -6.789729622302217993e-02 3.785906235328845848e-01
4.469506652962795257e-01 6.035763352169983831e-01 4.206507361242535770e-01
-2.653063447364902294e-01 -4.127985134909045728e-01 -1.632030738604101638e-01
-4.753100787208064393e-02 -4.901185441533918441e-01 7.327791216980132916e-01
5.067126946766249418e-01 2.498242337312021888e-01 5.927620477412779421e-01
-1.659532110559841234e-01 -3.635215837798291272e-01 -1.877842506116423893e-01
2.473537673668714243e-01 1.268116250816006541e-01 9.390314165727745577e-01
-4.595604814594378418e-01 -1.412925543948418405e-01 -4.825273571606437106e-01
1.419768288714060196e-02 -3.093136226243451969e-01 2.960528125483867234e-01
2.281876077418278637e-01 7.185612893773311027e-01 -3.193424537417076103e-01
-2.636213286792411445e-02 -3.900990731798346656e-01 1.808462148063303965e-01
-4.260954503443928343e-01 5.197593442715836565e-01 -4.877766985842274527e-01
1.381896046750661355e-01 9.070943746034092481e-01 -2.401882547221753650e-01
-7.718289450735853208e-02 7.936547547535635072e-01 -5.711327927301540486e-01
2.355750893354890130e-01 3.028560136009885717e-01 2.408976147305216531e-01
-1.492820061500217677e-01 4.615559531322450670e-01 1.818514287589546169e-03
-4.257608842765987604e-03 5.716495125702508728e-01 -7.356361239914656069e-01
2.065153609710732308e-01 -8.752561559688928350e-01 3.897827149811707304e-01
4.517826530605504320e-01 -2.590292775425376282e-01 7.750463927052738677e-01
-2.020426055528430909e-01 -5.841500714680133433e-01 -7.760874614275895533e-01
8.152703364969341934e-03 3.812499732456961499e-01 -8.077421107415720947e-01
4.444042253313517099e-01 6.117022944454275635e-01 4.198133114281743516e-01
-1.022594889171886123e-01 -2.772705333844004416e-01 6.274650627520127477e-01
3.464272577096451367e-02 -7.083891592508283486e-01 -5.564131272542844897e-01
1.929980652791003781e-01 4.651155380868018940e-01 -1.132912276966650256e-01
4.237800359698546543e-02 8.390906786697608366e-01 4.487341968054466279e-01
-2.943276835284484028e-01 1.009553536780695288e-01 -3.830886407609152000e-01
-3.017602866570193165e-01 -5.363484557464611724e-01 -3.255920985413336688e-02
-2.402684636491427828e-01 -3.195219547373216451e-01 -9.077598130169665103e-01
-2.796547169695292601e-01 -4.306179612262667766e-01 -8.567588562646499817e-01
2.648038457075351307e-02 6.502009963450174901e-01 6.415543508473238177e-01
2.900099590633968827e-01 -7.984215191949041168e-01 1.509201793236723266e-01
2.488245525388424750e-01 -6.035340744414532388e-01 7.472070595098971868e-01
-1.088399525821808905e-01 4.207729761432922322e-01 -5.541624634231672591e-02
-3.303542460191721264e-01 6.258852227541309432e-01 -6.527363495999709553e-01
2.505424152058050025e-01 -8.038723770599242036e-01 3.677585727137002661e-03
-2.254699174771383485e-01 -7.840915277161070174e-01 2.909527485288499471e-01
-1.516743810608265353e-01 -4.410182939011618175e-01 4.836968272520993373e-01
-8.045972468103897157e-02 3.650895667609200812e-01 6.037632569591105947e-01
-2.326118063617121923e-01 7.445285803619382525e-01 8.719653197997113969e-02
2.716398761675593576e-01 -6.459715381975427162e-01 2.768072661805636575e-02
7.742269069769297518e-02 1.278729289170515981e-01 -6.191530033993362103e-01
1.279344510427054271e-01 3.911383578813739104e-01 -3.573804434396430918e-01
-7.862953014059727297e-02 -2.289085015890076069e-01 -8.926376601909457031e-01
-1.381750181826841284e-01 6.067960232982574365e-01 4.006631864752069894e-01
3.220700558884475595e-01 -6.633612845234622413e-02 9.305132412783113649e-01
2.207232798415415531e-01 -8.436599461500396968e-01 4.510524594707333579e-01
-4.027159786220934068e-01 -7.296831174601028369e-01 -2.541094429078971095e-01
6.148692967451679231e-02 2.069475449714788529e-01 3.556175695123385272e-01
7.532055677962297413e-02 -5.698634136851661314e-01 -5.827241711695293480e-01
2.876408422438198054e-02 3.624547062770616668e-01 -2.172388078063771377e-01
-5.870823384167122433e-02 -2.748486242470959962e-01 4.173398876862089435e-01
-2.639269318650905860e-01 -2.408400772782127996e-01 -9.281128246944813087e-01
3.187907684176375950e-03 9.768502120225345253e-01 3.151842601600896715e-02
4.438762943240269765e-01 2.772682222843192434e-02 4.726307276120579881e-01
-4.354155580718286900e-01 -6.510427862155900858e-01 -3.366704485110230682e-01
1.846029398762420379e-02 -3.274963329132839912e-02 -5.121587738601186546e-01
8.515557502659508449e-02 9.687714061516246034e-01 -9.791954637561546548e-02
-3.146295045757181996e-01 -7.405630383514214543e-01 8.017004188005383281e-02
-2.363010288592304331e-02 3.343779768080831771e-01 3.139732461981509237e-01
7.942673268281139065e-02 -3.325853995794695872e-01 2.402046194398393397e-01
-4.779998236423511071e-01 -4.352175600700471936e-01 -6.575384803104388221e-01
-1.517053969630069998e-01 1.933605881512597546e-01 -3.388738462700245369e-01
1.160289755082981322e-01 -5.360297178611088675e-01 -4.695444241712893874e-01
-1.066612129202820086e-02 1.423486006033621298e-01 -4.316389037783334159e-01
3.705752859481498129e-01 -5.612155392711984936e-01 2.908293135553517983e-01
2.612629017451238433e-01 6.954882257736948459e-01 -2.419686296169059336e-01
1.170448363429037464e-01 -3.724434211220666313e-01 1.869435857594600736e-01
-4.862769453376860618e-01 -3.416685033511333569e-01 -4.886838813366578549e-01
4.117945664522347227e-01 5.398811226915407602e-01 2.350272907308021964e-01
-4.347663062223380281e-01 -3.893730930695036840e-01 -3.639722115181164841e-01
1.929031101921167141e-02 3.841215727192313634e-01 1.351869131129700974e-01
-4.591973141209839682e-01 -2.697576186213190286e-01 -4.485174467865024606e-01
-8.393136716763525962e-02 9.409472859867940020e-01 -2.638960227396705549e-01
-2.204010201788584034e-01 -2.856063334142367460e-01 -2.779704925444611563e-01
-5.324060876370157597e-02 -9.618976950326903197e-02 5.404286266263379490e-01
2.225319946663337767e-01 2.911425159113252559e-02 9.495740042788346491e-01
-6.735671496402524661e-02 1.607209564665124379e-01 6.331185458174938274e-01
4.843605105358658180e-01 3.053638679064554218e-01 4.849824981650343036e-01
-1.464178816652440540e-01 -9.491559717282724851e-01 -2.855841988085845440e-01
3.301395289033755009e-01 -2.768146812283653682e-02 3.938537743881669884e-01
-5.452043506510542703e-02 4.774416650691080677e-01 6.496133495345732811e-01
3.580942307731224683e-01 6.651392484159301954e-02 3.972674668875523230e-01
-8.801909168453092569e-02 4.002518655062220487e-01 3.653712307048090357e-01
-1.561246043016570675e-02 -2.507648572405745124e-01 -3.903563336187781396e-01
8.666480025688839961e-02 2.038769123093836788e-01 -6.782298007934055573e-01
-1.105814773271913687e-01 4.615500064584871498e-01 4.660186254811524154e-01
1.126410442614517865e-01 4.462968666621157099e-01 -6.448991192875145329e-01
-4.963000910226640916e-01 -4.080930998692202660e-01 -5.705901756955233939e-01
-3.137091797617952427e-01 -7.092176969894414817e-01 -6.256593941535878445e-01
-5.747592718420083818e-02 2.713090530530765099e-01 6.979333375563914199e-01
-2.165965525620272558e-01 8.720252693464172200e-01 -3.227702575064456125e-01
-3.339587701905228356e-01 -8.510421984036827814e-01 -2.201100597985731766e-01
9.361558997488014788e-02 -4.436144804861991142e-01 -3.383500374334196814e-01
2.834960510957390545e-01 6.218445131767010858e-01 7.041649799865172810e-01
3.395812837146944263e-01 -7.405681550113483169e-01 3.051501304831539807e-01
-8.618113575602787124e-02 -1.803671710851548760e-01 6.153191902457766371e-01
-2.804071079963386670e-01 8.188865714541541108e-01 -2.856098388895952356e-01
-3.370049764228291722e-02 1.645450564686370964e-01 -4.006221906817536427e-01
-4.608088141517159564e-02 8.448082856324374834e-01 -4.936063490987681046e-01
-1.000986616739212298e-01 6.550163635691614861e-01 4.758560325130280488e-01
-1.504452112619844295e-01 6.918849737100670749e-01 -6.863225481061998590e-01
-1.678399587105898483e-01 -5.682444879547492445e-01 5.024578181926803166e-01
3.608104616231282424e-01 -5.385355088106488219e-01 7.156976856206154203e-01
-2.112189646366272600e-01 6.569102349933361173e-01 1.639154610449809479e-01
1.121217709335047968e-01 9.717013831809258040e-01 1.404879444997860286e-02
3.771740259729770561e-01 5.284343187121969265e-01 1.645154465275373568e-01
-6.414721833155884179e-02 2.300539068914095320e-01 6.778686680540650933e-01
-4.163871134450743972e-01 -6.004041997605947811e-01 -2.368245906253927946e-01
3.571397890713556844e-02 6.080579896974297460e-01 -6.835404072344576365e-01
-1.687312236748148286e-01 -4.702029172829430004e-01 2.392312385521761231e-01
-4.282861382809408785e-02 5.464834527630990646e-01 -7.723063143873715175e-01
-4.438918205952408630e-02 8.289228808706973206e-01 -5.170193568317820176e-01
-2.084294498783521299e-01 8.054449596499506647e-01 1.003622943698300463e-01
2.456066827874595904e-01 -4.991116570361004423e-01 8.213308451240063368e-01
3.994711822332582818e-01 -4.463266135733385265e-01 3.721456248002922296e-01
3.909363353587340661e-01 7.230860469019715353e-01 4.178219844344547851e-01
-7.806781199525662795e-02 6.030213974768452445e-01 5.478717232450087682e-01
7.048777533159085451e-02 7.053426448223177880e-01 6.218290404381112690e-01
2.359381619312852230e-01 -6.184023901640675613e-02 3.708973993560880089e-01
3.175054387670246947e-01 3.024592237507763848e-01 2.776064748219933542e-01
-2.353287255889971175e-01 -1.951931947386463806e-01 -3.361522907223640222e-01
2.583835491930100425e-01 5.218592752887029063e-01 -8.156098962398615482e-02
-3.717645000976739778e-01 3.635707491567006788e-01 -3.531265686574616702e-01
-3.810523803007481725e-01 3.551783411160533421e-01 -3.677591513007117396e-01
9.795399255522965407e-03 2.083686833275852912e-01 8.293534773477841959e-01
-1.142028506102798630e-01 -3.572217662974947472e-01 4.319265156101591008e-01
5.039127778955360126e-01 7.457398440986956478e-02 7.252223980086081045e-01
3.897818338967170421e-02 -4.242699059184958099e-02 -7.895362431518350155e-01
4.100749907689343887e-01 -3.644910972156114592e-01 4.067551289354459643e-01
1.680212249664401747e-01 2.346145655054154844e-01 2.934978376146356593e-01
4.597563390360044910e-01 4.369505020979921189e-02 4.912898911685603665e-01
-2.950602309471717644e-01 7.943334855568923158e-01 -2.250975193282974685e-01
-1.767948082977169877e-01 -4.831739078107608609e-01 3.462501725863602609e-01
-1.996405918531174717e-01 5.655194609662153038e-01 1.145810752345943068e-01
-2.936262647749176002e-01 -4.074702997933526971e-02 -3.872001640369923670e-01
1.939597792874040230e-02 -9.942897377096068245e-01 -9.172279799510135376e-03
-2.644980927793340042e-01 2.247278688354272247e-01 -3.368096837140730493e-01
-9.372932169446814704e-03 5.833722098187421601e-02 -8.679743972801082785e-01
1.872888321051650040e-01 8.896657888640426837e-01 3.665884342335397617e-01
8.645773834822401138e-02 -2.453170893423960996e-01 3.225675106563358763e-01
-1.815171396441604690e-02 7.377917098792868833e-01 5.240150580028322125e-01
1.965774124840003190e-01 9.205857017387027996e-01 -8.303180809212115654e-02
2.760017399880640432e-01 -1.070254552698315757e-02 3.771376945110243017e-01
-3.914889509081213026e-01 -6.655951906536130558e-01 -5.876237379055083698e-01
-3.758912506357309780e-01 6.548964952241393966e-01 -4.728166207478579075e-01
3.359603806330968001e-01 3.745578653030779415e-01 8.432328292491447774e-01
1.638034030300510313e-01 8.072958217860920493e-02 3.663775539321019736e-01
-2.994177127407927075e-01 -5.650860609568234549e-01 1.494225329095308363e-02
9.068688000695249163e-02 2.771429135449097747e-01 -4.800505539046179826e-01
-2.441478523394046696e-01 -4.193685677417288704e-01 -1.375372802171620223e-01
1.277355547649966158e-02 -7.421230624158727807e-01 -5.503262162585881301e-01
-1.808392158416898543e-01 -4.783098614589098574e-01 1.493879934424241496e-01
1.349155096590599727e-02 -8.373751196038237143e-02 -5.014679783184786688e-01
-4.843904357297312835e-02 2.696418703505117365e-01 -3.100623942658093934e-01
-4.156918858634331970e-01 -4.430870363893056330e-01 -3.057035205768605102e-01
1.814683235271157824e-01 3.854912885361177488e-01 1.145348675585537435e-01
4.126800084917228162e-01 -5.649452338931787443e-02 8.754814209136992931e-01
4.905308157266760061e-01 1.117220919274497376e-01 7.617130922775764423e-01
4.643312513501813843e-01 3.995300480588595549e-01 6.922546549427206486e-01
-1.755852224840620882e-02 -3.841378618367508047e-01 -2.068808039035660296e-01
-6.352729506776955137e-02 -3.779735353696414002e-01 2.581725077593702844e-01
-4.159836964556611338e-01 -6.931776504592467303e-01 -2.719139441969342652e-01
-4.238957042490964500e-01 4.696090469150845936e-01 -6.672491774881842419e-01
7.823105754053229222e-02 -3.548521164673451578e-01 -5.992991015324231618e-01
3.102166111648974045e-02 -3.741808974629957096e-01 1.864017521052194204e-01
-4.614120011767082474e-02 -9.593621221251971143e-01 2.507235611617311677e-01
6.401857330679160130e-02 -6.407579312502196256e-01 7.251470528855421538e-01
7.569050103248715911e-02 3.988669117940745190e-01 -1.508357519816768688e-01
3.983595281262243826e-01 -2.274320540080743414e-01 4.194365759793972082e-01
3.025603473558762802e-01 -7.931232595574795319e-01 2.078320452032963173e-01
7.114744970997561105e-03 -1.054230814597681559e-01 4.469686346470931326e-01
2.274482464064180587e-01 5.337970761899567540e-01 -2.310147086769385461e-01
2.805376799759270456e-01 3.890146582253098950e-01 8.572314470285563592e-01
-9.419437482425910280e-02 -1.270826769367364995e-01 -3.942348146539093601e-01
1.011175443989533879e-01 9.332079515659257030e-02 9.173435133555184473e-01
-3.573239762374667006e-01 -7.664422041270085861e-01 -7.974996830540458104e-02
-3.014337397914509942e-01 -3.394370190836287215e-01 -2.620606907691176435e-01
-1.179065956731453063e-01 4.652636391649483949e-01 2.885465560048164901e-01
-5.800144914483328605e-03 3.805001890772879980e-02 4.806236750159298410e-01
3.286177880209941171e-01 5.082206706609114777e-01 9.122246017451697553e-02
1.372092205509218843e-01 -4.754461614158124183e-01 -1.408798782249342380e-02
5.611534594916436219e-02 -9.623736453445161931e-01 -1.354746244946021805e-01
4.801967841858220121e-01 2.081587930907896900e-01 4.946822595183609228e-01
-4.304070714309493062e-01 -1.638554884797473465e-01 -4.418924531119311494e-01
-2.476073493640825948e-02 -3.901998385707290407e-01 1.791409878284664359e-01
7.574655857134712789e-02 6.680188989200359639e-01 6.580117984363548223e-01
4.579775756091850059e-01 -7.163355549452516194e-03 8.270875509649627810e-01
1.111874608023570021e-01 -1.799801554856957642e-01 9.208489227837628466e-01
3.999393737564219120e-01 3.996496147067467031e-01 7.852066146431098126e-01
4.773190650389670942e-01 -3.182150342432935597e-01 6.207585708737825003e-01
1.503672139363444182e-01 -7.438006236475973587e-01 6.430471443022964806e-01
-2.672248250071734832e-01 -1.726739524011759175e-01 -3.499837701686661640e-01
3.341741848830118156e-01 5.124373313038588229e-01 9.661343026206326012e-02
-2.631741331291602148e-01 8.044160449649688793e-01 -4.416309317757259323e-01
6.763750598187262542e-02 8.521179605979925520e-02 -5.999125684595184582e-01
-1.247087008693754523e-01 6.853971036389374660e-01 4.058339269435547458e-01
-1.590834262982552538e-01 6.886944800025519564e-01 3.202675880365218331e-01
-2.478816544940747602e-01 2.268676693673600808e-01 -3.305527554075908814e-01
3.972860162059704270e-01 -3.731306259494331368e-01 3.851445537182575096e-01
4.222682024015714936e-02 -1.812460720124142444e-01 -5.276278915478419540e-01
5.005747979517771729e-01 -1.461981673502603662e-01 6.494814992310629087e-01
3.522168861476910884e-01 -6.572581401419934632e-01 2.481981025114012029e-01
-4.987884549151759828e-01 -9.333521202866690292e-02 -5.667471685062951403e-01
1.254242072418322671e-03 -3.786838910448641626e-01 -2.444495067420048851e-01
8.054838019694984808e-02 -7.564953130541898219e-01 6.285020609429478045e-01
4.680196479789480724e-01 -2.463394969782588539e-01 5.267146380561217311e-01
-4.287318675484735331e-01 5.054405115545426153e-01 -4.818323935280407477e-01
1.226891298047046996e-01 -7.843771789320920229e-01 -3.499296799226858101e-01
2.857230750134851505e-01 -3.676267002733961120e-01 8.738981106265706345e-01
1.938085634839786242e-01 7.273003718785499006e-01 6.239461472963516719e-01
1.910664988860081848e-01 -6.296470643507148246e-01 -2.053731429297272204e-01
-3.640188793708129533e-02 -3.980873125906836951e-01 -1.477464994269976906e-01
-1.230652393631173902e-01 -4.396299448928011055e-01 1.187708122682842038e-01
-1.138439859456621822e-01 -3.921745654392302938e-01 6.368197599936663567e-01
3.839690122350537527e-01 -5.278515125074103587e-01 3.264482686603935035e-01
-3.075943252355761715e-01 6.877049530140140199e-01 -5.989124511535209860e-01
4.863893150795776943e-02 -3.782233631502107674e-01 -3.373184217921255668e-01
2.736452163184649455e-01 7.833708040061649891e-01 -1.586381403746339458e-01
7.465808312364960453e-02 -8.773050378740770983e-01 -3.093725373678949953e-01
2.752461328445345301e-01 7.877365695910515386e-01 5.069486793363386923e-01
1.611632572409463227e-01 -6.608357909136296504e-01 -3.258043551653728165e-01
9.445126684533503014e-02 -1.390431743828988154e-01 3.768458734195553328e-01
-2.930137042553944138e-01 5.942354342259471567e-01 -7.236039343657120204e-01
-2.092108484305209848e-01 7.601732618872921732e-01 1.443907206522609121e-01
-5.049435621350152614e-02 -4.566374169442808939e-01 -7.964080123044625648e-01
1.312294507411869426e-01 -3.600304279445850630e-01 2.062582264693955114e-01
-1.827754412959532726e-01 -8.724095156032405374e-01 2.671583035790244254e-01
3.691219564484624627e-01 5.219384440961715166e-01 1.533632450731566288e-01
-7.795124831296493251e-02 3.258931227196132374e-01 6.089614825756591854e-01
4.006094882020673764e-01 7.061975823376789307e-01 4.244322652503483284e-01
-1.131630846169116300e-01 -9.754613471061666097e-01 1.177915362308998570e-01
3.911347727927315110e-01 -6.163840387945674903e-01 3.802855829393415044e-01
5.884698639377326096e-02 3.856858050340937760e-01 -1.827391806527535467e-01
5.969779971108442329e-02 1.241066404125565209e-01 3.990877934784673453e-01
2.346759110549980765e-01 -8.453772716967523637e-01 4.249662423489904972e-01
1.803619500132325471e-01 -4.966086469101708145e-01 1.663734515533175570e-02
3.198520889232394637e-01 -3.447116860783505654e-01 3.115179874266145177e-01
-2.660202059345996295e-01 -7.178351117515872071e-01 2.268266452371172359e-01
-4.742987064489543880e-01 8.160432847575042892e-02 -5.333988675225753706e-01
1.861364150154933284e-01 -8.454650359584658936e-01 4.833100382153087682e-01
-1.578568116455916770e-01 4.154975502042974611e-01 -1.144821187875843110e-01
-3.824193042737391579e-01 6.398369459640057544e-01 -3.970133802686481306e-01
3.938275636655394485e-01 2.610783036040835725e-01 3.590214208976866272e-01
-3.547326970745127706e-01 5.443233581108339880e-01 -7.119166397384091294e-01
2.378046844278677852e-01 9.049901573055827431e-01 2.485591150119483006e-01
1.076281649082767577e-01 -3.260157873031447329e-01 2.448438582944755804e-01
9.163018086039696752e-02 -3.830527315318619785e-01 8.668327007407490292e-01
-4.609390288675203617e-01 -3.527958688544947097e-01 -7.564254803624030910e-01
-2.911303124886713278e-01 7.964303700959206589e-01 -2.033283953363572427e-01
-1.566836512519992064e-01 4.379233792634079636e-01 -6.945273898063475393e-02
3.947273623752649979e-02 -7.085754523462308718e-01 -5.503495213942251052e-01
1.275638399652365487e-02 -7.222267463080013217e-01 -5.687085203575493741e-01
9.353780970913504189e-02 2.205684883734752577e-01 -6.012011476504074414e-01
-4.366083232297756633e-01 -4.501462624637909138e-01 -3.400819672251564341e-01
1.689549923169443857e-01 -8.783602942753755416e-01 4.280109470419518614e-01
3.460526168015964216e-02 -1.621273974320121547e-01 -7.809504385962197093e-01
3.212711104679614182e-01 -7.514527971419183716e-01 4.668501906891648345e-01
3.943213343984698360e-01 6.675143743770965976e-01 1.691217107595720803e-01
6.690493261116804702e-02 5.011762614744068312e-02 -7.142221190421782495e-01
1.160402999090693471e-01 -7.603764084108742827e-01 -3.852493159153554392e-01
4.286422448654556572e-01 2.213735538081317011e-01 4.109391740187137709e-01
1.170433215269249122e-01 6.574626157109257907e-01 6.834849478105203824e-01
4.451175799333814131e-01 -1.741145244858502417e-01 4.818022613161168644e-01
-4.901219287504814809e-02 -9.292510887723978152e-01 3.251732344034927724e-01
1.256594776320279216e-01 -9.611436855988643169e-01 6.714534545087874617e-02
-4.826481099583335155e-01 -3.456150515237251149e-03 -7.988973625904388642e-01
1.549365871135971982e-02 -7.176091335298169227e-01 6.438062525745786857e-01
-4.758818880607592477e-02 -1.089987175976867562e-01 7.815573459568773140e-01
-1.027128155794125169e-01 4.386232665261728947e-01 3.068141401237684529e-01
1.519345659240363411e-01 -7.221131593280853966e-01 -3.338114792678601450e-01
1.943307274669628937e-01 -8.012126779454824543e-01 5.537665279849217637e-01
2.274032974108553262e-01 5.077708919934390552e-01 -1.495500882551075161e-01
4.778944856759340110e-02 -2.268612070116086954e-01 3.531719636175465471e-01
3.112065324583926929e-01 5.588288141294860401e-01 7.434422483642723067e-01
1.293673802123908832e-02 -7.065389381448611283e-02 -5.022460404237765186e-01
4.569994045055519871e-01 5.565980310242901741e-01 5.162667800754975334e-01
1.079069375623798038e-01 -7.319651023850866078e-01 -4.244533413352250539e-01
-3.299454550022737909e-01 -4.229881287819214908e-01 -8.426073473599409169e-01
-2.927638225836252106e-01 7.890308884001755452e-01 -1.866471204546123197e-01
2.855187408995146781e-01 -7.139563366495550456e-01 5.458096501483115232e-02
-1.457410942181815716e-01 -2.987898229586997134e-01 -9.037530788898470169e-01
-9.801748133576572430e-02 -3.771112424210595337e-01 -1.683070956295703025e-01
5.117464444107989729e-01 3.588002242234236694e-02 6.654362918061436094e-01
-2.135479975098749927e-01 -2.773897226542954564e-01 -2.837603044178364509e-01
8.256382988635870002e-02 3.296197477291740729e-01 -3.694617625169631103e-01
1.174175482985685831e-01 3.902564326388565652e-01 -3.130603782749317721e-01
-5.058370455419824996e-01 -1.983112533668706171e-02 -7.359468007500872266e-01
1.795124137830032829e-01 3.425559441287528428e-01 1.834030861105561405e-01
-7.891772828608063783e-02 -1.222075597371818090e-01 6.533933612646141142e-01
-6.709648590287474457e-02 1.527094627753063649e-01 6.402377605950255735e-01
-5.021802741537213510e-01 -1.386298184367766861e-01 -7.448292633640472005e-01
1.568435591419986008e-01 -4.570636701531840540e-01 6.430679775242997831e-02
1.979513132300400602e-01 -7.775517793011079704e-01 5.862068071527050117e-01
-5.452212762160653370e-02 -8.553088512849472691e-01 -4.676600803189203681e-01
-2.137851195915544400e-01 -1.843316984070607067e-01 -9.425995956442894119e-01
1.415098590381829446e-01 -5.617395123355907183e-01 -3.558542921821202798e-01
8.060841774723728759e-02 3.915815457039296676e-01 6.789258053132921078e-02
2.418242903421086998e-01 -6.994102832188449081e-01 6.587271615592601437e-01
-1.337962237244491766e-02 3.367040090628644622e-01 7.657894836356863300e-01
2.108299718779687859e-01 -8.392104666872598484e-01 -7.357246524745597593e-02
8.059043279340433186e-02 1.559244905495955347e-01 -6.043212792271075440e-01
2.760982197138696081e-01 -6.074104455080742149e-01 7.295959462600952738e-01
-4.727119981958063377e-01 2.510095452423634077e-01 -7.358281767400216555e-01
-1.218162714852168288e-01 -2.655912064696132613e-01 -3.048870179160012017e-01
-3.579347570016263025e-01 -8.150589944595701963e-01 -1.987755519502713564e-01
-1.074909850777715226e-01 -4.066624841737646601e-01 -9.326663539639906686e-02
2.249741949098814364e-01 6.314138440786306594e-01 -3.463191576266986815e-01
-1.238086670977951859e-01 6.923024888905862095e-01 4.034134759465918263e-01
2.966737946328218967e-01 4.245091528387398561e-01 1.467595733110819978e-01
4.074245825384140707e-01 6.807962739567502419e-01 2.386058075492433206e-01
-1.242205280545867485e-01 4.489847553070755448e-01 1.546403305535798411e-02
-3.941799860178632486e-01 -5.309114578282683183e-01 -7.269904104220384911e-01
3.438325231135371807e-01 6.203545233237545142e-01 6.659354262489918241e-01
6.694633427102093803e-02 3.853992257630732277e-01 9.445740672564993667e-02
-9.254313576402026231e-02 8.246792430047772404e-01 -5.290173988033671781e-01
-2.913569721516173217e-01 -2.872525475899443403e-01 -2.958689783914953408e-01
-7.691598867006585460e-02 -4.149886872523435022e-01 -5.823810417441115106e-02
-4.241232932443587678e-01 -4.988385828737464389e-01 -7.152580915654218607e-01
-4.876542590741944627e-01 -3.952588718842874327e-01 -6.614411297774777099e-01
-3.148987244096740357e-01 -7.897172292282187422e-01 4.789351888091216564e-02
4.560701854281635215e-01 -1.194675569307748902e-01 8.159700972166351596e-01
4.492342388108386264e-01 -2.233080290066597751e-01 4.866746041792973099e-01
-4.633436315872347527e-02 -3.808067900706421649e-01 7.661162530878758981e-01
1.894645778644963308e-01 5.720768929820587712e-01 -4.429602533667451603e-01
4.425123683743759084e-01 -4.679005693049199666e-01 6.013822320642602248e-01
-2.914539617818666037e-02 9.432012186827811728e-01 1.698728112265988077e-01
2.740027766346770366e-01 -3.490970169359195463e-01 2.758753213295089823e-01
1.310461445328793550e-01 3.198676436663639433e-01 2.140625892819933707e-01
-4.651831992841055918e-02 9.659625007228166416e-01 3.240374865997454334e-02
3.355438515059512850e-01 -3.641033748315655183e-01 3.158057814606341496e-01
-2.646423095648429702e-01 7.431598632861223519e-02 -9.538502344796583321e-01
-2.405537003315437183e-01 -8.536272209792491461e-01 1.769933174717742419e-01
-2.557951190275213893e-01 -2.315931975742082372e-01 -3.198995096333313581e-01
-5.092766779164275420e-02 3.399432350501009892e-01 3.619018824076699059e-01
2.287948945792443178e-01 4.554334354281256436e-01 9.740960011415819575e-03
2.808676402549453721e-01 6.790771179910164157e-02 3.689316490093352274e-01
2.821199522897300249e-01 -1.790545291654474513e-01 3.579916628455710459e-01
-4.578035810003001915e-02 3.712790037652768937e-01 2.872478140156433657e-01
1.244032979113330051e-01 3.543754683249086823e-01 -5.691256349708210260e-01
3.818044382727518032e-02 5.605354716830437400e-01 7.137080743396339022e-01
-6.196058079091198989e-02 7.632877371069763939e-01 4.463654777344089331e-01
2.202229211578681511e-01 9.268542444008002201e-01 1.532627059162690042e-01
1.995157971527975749e-01 -3.643738404009611576e-01 8.914627999749903386e-01
-4.426014766385734656e-01 -6.447495998751765489e-01 -4.087667447409870647e-01
1.221592089283743410e-01 -7.232778009391230833e-01 -4.021890099085879688e-01
-8.009205290254634013e-02 -8.874033088445124617e-01 -4.274259189984321861e-01
-3.794954526150552399e-01 3.511214611900873583e-01 -8.259293107818442836e-01
1.748495962100839740e-01 -5.156832963812680859e-01 -3.971726153786478419e-02
3.861870488498265197e-01 -6.427679503393770588e-01 4.903998662084994020e-01
2.314593840233385991e-01 -7.411734764674310361e-01 -1.018559781887145438e-01
3.756898542853276957e-01 5.965299663142770159e-02 4.086772898193266612e-01
3.099204593421354126e-01 -7.839408689313045464e-01 2.271204052389092787e-01
6.261987325050574760e-02 -1.089304958229247444e-01 -6.398465811440775530e-01
3.719194792700571128e-02 -3.885178947838837105e-01 1.540947190984140458e-01
1.752394782441237808e-01 4.753354336238009847e-01 -4.074220599048087865e-01
-1.627688878125594096e-01 -4.647726854336361457e-01 1.876389263969995280e-01
-5.063822819930696717e-01 5.089314168166308300e-02 -6.260691883979264682e-01
2.951305301140291770e-01 -8.092061693523890931e-01 3.610499915015611405e-01
-1.813987240823681513e-01 -5.123768925661928986e-01 4.176878577077154375e-01
2.367585579380664107e-01 5.537434964539024174e-01 7.718472274820672441e-01
1.488907577260353832e-02 1.455371231805281940e-01 8.474232689120280160e-01
1.183918246084680465e-01 -9.656590699071492256e-01 8.717228040378487142e-02
2.598095771239824700e-02 6.589335985653231587e-02 -8.230329327039702658e-01
6.484235313398335754e-02 3.786975145012927424e-01 1.177490345615395118e-01
7.155554650383871840e-02 3.396576794748958350e-01 2.035165640286055455e-01
-7.347255365793330106e-02 -1.241841732008533150e-01 7.068407512627001843e-01
-2.025091221011729170e-01 2.172307406770491653e-02 -9.591095095512830460e-01
-1.260826536512687224e-01 -8.199496709177203635e-02 -3.911827374344809538e-01
1.019943660817583531e-01 4.130374421784354655e-01 -7.341051063472800453e-02
-7.172811002113005374e-02 8.078621889305874840e-03 -4.230150047053329310e-01
2.530185670492394179e-01 7.711386291576929342e-01 -2.237449426513582196e-01
-2.286906342867054964e-01 -8.204541846412172212e-01 2.479267141344847492e-01
-4.960957570011514384e-01 -3.998448544004638006e-01 -6.057630332270165230e-01
-1.922922419162001739e-01 4.278532409503461031e-01 -1.260443973823272001e-01
1.808077393004773603e-01 3.356989406409801036e-01 1.928537061870499725e-01
-1.290068008965858104e-01 3.404247029636343069e-01 -2.148724392567524233e-01
-1.249307837165533064e-01 -4.395300188936620556e-01 1.463333556439946059e-01
-2.172566700712950383e-01 5.584074848480391484e-01 -7.874743440233786806e-01
-1.286014770615007408e-01 -4.332780589036381302e-01 2.285868281675897951e-01
-4.565857878419053995e-01 4.137137958783845826e-01 -5.911747301714660452e-01
-1.825073052946164787e-01 6.300252598938403947e-01 2.510300006187813349e-01
-1.463077169815179823e-01 6.765426908984898402e-01 -7.012201795358665724e-01
4.558577314544867143e-01 -1.830563614157699470e-01 4.987884641003765274e-01
-3.136440097199585386e-01 6.998136522176088281e-01 -1.459075864119929178e-01
-1.251447665965416955e-01 -4.122320704232744215e-01 3.142308046737117277e-01
3.118220187203548099e-01 5.759154719124309416e-03 9.358349211867424966e-01
-4.429522683041043352e-01 -6.226974934567700570e-01 -5.140598231838210408e-01
4.598240572553248251e-01 5.563447757490439516e-01 4.355697447068213601e-01
2.568494155229286147e-01 5.117593254395881308e-01 -6.332003569295431566e-02
-8.846097117348304673e-02 -3.611666969080220002e-01 3.428835237592565144e-01
-1.952274875100451501e-01 5.198496315220944020e-01 3.817195381616491495e-02
4.588215134363681641e-02 1.779858433763689129e-01 -4.813703328839458728e-01
-3.420752793066927921e-01 -7.646987784111300979e-01 -2.136592395496558772e-02
5.835759129926173377e-02 3.929067302100172077e-01 6.580175083839998051e-02
-1.546386219059490419e-01 -4.570954200102507192e-01 2.120381642845385883e-01
4.385639347814361266e-01 -4.925795665633722620e-01 5.543429796292871359e-01
2.391772732494451825e-01 6.242149233530340791e-01 -3.001579256304032772e-01
-2.183789725821621078e-02 3.134715475790970651e-01 7.609188315302719552e-01
-2.922584180933050502e-01 -2.876251317796944540e-01 -2.959922947787991809e-01
3.234968607882259817e-01 -7.459602443655418691e-01 2.138607633109136652e-01
1.229562457705150047e-01 -4.529932533993927257e-01 8.487793571706662155e-01
5.111235565295468158e-02 1.280873360932157333e-02 8.950653735431163271e-01
-3.250468638756930928e-01 6.909273380605153170e-01 -1.801394034415267353e-01
2.126997336025836238e-01 -1.862190828183935554e-01 9.375178025962006556e-01
-9.840279455527932428e-02 -3.306642192292117977e-01 4.285656177940866396e-01
4.497967550998349662e-01 -1.377524701536789187e-01 4.893127501438857552e-01
1.594329179645515293e-01 -9.415419736850965116e-01 7.991328559317471825e-02
-4.678511764574077025e-01 2.409232981615881952e-01 -5.294613546338613475e-01
-3.025412497712893362e-02 -9.663144841515665107e-01 2.388403981048866087e-01
4.882601358880094694e-02 -1.079657790967977066e-01 -5.701810848596164938e-01
1.836141524264604113e-02 -7.518425485098584327e-01 -5.352089299338639306e-01
4.584633749249725221e-01 -4.070782941005893774e-01 5.555650020097235853e-01
7.590181620997372980e-02 -4.490968794888949844e-01 -5.495655056148417844e-02
-1.042205894779180408e-01 4.436659201284299803e-01 4.844103507042925305e-02
-1.084320523937134795e-01 -3.681379760801503642e-01 6.490026411492676450e-01
-3.068789996308602941e-01 4.385799248680551377e-01 -2.362416921615317356e-01
-2.032103820931119020e-01 -9.377429138132632458e-01 -2.732171973301561474e-01
-1.416474896617033463e-01 -8.411410436157105153e-01 3.757627660487591337e-01
3.634063513503584669e-02 -5.876816792069690099e-01 7.486036337754818915e-01
-4.765260295774293581e-02 9.587936678579900285e-01 -2.057027153037359057e-01
-4.360633107250429519e-01 -2.511642788281897576e-01 -4.219759070720674465e-01
7.206981180382442120e-02 6.831251764572103535e-02 -6.495318202054857215e-01
-3.952794258489134016e-01 5.330471712712839816e-01 -6.583502978396569283e-01
-1.112121922097902282e-01 -7.232561892510508406e-01 5.325200226301689543e-01
-2.879816903829756636e-01 -6.084328252160701167e-01 1.064142191298902002e-01
6.277894489486498218e-03 9.048039691017822905e-01 3.070657530829595250e-01
-2.133137178861922167e-01 7.864476074948820727e-01 1.088957451358271850e-01
-1.501663548729927078e-01 4.238799185264710556e-01 -9.143624897800492479e-02
6.476455692404409215e-02 -2.684925105422958924e-01 3.118736726582063690e-01
2.153192436313011993e-01 -2.130948323196280025e-01 3.304699668717347438e-01
-4.621174604674154751e-01 3.780985805421440693e-01 -5.568417829519980433e-01
2.367439343537614538e-01 9.156388873120393512e-01 5.935738146757089245e-02
-4.023937349050050183e-01 5.268777152352688287e-01 -6.497488825026118686e-01
3.451252064714271373e-01 -4.362098650695085955e-01 2.909612835911052908e-01
3.415058097614676602e-01 3.401549252448742289e-01 2.675419637564300790e-01
8.995293327152667495e-03 3.500221622807680455e-01 -2.283489769881995868e-01
-2.617346202066003769e-01 -7.565671726930157659e-01 2.236352810132281044e-01
-4.619574544251088266e-01 3.748448500477137846e-01 -5.517350304251267268e-01
-4.732884321303244546e-01 3.277842189658420335e-01 -6.499669481615946154e-01
2.163530249628231594e-01 -6.271973866916146223e-01 -1.146810241263828550e-01
-1.222493261222565158e-01 -4.913802636379759892e-01 6.183775935004321989e-01
1.015750302594973023e-02 -8.715467694668550536e-01 -3.955790796224121220e-01
-1.219359062674585797e-01 3.844149301575988109e-01 -1.468161050113867272e-01
3.633974755328169687e-02 -4.553349388354440141e-01 8.141148415627779134e-01
3.402137496125902105e-01 -2.937576733051706079e-01 3.500004604963097843e-01
1.444667939368602383e-01 8.766589306805248061e-01 -2.933764395217975385e-01
-2.784759834149075353e-01 -3.645503606663196283e-01 -2.263954275261079174e-01
2.627116475450683164e-01 8.348323601557039453e-01 -1.203877663566171458e-01
-8.384840068821657749e-03 8.161125265851171262e-01 4.430852705680640713e-01
-1.537330845860346851e-01 -4.526653144150584729e-01 2.628912160757635452e-01
2.759381889839570556e-01 -7.416346893000029805e-01 5.741157027019569981e-01
1.636275067846591769e-01 -6.572609851297666061e-01 -3.176259713050085254e-01
1.608265767870886709e-01 5.872503793671002281e-01 7.482907610451936531e-01
-3.216158549716278126e-01 5.367786005657715354e-01 -1.935424709174337898e-01
4.944362735841467682e-01 -1.948629971986296783e-01 6.713328035773107327e-01
1.673747415962849594e-01 -5.970234937659995023e-01 -2.681877669050336532e-01
-2.318447471705134821e-01 -5.322710389649232265e-01 1.508206618079283301e-01
-6.213310620074954244e-02 3.944826550031749202e-01 2.710333779437450463e-01
3.068955799415786778e-01 -6.865265379863206840e-01 1.143889396814696258e-01
2.283029150971782884e-01 -4.283344589843022243e-01 1.760094778710085961e-01
3.899432708722437302e-01 -1.368037575889194390e-01 4.243387070527587235e-01
-2.650777048320336338e-01 5.078030947079380519e-01 -1.185115743245147707e-01
-3.400992891639970095e-02 7.218111082058895622e-01 5.223400383071251651e-01
2.209320902511442142e-01 -2.318584877203972439e-01 9.286510104748542105e-01
-3.700498182288414761e-01 3.910232255400719059e-01 -3.404641459477305010e-01
2.864341256450481793e-02 -5.244809884472164674e-01 7.789426447322947977e-01
-3.133706204619858271e-01 -5.528801148401462848e-03 -3.953182748244165601e-01
4.399368207683768683e-01 -4.180057585230366191e-01 4.698423792165717372e-01
-4.135633398563748897e-01 -4.668938395172232969e-01 -2.887214135834538786e-01
-6.209185459280112951e-02 -7.526890918090913818e-01 -5.974162348312412885e-01
5.169824775660447624e-02 -3.748792674395467484e-01 1.803249135952124382e-01
-4.546107177042109093e-01 -1.745837359027973268e-01 -8.305797049818689493e-01
-4.344908724623053886e-01 3.569344664278402135e-01 -4.546162012858025459e-01
-3.178571413352591635e-01 5.971865669319014192e-01 -1.565694927401779235e-01
3.649543091158047314e-01 7.501019181219399368e-01 4.374563352008029593e-01
3.220765440656629397e-01 -1.464680020509759317e-01 3.810607068202181980e-01
3.261343423642127926e-01 5.535626161706803661e-01 3.491027448851304060e-02
-2.479770283319544522e-01 6.459329910985743828e-01 4.591695386645028298e-02
-2.906994597937247460e-01 -3.944576345622432534e-01 -2.039686474731794985e-01
-4.023665634475884906e-02 -4.971896900481617004e-02 -8.923465461562908319e-01
4.030494212863183212e-01 -5.938855036201543536e-01 4.221506465624847992e-01
-8.376758453447337438e-02 6.507594618230218009e-01 -7.169730360365831334e-01
1.964151434615749592e-01 6.792656637780545292e-01 6.733020615110948404e-01
-2.180057722176700907e-01 -8.151810075406293876e-01 -5.401042033656566765e-01
-3.701315209699388570e-02 -7.649654651095649793e-01 5.677797076959998357e-01
2.547507157244899290e-01 5.891230269951971410e-01 -2.179223933713076156e-01
-2.131182707684454447e-01 4.503560524939355381e-02 -3.790853443492206987e-01
-1.732889009074111142e-01 8.995454465218772899e-01 -3.120308843231879292e-01
3.486175731588078697e-02 1.391966022163215189e-01 -4.885805583338807545e-01
-1.695590102023537549e-01 -9.585870718257348821e-01 -2.282786880704850696e-01
-4.413331026128197720e-01 4.525962662749741794e-01 -4.991607978327049500e-01
-9.444724762069883761e-02 -3.471041631038562780e-01 6.862559799850149744e-01
2.583747277595172670e-02 -7.112724372558132391e-02 4.389714605367409650e-01
-9.517270429288078593e-02 -8.944799896317316978e-01 3.518375769129989394e-01
-8.061932484072885374e-02 -1.517676123430846402e-01 6.068336311242086278e-01
-3.479821952360090953e-01 2.364934362707764581e-01 -8.951868595902648940e-01
-9.396520091353613435e-02 -6.931996972759653097e-01 5.754403992248435795e-01
-1.761905515366041924e-02 3.208701263643142232e-01 -2.624150133911876681e-01
-3.659219382279254584e-01 1.685329577168004078e-01 -4.059351459458488964e-01
7.885821846417193082e-02 3.831341454120530399e-01 -2.291180884237672966e-01
-1.340729475156755002e-01 1.753154420572145267e-01 -9.343938751916598395e-01
2.041029639456637124e-01 8.447665776655896019e-01 4.540769641851540861e-01
1.385422844971517797e-01 3.247021126950846437e-01 2.064981015820593901e-01
1.977289290857529025e-01 8.429604541143347340e-01 4.602895060635545654e-01
1.607191848938127332e-01 5.871981755960294924e-01 -5.182187350082740895e-01
5.971226673888522379e-02 -7.049915354286587776e-01 -5.262143832102939012e-01
3.209805317259945556e-01 -5.264848958319719996e-01 2.055672390448115838e-01
-3.542577923330144096e-01 -7.763411792202311590e-01 -4.649852074008986036e-01
1.405586043489643056e-01 4.056740336917595835e-01 -5.301478356578182005e-01
1.054308100576701185e-01 -2.297888456321563744e-01 3.276818174039748399e-01
-3.743013176907484252e-01 4.477068981122011015e-01 -3.257717843636231403e-01
-9.427755167449886758e-03 -3.763652645086378867e-01 2.020896214777849753e-01
2.731611033113429121e-01 2.488451032782683925e-01 2.937612156357469750e-01
2.334423087866756008e-01 5.429501793994268022e-01 -2.254036473953016928e-01
-2.040020859489409255e-01 1.037634790455353867e-01 -9.545995753527601879e-01
-4.767748764177139748e-02 -2.385934452373830172e-01 -3.686895567293372311e-01
-2.848371187151685913e-01 3.096635985254866941e-01 -3.024252286168514492e-01
-7.613366070975524647e-02 8.733841908578660052e-01 -4.472796491687821008e-01
2.372360550499167664e-01 6.288415884719792404e-01 -3.080569391239633137e-01
-3.074479557272298547e-02 5.443745172263076970e-01 6.542419594388207971e-01
3.588055201900485630e-02 9.329306781115895841e-01 -2.852448295417853164e-01
2.433006337985533230e-01 6.094493601733199650e-01 7.283269608372195947e-01
-1.659954961116368033e-02 -3.349938049720850297e-01 8.097043808471272586e-01
-5.042264578164766357e-03 -9.974722646781892799e-01 6.940739541148012448e-02
-1.182022337160905240e-01 1.044238504463729511e-01 -3.833500379346941878e-01
-9.248249587157782170e-02 6.542750542177722117e-01 -7.161177514596627214e-01
-1.815332538557699604e-01 -5.025695581190615657e-01 3.937512677444062192e-01
-4.749927948686518686e-01 3.019204847027717187e-01 -6.801161940732115552e-01
-4.356465720393848939e-01 -4.369633540336296251e-01 -7.446229234961373455e-01
-9.826283822199985071e-03 3.421254207038968431e-01 -2.311587607821145030e-01
-4.301728760841833643e-01 7.483249641899700211e-02 -4.705200973134063269e-01
4.086579613532281829e-02 -4.810196680384098283e-02 8.895886325652390125e-01
-3.507072453438376813e-01 -1.875990098619243485e-01 -9.134346595243254541e-01
-4.647850886635798151e-01 -4.607900998944361448e-01 -6.713433008719175143e-01
1.137604258748922265e-01 6.230169534347014260e-01 7.103007377293044655e-01
-1.978894323688323159e-02 -4.216131193217252937e-01 -2.030678407381500405e-02
2.707308949195778580e-01 7.904675012121221700e-01 5.062744720589705816e-01
-4.272993247354101715e-02 -2.009217491420244583e-01 4.596305155045815605e-01
9.815579592160736389e-02 2.708967770552310750e-01 -6.575537234470012482e-01
3.974773554797711994e-01 -5.262959321938190937e-01 3.606177444405237464e-01
-2.935330821505838499e-03 1.132506955664340231e-01 8.321657850308233906e-01
1.135477655026961991e-01 3.863587134435960135e-01 8.848816786507600340e-02
4.207335773927926847e-02 -1.706584374025984507e-01 8.855171315123683273e-01
-3.445391272654438342e-01 -1.693567976079445314e-01 -3.768082819649996029e-01
3.562517018651568945e-02 3.717261894309407122e-01 8.053815262572754374e-01
1.045301544896796581e-01 3.640969553704012651e-01 -3.498537612739470171e-01
-6.816580119968874973e-02 2.794462241299884853e-01 5.040979440530817257e-01
4.784102630063053474e-01 -2.387403575968666813e-01 7.209650092675241595e-01
-4.807548045482010757e-01 -4.472484179518868008e-01 -4.634680430514014904e-01
-1.957445298645423271e-01 4.592405152872551244e-01 -7.993332164275308849e-02
-5.140057173064733753e-01 -1.484723162707638211e-01 -6.291078466352928444e-01
7.839157334162847809e-03 3.976703275244293789e-01 8.583073358407190823e-02
4.907475277427981314e-02 3.903928484067690774e-01 -1.475809957345655121e-01
-6.613924181300781524e-02 8.256289746522481321e-02 6.441944461748031481e-01
2.352856083871952830e-01 -3.971191012908550366e-01 2.127685318425035221e-01
-6.924229092478276226e-02 9.606640098330559985e-01 1.243961002404280619e-02
-3.988917636920396026e-01 -7.143579065838505660e-01 -2.057494139934963884e-01
4.325018471541069998e-02 2.635973166605780627e-01 -3.972771748319796070e-01
-3.212700528043137549e-01 7.540217580723790336e-01 -4.086741066656566224e-01
2.739837128279018486e-01 -2.521202337931787232e-02 3.770935397123163502e-01
-4.219246905625471944e-02 -3.738037769859948733e-01 2.387944289827950151e-01
7.471637858579743829e-02 3.573856362454241320e-01 -2.946255004412242640e-01
-3.683090629932934679e-01 -2.107242505244431297e-01 -3.754747111019902661e-01
-2.542181237724548959e-01 -1.423191208053657120e-01 -3.590295789606627874e-01
-1.249317462342443424e-01 -3.688543352251282270e-01 4.626360287394483684e-01
4.281420275933179309e-01 2.366303222611474966e-01 4.050018052387333589e-01
-7.012368665337546936e-02 -9.357568113337014215e-02 5.967456322476991648e-01
-3.645712084574249667e-01 6.361566107112249790e-01 -2.911794149603852411e-01
-1.904244705364259438e-02 1.552490227715176696e-01 -4.173241863283065345e-01
-3.808625583650271373e-01 -7.603426585034123164e-01 -4.268457701659970072e-01
2.696140560194570379e-01 2.455014326111686074e-01 2.948191246768232521e-01
1.255670868075020319e-01 9.684540661453759913e-01 5.326989462104933515e-02
-6.083143583262458354e-02 -9.991354222992707701e-01 -1.040925716994751775e-02
-6.797580646480028133e-02 3.363686969053081288e-01 -2.198694302162420566e-01
-4.136378786191646229e-01 3.504663178487835151e-01 -4.161011610665585336e-01
-4.825345615061750193e-01 -4.040201144037853798e-01 -4.692237534406197286e-01
-1.923643619622712186e-01 5.181902343005082567e-01 4.245126774864794311e-02
-3.263824145002311994e-01 3.912648491247544547e-01 -2.884917925430164898e-01
3.055790150567296304e-01 4.220745986956169205e-01 8.333125084246452152e-01
-2.162042343796855004e-01 6.062491034327456285e-01 1.134838738700451322e-01
-3.212607882178315499e-01 6.709034146558047196e-01 -1.590203816918647484e-01
-3.905911406896989124e-01 6.249560185777974786e-01 -4.623761679603515251e-01
-6.026125116301137008e-02 -4.877262534684879691e-01 -7.883070446181149604e-01
2.011476369183310964e-01 3.882559557337983414e-01 8.652683007430503892e-01
-2.362925085677788917e-01 -2.360050561069092778e-01 -3.143697206738539918e-01
