2.244271674519039694e-01 2.532264387868793376e-01 -8.936673907615899637e-01
1.284356083445486185e-01 8.212371072140310924e-01 4.267472269742449975e-01
-2.913784917727206270e-01 -8.572232502228150919e-01 4.555484025348406352e-01
-2.683125016252758122e-01 -9.384005662907899392e-01 9.819843009390685773e-02
-2.420306348429898391e-01 -9.913412373187265869e-01 2.039739736392178968e-02
1.782629279173427173e-01 2.978069595379430612e-01 -9.236858262264945330e-01
-2.654105350472283908e-01 -8.983650635730139333e-01 2.193989690141325277e-01
1.922806009015478879e-01 8.885733729880841425e-01 3.293422482577233468e-01
-2.720503205537336266e-01 -9.287980830483782979e-01 3.241224397523086442e-01
-2.649205410526160320e-01 -6.878500442811175120e-01 6.066043455085418090e-01
1.878454289604232774e-01 9.405383378186357168e-01 -1.257069753794536060e-02
-8.170030941704328753e-02 -8.235373523338981316e-01 -5.797593793421490505e-01
8.199644967696138875e-02 7.588483507982719534e-01 5.446672906736376163e-01
1.461111289679479786e-01 -7.069846766951498607e-02 -9.356670459788294369e-01
-1.177166233850467369e-01 -8.119316770873847844e-01 -5.954935184306379137e-01
9.798090128262252133e-04 -5.276802080102424020e-01 -7.885742740064439760e-01
-1.908500836405124801e-02 -6.558669046330324326e-01 -7.051702617872608325e-01
2.292952816450302689e-01 9.005882992753774241e-01 -8.413196115833090905e-02
-2.560792494113334206e-01 -9.700158069845582487e-01 -1.258937440127002455e-02
2.773989668723584878e-01 6.228536144632571547e-01 -6.664146924286403761e-01
2.139363204390224427e-01 9.064942450165898169e-01 1.487388821643212400e-01
8.368754976700722853e-03 6.469625075487325239e-01 7.156512404503306835e-01
7.460808853399349128e-02 -3.484380375946563579e-01 -9.456717258871690790e-01
-2.104561463944611133e-01 -9.294495221171138466e-01 -5.199857465872686352e-02
-2.095780570306239043e-01 -4.804684157152500079e-01 8.055800691580333739e-01
1.654577984717311712e-01 8.431194576401541685e-01 4.139947559784561970e-01
-7.334431592359796914e-02 -7.198339177520097776e-01 -6.172620718336883083e-01
-5.133893118271669331e-02 -7.273731769187501417e-01 -7.067484320497260386e-01
-8.992840724019214582e-02 1.790238767804073761e-01 9.848573503985693645e-01
1.898402646393153870e-01 4.276213161339066648e-02 -9.569122596789979562e-01
-9.020064715011880119e-02 1.001895665326235779e-01 9.731421592546786181e-01
-1.324888467446797558e-01 3.468898068068227043e-03 9.367481627785548826e-01
-1.793076612712975193e-01 -1.765932930754559038e-01 9.129356807845122601e-01
-1.160737857090340386e-01 -1.370373750429895038e-02 9.639650088988697130e-01
3.290453525556349783e-03 -4.131462853840416338e-01 -8.862905365674655922e-01
2.076689129237674070e-01 9.321439742092657577e-01 2.495352849438207676e-01
1.508181437636050559e-01 8.760337602481799157e-01 2.897186232418175744e-01
2.342617555373097127e-01 7.020312782607350810e-01 -5.779705130833781013e-01
1.820773569749379317e-01 7.130658727520919338e-02 -9.852271826149620049e-01
-1.527900655520691986e-01 6.161991699809044737e-02 9.938644295123586492e-01
2.695784111648817927e-01 5.156574707470746866e-01 -7.639444041559787513e-01
2.224403731410060925e-01 6.664194544781734120e-01 -6.680520553151783059e-01
2.199385751619013507e-01 8.887103837248674365e-01 -2.050847540376299072e-01
2.160841531713943164e-01 3.411408516437587912e-01 -8.476947518737195653e-01
1.364314413565669848e-01 8.005982877332651348e-01 5.486825856349415442e-01
-2.122779575224854054e-01 -9.509746009985350357e-01 1.607607685709276923e-01
3.995348778493416214e-02 5.537177806844341132e-01 7.738379320053493382e-01
2.247622932336227342e-01 6.956482883664901751e-01 -6.102895135545509664e-01
1.722009947754464532e-01 8.784253073764729525e-01 2.673900121202666957e-01
-1.766338880497797525e-01 -2.583669651559613589e-01 9.020892738822908763e-01
-2.248236522593508313e-01 -4.709488862140643328e-01 8.676201749847038958e-01
-5.195041570386928730e-03 -5.024535670134827603e-01 -8.744703942408315056e-01
2.644258248836352521e-01 9.399888224428333272e-01 -1.985974352774516338e-01
-1.332393122381256290e-02 3.777099541944504146e-01 8.883448782370001462e-01
-2.516496585191074220e-01 -9.289433060694746169e-01 6.422299522886300294e-02
1.444411015154813127e-01 8.579909102388036946e-01 4.863419108155811466e-01
-1.082492278135339936e-01 -8.868240065510212267e-01 -4.569724036902702013e-01
2.233579186331623445e-01 9.572870038717562480e-01 -1.379079453426746704e-01
-1.799320257241620591e-01 -9.549483061631748315e-01 -7.739839220855004864e-02
2.567614998054721931e-01 4.476659124971534842e-01 -8.029776883352013339e-01
4.095714878127186542e-02 6.977527456783753079e-01 6.387841730369365756e-01
1.644467468627197060e-01 2.152736324977034821e-01 -9.095924605558126652e-01
1.619076147233876606e-01 8.886802341170542408e-02 -9.227190629967254587e-01
-4.580379646650312858e-02 -5.703402421547043577e-01 -7.800697927560744649e-01
2.296759233770852282e-01 8.332073485204932739e-01 -4.521616059491490036e-01
-1.382039025001803589e-01 -8.173548875546099435e-01 -5.582987039339456503e-01
1.921569813540464633e-01 9.248667537640268277e-01 -1.649571650099177986e-02
2.870537536161064107e-01 8.408740088604971241e-01 -4.395056324124505531e-01
-3.865361272464172548e-02 3.878367718363506245e-01 8.556029139911008885e-01
2.344911766979300149e-01 3.350921295064918093e-01 -9.133519639500046194e-01
-1.120287980042477261e-01 2.515429323814091234e-01 9.204000442517985547e-01
2.571687939355721264e-01 8.790858815576383378e-01 -3.986164748614254294e-01
2.615289230294868816e-01 5.637650664774006559e-01 -7.099245797765411092e-01
1.438777485277584200e-01 8.965856330862289614e-01 4.210096057259418711e-01
-2.380655298636527029e-01 -5.648953233906733873e-01 8.072899205966207470e-01
2.044481714841033804e-01 9.704095111402102347e-01 1.248540271473939089e-01
-1.943944347109958504e-01 -9.579161967202998174e-01 -2.845685944656095034e-01
2.603520066255052279e-01 5.136485471190083141e-01 -7.529208310745739707e-01
2.777348496780476794e-01 8.389761064899203813e-01 -3.454762716235362796e-01
1.125995960921680750e-01 -1.141204424838907772e-01 -9.954589961787563279e-01
-2.680849787401790585e-01 -7.086193226311009452e-01 5.823798902708283709e-01
-2.966703214857507320e-01 -7.405016507822396177e-01 6.035057071567787590e-01
1.646964763396939826e-02 -5.023747767103303730e-01 -8.813643757838819370e-01
-2.147765671704624790e-01 -4.623402930750376560e-01 8.063655060882489733e-01
3.788306960193706108e-02 7.046641355478183710e-01 6.398947768648441947e-01
-2.461436423276515753e-02 3.482414933824737324e-01 8.908375509569059769e-01
-6.420069227783437027e-02 -6.831432900684568654e-01 -6.582378820956533705e-01
-2.697153192306282476e-01 -9.616469650933879842e-01 8.729794285760243688e-02
-2.191482765812891309e-01 -9.402935241257452947e-01 2.219925965423004410e-01
-1.299782015493641807e-01 -7.824842606341418927e-01 -5.689317511697588037e-01
-2.165759840587013207e-01 -9.488913367145097588e-01 1.911340843488669727e-01
-2.114462597113861697e-01 -4.143439281365712268e-01 8.302003881770552152e-01
2.150243216972181071e-01 9.033839447754968832e-01 -1.082035983320771416e-01
-2.391358097277436479e-01 -8.266618734906575616e-01 4.237388534219066472e-01
2.106447068575510728e-01 9.382468016840476155e-01 2.298141352212081379e-01
3.036254138527112387e-02 -5.458888979828083743e-01 -8.135758575803299086e-01
-1.332726272293508485e-01 -8.048653289989977644e-01 -5.749991509180043536e-01
-1.981818652562592487e-01 -1.222851570011411620e-01 9.794845598980327361e-01
-1.041172888185310508e-01 1.203804330905164088e-01 9.312327583445961787e-01
-2.832678055371568027e-01 -6.898705673569477392e-01 6.155643827640959742e-01
1.959973055338126435e-01 7.679939520133156894e-02 -9.472324466703425649e-01
1.749527862548421187e-01 9.146429907278345040e-01 1.227021497709299136e-01
-2.476037038729474449e-01 -8.442015563982186999e-01 3.704132235820065122e-01
2.229461316201558074e-01 5.484994986883745538e-01 -7.959852896239234532e-01
1.239761339629019687e-01 7.886623653739460726e-01 4.924040186187417789e-01
1.678000117277740344e-01 9.502628855637972327e-01 1.343900576642274580e-01
2.675001571044107185e-01 5.373543959715537666e-01 -7.951733223659519512e-01
-2.378308428094032811e-01 -3.188915028942860275e-01 9.256662907116158800e-01
6.855973914906816902e-02 -2.362438157436476949e-01 -9.722418682022008207e-01
-2.240485119976053929e-01 -6.496374669148923253e-01 6.959028710749783908e-01
1.353826177453719692e-01 8.687440952335235833e-01 4.784342000511981885e-01
1.669376224119344665e-01 -8.510724883364103113e-03 -9.394220501184600280e-01
-2.530955409713985249e-01 -7.447385732031721606e-01 6.406503441427208179e-01
2.268950240164395102e-02 -5.250704471660754269e-01 -8.008821675559268938e-01
1.793506796235401213e-01 8.749085562667715532e-01 3.893187164782673237e-01
1.401971539926689381e-01 2.992375414757533769e-02 -9.317213324128734708e-01
-1.638844049463037134e-01 -2.395133788369334105e-01 9.271160553626662804e-01
2.311691472298040007e-01 5.431818216912744912e-01 -7.269370567298876207e-01
-1.684711607946005330e-01 -3.121384409852006551e-03 9.403526888395832284e-01
-1.044952635292559356e-01 -7.622412140477218268e-01 -6.512604459235525889e-01
-2.435765402620304332e-01 -7.751588415531696086e-01 5.046811921315101923e-01
7.312914572845317929e-02 6.531524965118629122e-01 7.326394590947635788e-01
2.271004440162407712e-01 8.223346675746102674e-01 -4.585809799004894050e-01
2.227731424969885132e-01 3.431974068257065968e-01 -9.179739496386039033e-01
2.269867214755381113e-01 4.906350315546663676e-01 -7.649196686714910820e-01
1.643382579643252461e-01 1.938852904606979399e-01 -9.107922606164013946e-01
-6.964610917673914880e-02 4.161760612463799025e-01 8.947024789080744167e-01
8.365698235613050482e-02 7.406225717328799307e-01 5.657095186299957446e-01
1.688945223342784852e-01 -4.133381852494398545e-02 -9.771863570641708963e-01
3.913534662513554890e-02 -3.001872297389459043e-01 -9.410193533074194816e-01
-3.474658042725398133e-02 4.809059033757973056e-01 8.160700496201022114e-01
8.693929726227205002e-02 8.346449158790835154e-01 4.831177859170082134e-01
-2.713819139094744703e-01 -9.179628762481341075e-01 1.714058227452366079e-01
2.132000534659097002e-01 9.123093590370940920e-01 2.271953515630401599e-01
1.592873039327667717e-02 -3.990051185757564900e-01 -8.675404855885009425e-01
1.202438952645844411e-01 7.528769048137456954e-01 5.936803880824105262e-01
9.172543546610054110e-02 8.331387452739105193e-01 5.358193997430267252e-01
2.366486939173530479e-01 7.426452755496083524e-01 -6.051679777235435820e-01
2.442693115649805236e-01 8.356265832407849814e-01 -4.755144297678330911e-01
-2.430148355721532538e-01 -8.014126124939753293e-01 5.561752252983077627e-01
-2.926725611244418990e-01 -6.787595688060005239e-01 6.524664991554006699e-01
-2.619628444695520364e-01 -9.474100023126501569e-01 3.893980956382238345e-02
-1.376741425898266313e-01 -8.837195551530997450e-01 -3.427004068130908854e-01
1.560252150539643834e-01 -8.639315468641435569e-02 -9.811674835716559517e-01
2.750325856995221585e-01 7.164738299529769261e-01 -6.409741307674241551e-01
1.110001019959733909e-01 8.703092135512967564e-01 3.876724566628044766e-01
2.434815659374198749e-01 3.164768872764833207e-01 -8.890546669823389259e-01
-8.165257387735788686e-02 -6.778658052025490210e-01 -6.776464325099386121e-01
5.078422296558990877e-03 -4.100371195360695276e-01 -8.937105548011369249e-01
-2.365321950485672065e-01 -7.141330171734951993e-01 5.961719383029484565e-01
1.366090144636636361e-01 8.590725568708394710e-02 -9.757832720245613878e-01
1.285293037873340427e-01 8.778250336260821074e-01 3.286412015460392078e-01
1.841140738119341758e-01 9.583706083394686326e-01 4.485291687726552373e-02
1.828304479106708791e-01 1.447162193470820091e-01 -9.126510916334931167e-01
-2.912374472230354061e-01 -8.800040166042916168e-01 4.064479401864115604e-01
-1.713323889772959130e-01 -9.062187168616587796e-01 -4.167884832665781358e-01
-2.364192400334921007e-01 -2.669783716298486098e-01 9.245280568778568853e-01
-2.922971484267314346e-02 3.251166476074990874e-01 9.064403875892295126e-01
-2.357267093935408453e-01 -9.444897983709428235e-01 -1.273251154535168517e-01
-2.908155459399420217e-01 -7.266026914985408425e-01 5.813579025546868895e-01
1.856939963861801157e-01 1.395203124948885542e-01 -9.799394453842957819e-01
5.572802236929436104e-02 7.680129812907047215e-01 5.863282298458419861e-01
5.923774077584047920e-02 -4.381585789785829022e-01 -8.596368429888219254e-01
2.749407221843523930e-01 6.800718316590746992e-01 -5.965932111132957738e-01
-1.036936194065538885e-01 2.133486156663015332e-01 9.808359556963913706e-01
-5.909582649456856379e-03 4.718302750880747354e-01 8.128616810197172304e-01
2.115650871836607105e-01 9.554372728835974771e-01 1.853279072742654854e-01
2.910063296044262948e-01 7.248010925720504982e-01 -5.728206432580208451e-01
-2.125682951353045635e-01 -9.870550965481962313e-01 4.720360494293741188e-02
-2.171343104015955039e-01 -3.083888171520158816e-01 9.423824045579489717e-01
2.266514863964602944e-01 2.872405493076506944e-01 -9.316532914098843987e-01
1.600826058354392345e-01 1.883004456287226958e-01 -9.156957184629006541e-01
-9.572575815214474926e-02 -7.914813523419352848e-01 -6.323972798018016039e-01
-2.359881402860099509e-01 -7.622942928579032884e-01 5.972097510710401291e-01
2.915652872114645744e-01 8.278332540466386558e-01 -4.384340542526690698e-01
2.260931594073298245e-01 8.044609552782944206e-01 -4.762434327543466628e-01
3.354801019282384333e-02 6.726094210302028253e-01 6.631538545618952396e-01
-2.204512561778430024e-01 -9.584783971645545186e-01 -2.142502962624830143e-01
1.895008047146875749e-02 4.815179194433014676e-01 8.436986855510755223e-01
2.447578433110970675e-01 8.914240299292609526e-01 -1.451182743215954363e-01
-1.880022249567118720e-01 -3.187309285847066409e-01 9.308966256096072867e-01
-2.213596531705281367e-01 -1.935161803437048800e-01 9.317652127033605458e-01
2.722106550654530555e-01 8.199302953563041285e-01 -3.761336799491167282e-01
-1.795497199527016086e-01 -9.559170991724095234e-01 -7.863576228239224641e-02
-2.262669972209943037e-01 -6.335822795603274216e-01 7.327859007513530809e-01
1.083383610192215490e-01 7.248245997632309923e-01 6.208522926798835107e-01
2.297911252662361847e-01 9.277563165620540397e-01 -2.541982447548070678e-01
1.739132833202625128e-01 4.339029997375084755e-03 -9.428561853761742162e-01
8.038634725654567048e-02 8.134211070603679650e-01 5.639350315666110669e-01
-1.806854851004032481e-01 -9.475640856033338277e-01 -8.567151097827926942e-02
-2.546248350894678159e-01 -9.123044033356888516e-01 3.719144679322456959e-01
2.211079130001408211e-01 9.300503922261463829e-01 1.954708180128831296e-01
1.744627835413760097e-01 8.588524035179011529e-01 3.673995291947638742e-01
5.718435301514861180e-02 -2.661359913835223412e-01 -9.625881921316512546e-01
2.595302068828029413e-02 -3.662791660626813495e-01 -8.808708954409905090e-01
2.909883709483078174e-01 7.107192832107039893e-01 -6.087738480019713183e-01
-2.308910486539908213e-01 -8.919476563983823603e-01 3.713452680495600844e-01
2.501671924016812820e-02 -4.684170856568052321e-01 -8.991787523337969601e-01
2.247369845184197801e-01 2.121292101608365510e-01 -9.275103924019075796e-01
-2.260561430284104556e-01 -8.926455523915856061e-01 3.043938206049057738e-01
1.168018662952362702e-01 -9.176871397647443085e-02 -9.315154576457601587e-01
1.153219105506062131e-01 8.871655633242009342e-01 4.159490115443837954e-01
1.999348302593625948e-01 9.116413421738132072e-01 2.922038019907849393e-02
9.242467449597904783e-02 8.252641308768513539e-01 4.643610882730462852e-01
-8.189649629228949734e-02 3.270150832462024870e-01 9.469646287988883193e-01
-1.295677914393814634e-01 -7.845740421734714864e-01 -5.842669367993940099e-01
-2.302035188706367252e-01 -7.374802768239723250e-01 5.999435122571576962e-01
-6.972604165519377672e-02 -8.079008436605290555e-01 -5.577335611870890553e-01
2.113565515970317055e-01 9.256052042652150869e-01 -1.953161350740487967e-01
-2.639561461943042420e-01 -9.643299403560480210e-01 2.049252104725841628e-01
-2.231849449002753505e-01 -6.393283922158790045e-01 7.108556204406556445e-01
-2.421914165030641664e-01 -9.391446356254160577e-01 -4.837609872584757581e-02
-2.786219343260080139e-01 -8.746465502896754174e-01 3.059158483084372104e-01
-1.732262982016498365e-01 -3.325981809867399608e-02 9.374915749347483285e-01
8.589018847683897381e-03 -5.945830981586205377e-01 -8.117279698879849015e-01
2.829944840013339791e-01 8.602464602625996548e-01 -3.171268969774217461e-01
-1.744435111468487509e-01 -2.236862793601974986e-01 9.638730725133142219e-01
2.256028684908985282e-01 5.791634927525441956e-01 -7.716251784590275609e-01
-2.266139324719246284e-01 -5.669188023985299862e-01 7.358679811643572544e-01
2.201022525559035437e-01 5.902434149618900339e-01 -7.057600222217533803e-01
-6.805989073518106669e-02 3.401439010630404325e-01 9.461459202182638251e-01
1.344731188187129611e-01 -7.454207878815746757e-02 -9.979377402335625202e-01
1.399561841857872579e-01 1.167092514937378006e-01 -9.653460288930191258e-01
8.590274333874758916e-02 8.264181542667965452e-01 5.421047524264731576e-01
-2.703783299344138524e-01 -6.425875166755201651e-01 7.415247708137362448e-01
-2.963973311871734295e-01 -7.819360970388515852e-01 5.190794847271035239e-01
2.164879010175203566e-01 8.888121688500504325e-01 -2.551637923920283546e-01
-2.563961044448839766e-01 -8.210483203964161758e-01 4.122953311684528499e-01
-2.287991925884803046e-01 -8.758333096595969369e-01 3.466110148141045566e-01
-2.817870221379017437e-01 -8.421117247204026324e-01 5.004990657303474144e-01
2.279154635765880121e-01 8.169595476264414069e-01 -4.174191903999319719e-01
-1.430541591271259072e-01 -9.124060395395847678e-01 -4.316493596019773116e-01
2.709680962763909018e-01 9.278311280074150735e-01 -2.336710352818283376e-01
4.942893504887209410e-02 5.980709118785703104e-01 7.288049375234327831e-01
-2.461295667897168138e-01 -3.891684073604629868e-01 9.002319885023003510e-01
-2.382918826169732052e-01 -6.565813399992015409e-01 7.266259950447759852e-01
2.392151497416085959e-01 3.475924764685008883e-01 -9.051992281873442181e-01
2.207863763475329810e-01 6.387291353592086107e-01 -6.717832007908465242e-01
-2.379446052804271849e-01 -8.827817893958646023e-01 2.797039162134569712e-01
-2.313600002388121191e-01 -7.576694902302841816e-01 5.670833878935807038e-01
2.511615543835831188e-01 4.684737575039418789e-01 -7.817947414372834469e-01
-2.962597700931405842e-01 -8.219790655718768324e-01 5.012561991382300519e-01
-1.885716818631078817e-01 -8.970303237141299402e-01 -2.933995636833651721e-01
-2.503354693839906497e-01 -5.898078763693781479e-01 7.899664631961711425e-01
-2.492366878182353945e-02 -5.690389347346216375e-01 -7.600789624938993905e-01
2.900883207219832061e-01 8.043541738337686153e-01 -4.961032557282736843e-01
-2.641938593603068708e-01 -7.530079278099532925e-01 5.232315636738592568e-01
3.860124103534946088e-02 -4.769383155674686292e-01 -8.294991592954693571e-01
-1.701424873256529025e-01 4.432955075959785045e-03 9.434216286599000911e-01
-1.965206904336985749e-01 -1.054001195426617077e-01 9.362875660546974288e-01
-2.650849377756060443e-01 -7.067033240721236620e-01 6.843716152598493530e-01
2.262077046693251881e-01 7.717974473822396542e-01 -5.252990951580862600e-01
-1.897642124003665887e-01 -9.860368893792217371e-01 -1.622651791289914103e-01
-1.607812425751257643e-02 5.394404856523763447e-01 8.453808228818113779e-01
-1.755803397225673690e-01 -8.720555430596007573e-01 -4.109585197518519917e-01
1.929331479240146974e-01 3.729905486245400636e-01 -8.949714522939163919e-01
-2.385973830995819778e-01 -8.569868873508523777e-01 3.553236192021448914e-01
1.271367684290475031e-01 7.814607004950818725e-01 5.790898302589535529e-01
2.133152566329718502e-01 4.970824725684027112e-01 -7.721924789896671415e-01
2.537218234227489044e-01 8.491160268156019431e-01 -2.963139390736914125e-01
-2.815753011018519714e-01 -6.165055475540111019e-01 6.962472502896798199e-01
-6.847269003117764652e-02 -7.810249502905444174e-01 -6.431169327469292707e-01
-2.379952927128348439e-01 -8.213012292573718121e-01 4.375016184629959004e-01
1.950285045540250950e-01 9.172968925828125508e-01 6.779448156920510858e-03
-1.503727545099872998e-01 -8.303373368587183556e-01 -4.698146206983558892e-01
2.218811429012506331e-01 9.568813012587029654e-01 -1.366089221600747805e-01
-3.321526461724185614e-02 5.077052679088860376e-01 8.075947746450948816e-01
-2.458992192222646256e-01 -3.259938933950963791e-01 9.091204067294814672e-01
-6.922237758315180622e-02 -8.085284315560996582e-01 -5.844426429371089027e-01
1.964964407784547396e-01 9.319643507265070737e-01 -7.546955116889909887e-02
-2.635406226396183049e-01 -5.089337234994373294e-01 8.350182818421815201e-01
2.275227054422872541e-01 8.127580333616419850e-01 -4.290078800823462490e-01
9.416795297219485161e-02 -2.623481153481229677e-01 -9.081891570024553939e-01
-1.405146297970416847e-01 -6.137046102029325434e-02 9.910842758014168918e-01
-1.758528168401733427e-01 -8.999005407866834672e-01 -2.638752832530601444e-01
-1.836016114433750290e-01 -3.082169692184659193e-01 9.318956739365767961e-01
-2.620924128137955278e-01 -8.701638661025901111e-01 2.991657397399431484e-01
-1.988900763486728396e-01 -9.266803539061088113e-01 -1.111162570240946529e-01
1.704379318492210693e-01 2.215864585983012003e-01 -9.551692976126134882e-01
1.825704355010507318e-01 2.198217212036322477e-01 -9.619062994151040824e-01
-1.925452806632985958e-01 -9.740822938170189405e-01 -2.366212982262026476e-01
1.359976768016865900e-01 9.136833940722355329e-01 2.820428724826786748e-01
-4.738192265506577933e-02 3.146734370720521978e-01 9.478328447629984499e-01
-2.144808965637745590e-01 -2.386763627980632019e-01 8.999029186545812742e-01
1.920749744741040432e-01 2.873971451367470231e-01 -8.736973684489347525e-01
2.199667128669208493e-01 8.918095469007846221e-01 -1.834056045236890087e-01
-2.840680182211141602e-01 -8.545331731682640486e-01 4.759765060632830114e-01
1.240795152666722689e-01 -2.156186525811570331e-01 -9.666197669955354232e-01
-1.690493926992971685e-01 -1.919446242185116613e-01 9.154654165051095971e-01
-2.953317697962795640e-01 -7.807688439589538509e-01 5.652763925604595840e-01
-2.320187883110693683e-01 -8.781227813594799647e-01 3.157024036698982128e-01
2.196146835079878790e-01 9.301683760514782850e-01 -2.210535338894678847e-01
-2.370364425551473309e-01 -3.534556126523272224e-01 8.587108861074240762e-01
-8.460486744514296442e-02 -8.258570004421840194e-01 -5.066710772581975997e-01
2.780026554245356718e-01 7.654797872899824496e-01 -4.803639133664352467e-01
-2.960710094429181219e-02 3.627794271965746886e-01 9.270723059309247116e-01
2.443939921953558470e-01 8.774795024237134200e-01 -2.049958053182761031e-01
9.925604136229550234e-02 7.032203210850237474e-01 6.463362110878200228e-01
1.838614028309872583e-01 9.428764460001547443e-01 2.769708592934928548e-01
2.821530274930629245e-01 8.145491287565914673e-01 -4.028014147108548437e-01
-2.786245486569611240e-01 -5.429538093582964020e-01 7.697528407836663478e-01
2.311699073596934495e-01 9.597854305223684213e-01 9.961364910717797339e-02
-2.665333775258166837e-01 -9.533780037522603390e-01 5.856174379404065211e-02
2.430555192630122485e-01 6.654132319046318633e-01 -7.011194069131494455e-01
2.874626894276095523e-01 7.800860043616661965e-01 -5.424662097050275689e-01
-2.386102065240114090e-01 -9.724044432083742695e-01 1.808692233248689329e-01
2.884815564412943067e-01 7.974523443400327594e-01 -4.499858092265209830e-01
-5.513601615234640929e-03 -6.436612597285827908e-01 -7.684510472210803744e-01
2.368215203711836192e-01 2.775524751376309274e-01 -9.070216499202078397e-01
-2.109968231404142081e-01 -9.360009356450836870e-01 1.295706708815641817e-01
2.500468300523454035e-01 9.033754134833786864e-01 -9.712463084818692693e-02
-2.708851017438173581e-01 -7.923414748657446882e-01 4.633095592717277889e-01
1.583615075240541181e-01 7.811146145289986353e-02 -9.910054144347243410e-01
2.314017548513742639e-01 6.109211397110746455e-01 -7.474092428796742515e-01
-2.683846990662224208e-01 -6.877557345482685491e-01 6.074046609055284707e-01
1.839797746874344275e-01 9.478601510189913482e-01 1.856210535306723752e-02
-2.253287397667795011e-01 -9.227794770189702289e-01 9.821134148661901653e-02
8.899337869515623611e-02 -3.531929121813787154e-01 -9.047612944867839957e-01
-1.883938454692339615e-01 -3.297905122758104102e-01 8.780169837763298624e-01
-2.842848425615873142e-01 -6.156444956558040360e-01 7.028754772171715848e-01
3.359698502237013634e-02 7.184825729962455165e-01 6.663853646411714848e-01
1.938140046103186132e-01 6.965404839691560768e-02 -9.694000456912647001e-01
-2.101478230705678407e-01 -9.475206068346355703e-01 1.473793342349614399e-01
2.002660834974031787e-02 4.860769417037150708e-01 8.437659182531852542e-01
1.342940896455396826e-01 -5.522865960338936564e-02 -9.987624170681943525e-01
1.022389565509347481e-01 8.276605815924553688e-01 4.422948590012041326e-01
-2.866831583980951614e-01 -6.853570901068822829e-01 6.867292234287253327e-01
2.054115893066209564e-01 4.034199495432597704e-01 -8.242359576843651947e-01
1.999506957372080285e-01 9.109934694151093915e-01 2.984513638447870987e-01
-9.909932056564474401e-02 1.452971007309290241e-01 9.275616833542688067e-01
-1.050455397122422724e-01 2.848074415546819615e-01 9.149012511084214649e-01
1.375958234733581920e-01 9.018462568381644395e-01 4.074367705195425238e-01
4.962612510539646943e-02 -4.517427924846145748e-01 -9.007929094837023865e-01
1.884526067461564924e-01 3.290827215721157106e-01 -9.171947094761756514e-01
-2.050476485216763678e-01 -9.205584272507038035e-01 -1.641795562849699408e-01
1.085644849852733865e-02 5.226723746202370791e-01 7.802791703255496092e-01
2.582533038399468794e-01 5.105327605779508282e-01 -8.207503953686444698e-01
2.857297912838111520e-01 8.261978186081068154e-01 -4.725163177784742485e-01
5.813768587246513977e-03 -4.883900608103745600e-01 -8.858874776441612031e-01
1.672760579364906686e-01 2.664780355021001412e-01 -9.206343755239437820e-01
-2.160023129661384489e-01 -5.565433797235583846e-01 7.622584120388172790e-01
-2.113284589615378462e-01 -2.184002676082837935e-01 9.648769168781200500e-01
-1.269449289591733365e-01 -2.550700877343850884e-02 9.883985031456011816e-01
-1.663538636768344126e-01 -9.338623416017074463e-01 -1.769509361242297962e-01
-2.548228192838785100e-01 -9.636182396606002287e-01 -2.739391009454787002e-02
2.325428244912114695e-01 8.984179627960783288e-01 -9.992960545477738710e-02
-2.657208341619287095e-01 -4.635856724416126395e-01 8.491333706789880864e-01
-2.543415674989201181e-01 -6.783708997971562571e-01 7.130994661260614542e-01
-2.064849016136924287e-01 -9.177043239110608264e-01 -2.025567856685447921e-01
1.058906598424694673e-01 -2.942926602112036494e-01 -9.420238088068818572e-01
1.099605686569083418e-01 -1.096024405245712117e-02 -9.597997587671320829e-01
1.698512525849425747e-01 8.739911796359208784e-01 2.842211989772989722e-01
9.167063898699358282e-02 6.842452429833697503e-01 6.703698661380756985e-01
1.941611265697463506e-01 3.391352575155766602e-01 -9.162593895632801244e-01
-2.274553222753952497e-01 -9.853083273523683960e-01 1.016819125948440761e-01
1.906902891755288265e-01 4.714579520773071186e-02 -9.556553154141371742e-01
-1.374302215734586607e-01 -8.213170169137286314e-02 9.816109922053137815e-01
2.070463913447495030e-01 9.729626966191344817e-01 9.326173420287944826e-02
-5.190180126634236051e-03 5.399618084462713963e-01 7.710382615813322627e-01
2.512036774463085043e-01 9.497503329770010660e-01 -1.836982195301220810e-01
-2.155962750315767174e-01 -9.687121851706772535e-01 1.363643880084513815e-01
-2.537747780574020062e-01 -8.607721127587661947e-01 4.738346442207256870e-01
-9.854021058142004019e-02 1.068256161838436469e-01 9.381297176368846857e-01
2.196618267437370209e-01 8.977236879289545168e-01 -1.374526262441202740e-01
1.894701723779478875e-01 9.545185635204661567e-01 -3.016505351063605758e-03
2.163971856534118166e-01 5.190538581188385292e-01 -7.560897236617388772e-01
1.970439004139288089e-02 4.911734890774425155e-01 8.186716541108441936e-01
-1.614198712209612488e-02 -5.888889432192209172e-01 -7.457071364272465086e-01
-1.510570120184615006e-01 -1.293358910109062843e-01 9.796403100127203389e-01
-4.812373117063550171e-02 2.774536286034152699e-01 9.098774410104716326e-01
-1.636814531433032904e-01 -2.342504345477198768e-01 9.246748506936292022e-01
-2.244201836904778646e-01 -9.283891174117249179e-01 2.541240550262053536e-03
2.080092562237298992e-01 5.035354391908176686e-01 -7.786182885914205709e-01
1.067424477145240969e-01 8.311050533014363584e-01 5.487800198942284213e-01
1.734520531767815843e-01 -2.734992767565784175e-02 -9.726922023286678209e-01
-2.186611133446601518e-01 -5.960072671923614118e-01 7.446692298064578885e-01
-6.022948585399190424e-02 -7.898237956771156920e-01 -5.949632662704300579e-01
-2.914740393830654863e-01 -6.817513972657315291e-01 6.426697143397704926e-01
-2.710812085386282710e-01 -7.463979339625270715e-01 6.393215244597225677e-01
2.085861466242473761e-01 5.042117982519248587e-01 -7.769633303305005789e-01
-2.046053362555431410e-01 -9.415856254300734030e-01 -2.911067273456092175e-01
-8.654239711658263945e-02 -6.981242753525870315e-01 -6.511712379891485547e-01
9.607635137787043367e-02 7.621956676722739799e-01 5.333732977087809468e-01
-2.173411787517265104e-01 -2.562393247927582940e-01 8.942536694512591700e-01
-7.692053275549672053e-02 -8.217907676856699428e-01 -5.328048048285941585e-01
2.442125024709187187e-01 7.795030168200014487e-01 -5.633233878044369147e-01
-1.133947441046177645e-01 2.560180624097813662e-01 9.235952886281365570e-01
-2.962576999487504525e-01 -8.585167078754862846e-01 4.274137532249662197e-01
1.258807205524251072e-01 5.568866079218269538e-02 -9.704130091316900408e-01
1.744917116929016465e-01 8.645542728595322357e-01 4.080795122113257123e-01
1.473180209937265950e-01 8.264900043343809122e-01 4.215898528537673773e-01
-1.756462275270641860e-01 -2.287717230800943025e-01 9.064820969892276592e-01
3.330490115471625850e-02 -3.161255536188303794e-01 -9.107325382309421347e-01
8.456986509882925829e-02 8.298210024826127018e-01 5.272168417417580910e-01
-2.586600478459343266e-01 -9.075822598096300320e-01 1.776124509732491530e-01
-2.194141469973346081e-01 -2.939668991900977746e-01 9.456610885038391201e-01
-2.214424885832504408e-01 -9.695193314661600947e-01 1.554809077529339945e-01
2.813495152433697077e-01 6.510100101503436543e-01 -6.407227301351436921e-01
-2.602522945912591479e-01 -6.711579516394914346e-01 6.250912862092040667e-01
2.388747545840773645e-01 8.302352256439251565e-01 -4.780794230691842173e-01
-1.604077815132358420e-01 -2.229528967272984552e-01 9.396516665794750756e-01
-2.175814414464527502e-01 -1.778915946686279725e-01 9.561184515406553341e-01
-2.412733456705276336e-01 -8.828587032759286357e-01 4.182090214373903048e-01
-2.479527368030453593e-01 -9.225520054550609972e-01 3.431111482177713334e-01
-9.371006141231274372e-03 -5.689790069762720170e-01 -8.407515794139849286e-01
1.766664039533749897e-01 8.162684142375283003e-02 -9.253512264378870311e-01
-2.595606740016453973e-01 -7.564856289277817059e-01 6.285643992664737834e-01
2.582009830426190700e-01 9.470098752822040389e-01 -1.818227737010828515e-01
1.003083012213204228e-01 -5.788820651223031827e-02 -9.546406703020614559e-01
9.652221255638070152e-02 8.272225879114041280e-01 5.528919864421512065e-01
-2.137923341497304508e-01 -2.519054225223282262e-01 8.943579003581034748e-01
-2.422446835881326699e-01 -4.887519472728441561e-01 7.799265760049106655e-01
-4.795818248063894382e-03 -6.410085788020992714e-01 -7.351405071427083993e-01
-7.265444752321803534e-02 -6.500234216637200690e-01 -7.454624778403847740e-01
1.997188875825017806e-01 4.644482909139846516e-01 -8.152158089254706308e-01
-2.470202961948889941e-01 -4.043580391803750507e-01 8.945334213546155544e-01
2.132339086381858650e-01 9.727980374622682280e-01 -1.081096569190182280e-02
-1.681662924822078242e-01 -1.217689670310793254e-02 9.384335894129884892e-01
4.609817034973974666e-03 4.528904898888335140e-01 8.763103096064513986e-01
-1.706923060985975071e-01 -9.304242152161409374e-01 -1.705851159721322174e-01
2.168001744799569197e-01 8.899597324526992148e-01 -2.763659232435161095e-01
2.020045894119378016e-01 9.716591059096599814e-01 2.531849840452787478e-02
-2.335061775900355019e-01 -6.850429501109569497e-01 6.321356540236970911e-01
2.648078819891174288e-02 7.010526498746243451e-01 6.786932055436931677e-01
-2.440959799496583982e-01 -6.137631389498807710e-01 6.855508395166813873e-01
-1.927249074537059348e-01 -2.859152224698061073e-01 8.844522118998184856e-01
-2.717869016285013872e-01 -9.514234299676933571e-01 2.444243510252985252e-01
1.116625123739544562e-01 8.262753320378659616e-01 4.303145433217425708e-01
-2.781692783467993313e-01 -5.881681523934626510e-01 7.201530364256617522e-01
-2.249309328000493047e-01 -6.598879129372576813e-01 6.876202093250836089e-01
-2.078397779008933632e-01 -9.512544992176369396e-01 1.267522457908937805e-01
2.300582561259726100e-01 7.219607129882756880e-01 -5.626345542315975834e-01
-2.092097503857862362e-01 -9.657107856944102675e-01 1.139922817134304545e-01
1.968889918322419830e-01 4.333103774931713059e-01 -8.268705248778260852e-01
2.493997753194452105e-01 9.166932208309973573e-01 -3.109086815012401805e-02
2.222845917359828893e-01 9.324127762709053524e-01 1.888552311436234865e-01
-5.933661786741358662e-02 -6.396321113052358953e-01 -7.722253229920604811e-01
2.663496623214105519e-01 5.572164836731342552e-01 -7.197703206303004420e-01
-2.856505681425344778e-01 -7.745958600215617773e-01 5.038474498572472760e-01
1.188305964836546824e-01 1.485843614282889545e-02 -9.494372875559582425e-01
-1.040142445728124559e-01 2.479545713964608489e-01 9.121378570354061743e-01
7.294915173319320607e-03 5.501332688722867514e-01 8.408135366315810932e-01
-2.197659152622751244e-01 -6.009817215939344814e-01 7.490138400510375494e-01
-9.361397347132094371e-02 9.079336099203194621e-02 9.769991373496068610e-01
9.682607938996913577e-02 8.257022784069926180e-01 4.543644964270749931e-01
-1.399966837991739425e-02 4.676095880299993568e-01 8.143694028385468631e-01
2.521097906151004153e-01 9.276201918767829069e-01 -7.321081624469224711e-03
2.104463469819974897e-01 4.368442573138318630e-01 -8.694977009866358131e-01
1.636179767151574316e-01 9.334905756279771039e-01 3.187517137888903895e-01
1.824179460868748381e-01 9.325823879130366867e-02 -9.250052024559189956e-01
-1.936598165608734157e-02 4.392517332457449575e-01 8.305892400067436121e-01
3.686544276802938142e-02 6.091426374433190905e-01 7.939357344924141691e-01
1.184270170823900070e-01 2.663438324540619295e-02 -9.584041442535783384e-01
-2.173626253875269032e-01 -9.304059262679459374e-01 2.191889619841542181e-01
2.094593175982681355e-01 9.419698958971248759e-01 -1.483747810280790780e-01
1.375234244788594018e-01 6.326921854886695396e-02 -9.348773535458374528e-01
5.936930202700120562e-02 5.990147921064893355e-01 7.552908858258747804e-01
2.010526755254311571e-01 9.540023420254871711e-01 2.148636863665065733e-01
1.596757069979462887e-02 6.625287338097233247e-01 6.958006545767244644e-01
-8.717226918611460651e-02 1.183599792860186573e-01 9.480794839079941250e-01
1.573784920202073723e-01 2.041433993548242842e-01 -9.218364680219214291e-01
2.263103833078717597e-01 2.432369058177648868e-01 -9.023576266125057366e-01
2.751506741173437298e-01 5.896257125706559910e-01 -6.989148370326279114e-01
-6.576973270963801244e-02 -7.951740094233458178e-01 -5.679685831294151166e-01
2.382995198474752996e-01 3.337777018223718195e-01 -8.618668611569826332e-01
3.426423965968074248e-02 -4.034553636715604852e-01 -9.269262007700065364e-01
1.564142643424765999e-01 1.315805019349051419e-01 -9.211195977000008472e-01
2.015624554192017859e-01 9.589617787541613314e-01 -5.578931530694487828e-02
-2.075555625924018210e-01 -2.608957869861728840e-01 9.582420325907242686e-01
2.470847031817712258e-01 7.027005334545655124e-01 -5.640510744638500551e-01
1.718897469876285999e-01 9.275498335493953528e-01 1.020120109886517856e-01
-2.168148622398773095e-03 5.642704569177854346e-01 8.309705862451349789e-01
2.645182092651639505e-01 5.192091529210487444e-01 -8.090950431121353148e-01
-2.063724508372748734e-01 -9.830140117811572154e-01 -1.815587998946527060e-01
-2.510361607792641059e-01 -5.000054918154922534e-01 8.489698999427598425e-01
2.498666235249476786e-01 6.135305003558122472e-01 -7.512996705926109353e-01
1.544358939058824431e-01 8.582850297760052927e-01 3.346281919554279227e-01
2.706058615211106577e-01 8.381425746789038511e-01 -4.739762837803965234e-01
2.811068230419204797e-02 -4.019697991666735248e-01 -8.579816259270175438e-01
-2.066947998542117693e-01 -9.504484259881470498e-01 -2.721809921502424956e-01
1.255441026647278469e-01 4.994447752952198977e-02 -9.493017728781306674e-01
-1.192362546330118789e-01 -8.107910822397345063e-01 -4.854127739350053705e-01
-1.184449790485827547e-01 2.003846810369524223e-01 9.783179121231709852e-01
-1.179785536596413865e-02 -6.361339413102481410e-01 -7.228222998716500314e-01
2.868708178950892251e-01 8.686747399807815961e-01 -3.258858170226482942e-01
2.507791488771313748e-01 3.665099705687189235e-01 -8.607163331766648495e-01
-1.084345870618462770e-01 -8.342484485036849584e-01 -4.566988070246820186e-01
5.374793153103732402e-02 5.873168777640918048e-01 7.765567605464235301e-01
-7.594900111143834676e-02 -6.561397881532012866e-01 -7.366176810468402225e-01
-2.713991241097331031e-01 -5.065471771706698823e-01 7.874224825712329290e-01
-2.252606472516442138e-01 -9.084767448228492359e-01 3.114378925851163382e-01
-2.272070139316183790e-01 -9.168178655468277594e-01 1.464799001202466144e-01
2.616058573969686218e-01 8.338955912690843020e-01 -3.369834425032281477e-01
-4.195568993436767091e-02 3.267179247987854751e-01 9.421697069202085162e-01
-1.111284155575766597e-01 3.330720956343713457e-02 9.482174486214406395e-01
-1.108248218735770202e-01 -7.841522187479331718e-01 -5.298347630619093529e-01
-7.878539225924668238e-03 6.063827855892367502e-01 7.564548861650182143e-01
-1.170446014676130610e-02 5.890901706449529485e-01 7.621104694399513102e-01
-2.233660685385874534e-01 -9.223493457234259729e-01 1.151016023255309051e-01
-9.804685654943648410e-02 6.254273753044270467e-02 9.684337697815907919e-01
4.931108962719777528e-02 -2.559797184442368922e-01 -9.301598789976630588e-01
7.667420310721066723e-02 -3.937451985316249292e-01 -8.878558419070404772e-01
2.840432699724053101e-01 6.413991608899246577e-01 -6.593577937892869389e-01
1.977625233144996719e-01 3.707700468260455851e-01 -9.011607159308157033e-01
-2.825920649319200728e-01 -5.836922919535972865e-01 7.637990120723070486e-01
2.134917661628844832e-01 9.412199753473317054e-01 -1.678083111167519847e-01
1.298100824453627400e-01 -3.875015213895577348e-03 -9.945086194974487315e-01
1.109987167569913558e-01 -1.907147349243788204e-01 -9.219984034753135882e-01
2.538185584788830718e-01 9.177366755000141429e-01 -4.903257844374023927e-02
8.244305854399709699e-02 8.048663222808472018e-01 5.003790540275119270e-01
-5.172385058447311057e-02 3.406947471629700464e-01 8.754394222953302274e-01
5.199591479412152273e-02 7.571124254342276316e-01 5.960764922278313227e-01
2.322170428781072937e-01 9.712016020591850429e-01 1.539668157342012969e-02
-2.300043816293215471e-01 -9.165852160463500153e-01 1.372052642727648597e-01
3.042587094660142988e-02 7.071721577191392161e-01 6.871677008509633477e-01
-2.366530194596885017e-01 -8.421630721559298927e-01 4.789199275123761645e-01
-1.904875700311854658e-01 -2.573969132622820899e-01 9.590526961375557269e-01
2.213000223413489898e-01 8.678070370983036463e-01 -3.452444376579349994e-01
-2.795788083901103449e-01 -7.492270300471168820e-01 6.308581822726779809e-01
3.838976113516184320e-04 -6.336076468626842262e-01 -7.508564036290203969e-01
-2.245014376216153962e-01 -9.301525513521212707e-01 2.698261588349278872e-01
8.519183261030330301e-02 7.971123947310718716e-01 5.011246739772389214e-01
1.005671562920870815e-01 -3.136400894816798179e-01 -9.189422051842464079e-01
-4.278024547251141341e-02 -7.470321331317990587e-01 -6.411940135236791072e-01
-1.727464957894999931e-01 2.578453536904014992e-02 9.546048693924978901e-01
3.334213046385768597e-02 6.399731778594188736e-01 6.864086352686220582e-01
2.158007258539489381e-01 5.728388973150336794e-01 -7.269183488000517945e-01
-1.659697447395951653e-01 -8.696067672446644581e-01 -4.613007706750588688e-01
2.671221239835662731e-01 9.042286879838388192e-01 -3.311644230206827189e-01
-1.897433388765752127e-01 -3.841663793503961866e-02 9.694129066998663502e-01
-2.639184473001897069e-01 -8.827844173526195881e-01 4.365508809159285297e-01
2.606951930545101659e-01 6.868488285259500836e-01 -6.807421638454285162e-01
1.851786337094266377e-01 9.422673697444126084e-01 6.091394462734676940e-03
2.249096579739618962e-01 9.201401833827466126e-01 1.588326639858110845e-01
-2.361612298504247032e-01 -8.043468021667465884e-01 4.744640260413268140e-01
-2.775660029899083003e-01 -9.426259549550933814e-01 2.618307221853699018e-01
4.939797712908187283e-02 -3.901472623741689683e-01 -9.338690524228153711e-01
-7.451769561149700072e-02 -8.200890807576556307e-01 -5.680618288375329783e-01
-1.824277191645816143e-01 -9.718233371719436908e-01 -6.863068595949341211e-02
7.392967274025166735e-02 8.026021319349989636e-01 5.770793968055234480e-01
-1.555458063997419149e-01 -9.238361325707106220e-01 -2.312442031142479815e-01
2.533013439632796349e-01 9.566312750985019875e-01 -3.713335905422375516e-02
2.915996587631783932e-01 7.424512003876568844e-01 -5.495789581741736818e-01
1.258993151673393207e-01 7.890683501812545408e-01 4.930886365317714293e-01
1.170522423090168164e-02 6.327670779880097962e-01 7.734222399679693272e-01
1.343668827286581269e-01 4.089362893765473989e-02 -9.884628735870040206e-01
1.181878876544271428e-01 8.928604478302568648e-01 3.981612223365363912e-01
-6.435604660001141564e-02 -6.892118836171555740e-01 -6.516793049576878882e-01
2.181134714552769582e-01 5.980315832349533123e-01 -7.402509842153354169e-01
2.249993326700153520e-02 6.586081866166062504e-01 7.519888237463667746e-01
1.588518864312058743e-01 1.883063860231297404e-01 -9.173201584769420380e-01
-2.533453586986566530e-01 -7.403632093958316673e-01 5.442327622177830504e-01
-1.061265095307934586e-01 2.847044724913587802e-02 9.683160138347773893e-01
-2.443410351189464758e-01 -9.056987785065028218e-01 1.782972953157768714e-01
2.424631941368346477e-01 5.019836154802493899e-01 -7.543578198403714241e-01
6.183856888398527041e-02 7.323343938528968922e-01 6.821646798828617797e-01
-4.874103566213434241e-02 4.197819777635888316e-01 9.130518032428259767e-01
-1.200121384736616559e-01 -8.529863479411091687e-01 -5.441290953131026065e-01
-1.986753058828960306e-01 -9.730345610911752541e-01 3.447210920630123382e-02
2.303696534537193197e-01 4.905645068348837290e-01 -8.423488064490824989e-01
4.110885725879869640e-02 5.479713468061715442e-01 8.000507378176718865e-01
4.667439791169718938e-02 -2.791738132840315134e-01 -9.153408403191546361e-01
-2.324083839742662472e-01 -7.556366343187205237e-01 5.937869742184012090e-01
2.671598958003292279e-01 7.900479466686536334e-01 -4.293498093381393210e-01
-2.379715414905893001e-01 -9.064252755445124654e-01 1.812148224748094394e-01
-4.331213113148364713e-02 -7.205017643363695878e-01 -6.404733657685305337e-01
-1.200158730340583346e-01 -2.497096836386329330e-02 9.764733523592006303e-01
-4.024305843371980135e-02 5.127621445707687409e-01 8.249739209288751152e-01
9.371932340471834932e-02 7.398553184477120181e-01 5.659472856142743202e-01
-2.716452547718327115e-01 -5.059005518362151843e-01 8.232946198693232853e-01
-1.921713607792121803e-01 -6.488265195352112269e-02 9.780445570888200990e-01
1.887117547507237147e-01 8.923152322256806546e-01 2.063867101910755730e-01
-2.837237776417135260e-01 -7.101218408332373722e-01 6.682544532848705421e-01
2.148260984112816130e-01 5.193343353063804013e-01 -8.119771223742411337e-01
-2.372432192547989094e-01 -8.583188032443759274e-01 3.555298893155607320e-01
-2.305464773587434513e-01 -8.580761079905995237e-01 3.892657048537046527e-01
-1.809327483167123274e-01 -2.505019020516861539e-01 9.574649950429098277e-01
2.621633536850226931e-01 6.562057267891013845e-01 -7.103632077953098145e-01
-2.410943102470153865e-01 -9.509136646092682943e-01 -1.059216525466138981e-01
-2.199933405260831587e-01 -9.292988835130515657e-01 2.443157223615839979e-01
2.166824901959083505e-01 6.014590381316142764e-01 -7.301115016938410918e-01
1.905034599128679618e-01 9.695434040856457658e-01 1.081944806725428365e-01
-1.108906835393502904e-01 -7.657345118133579431e-01 -5.616886274523215095e-01
-2.129173883374022580e-01 -2.252897945119420597e-01 9.629031205353864031e-01
2.465832291474988058e-01 7.078135515352699247e-01 -5.578758246728049430e-01
-1.153699198391835989e-01 5.871504957758208465e-02 9.380369713409674182e-01
1.633358550778235829e-01 8.554212170929166303e-01 4.515977413283799313e-01
5.125634912867443188e-02 5.796767797422850421e-01 7.816458045663057241e-01
-2.073969240178914486e-01 -9.186635614981082387e-01 -2.731895068885086819e-01
2.455313989438297206e-01 4.771425677056516101e-01 -8.478411277350493824e-01
-1.931316991664553950e-01 -9.175163737111121653e-01 -1.787506741805265920e-01
2.908406480612995004e-01 7.216046353420958459e-01 -6.013254399987310039e-01
2.383540139356903065e-01 2.881666298223735656e-01 -9.086792301242831993e-01
9.506274117145668834e-02 -9.355010740608733777e-02 -9.811782322247435406e-01
2.108698577785326489e-01 9.058372401268418583e-01 -1.367665411217550975e-01
-1.191946803481678113e-01 -8.894019712842324843e-01 -3.771340645846635864e-01
4.707011011388029936e-02 -4.805388970194977016e-01 -8.795310250041128430e-01
5.408192911662070695e-02 -4.692481686311514300e-01 -8.779313130420625111e-01
1.477122642132459862e-01 1.659496543363269960e-01 -9.459145410494343986e-01
1.570539532324828971e-02 -3.818072414206817866e-01 -8.829481490379184061e-01
-2.634900917033428103e-01 -5.573603434388277877e-01 7.340867343237243992e-01
-2.740389560183079110e-01 -9.102956839046066895e-01 2.024201919178951481e-01
-2.403591172052147173e-01 -3.447980696321475413e-01 8.663752356848096747e-01
3.165159228631522076e-02 6.038267432137124358e-01 7.163196908018607534e-01
-8.288552224323654516e-02 -7.686667672620242087e-01 -5.586924586425483508e-01
-2.254919601231741288e-01 -2.323924117950932344e-01 9.486565836598169765e-01
-2.710721768245552554e-01 -8.894828394867257959e-01 2.547059007931080643e-01
-8.996268065473347897e-02 1.204705546906335301e-01 9.808763507726909747e-01
-2.279147290295550354e-01 -8.799360109579315026e-01 3.668779814084259239e-01
9.242851060754329884e-02 -2.705747669478681394e-01 -9.063468027180978659e-01
-2.437852749861260104e-01 -7.945868026121752914e-01 4.733868442450187008e-01
-6.393936934232609393e-02 4.371353244048437614e-01 8.823393759401054748e-01
1.975754566054956918e-01 4.382422379392207912e-01 -8.513884376101601426e-01
2.207153325496437057e-01 8.858659227287143390e-01 -3.188529459329590421e-01
6.377546182337000963e-03 5.968821142173643679e-01 8.064612790110157192e-01
-7.257933571313571197e-02 -6.476663479948999713e-01 -7.128504214341885303e-01
1.100163709025016867e-01 -2.529115305436767103e-01 -9.207635638216999929e-01
-2.184612117458513414e-01 -9.220396114742313021e-01 1.844108655469965108e-01
1.949740534309145068e-01 1.135889266034832007e-01 -9.756317853979569188e-01
2.262118820985445089e-01 7.627911916325107455e-01 -5.305440235909205660e-01
-2.769981414849125717e-02 3.328498582665623262e-01 9.203811485990304186e-01
-3.608386825198614534e-02 4.004344574566084392e-01 8.497154601781604644e-01
-2.932656593193340155e-01 -6.871180401446433939e-01 6.435029578176095777e-01
-1.680377490196336976e-01 -1.822704246632686209e-01 9.746949279268640742e-01
6.306899166026158632e-02 -2.482524044922153061e-01 -9.677904218034143469e-01
4.365368182262490543e-02 -4.610911771925561564e-01 -8.379986485080479497e-01
-1.298784412281814293e-01 3.253222816605435413e-02 9.353126102134641240e-01
