6.000550959506449900e-01 -6.153193963859796556e-01 3.412267353765734423e-01
9.699763156149405763e-01 6.372861724249681559e-02 -3.944769560074525006e-02
9.215605728398698071e-01 3.365249588826888516e-01 -2.170269236428751525e-01
-2.822867807365131432e-01 -7.512976488121729801e-01 5.018023454377059656e-01
8.756268990352994441e-01 -3.261924902980885554e-01 2.012862656206124423e-01
3.603776725448998297e-01 -7.234174576138613366e-01 4.338588411758405039e-01
1.646690423604974252e-01 -8.005240003633345980e-01 4.519344059216913734e-01
-5.579570758424933219e-01 -6.742411164272001933e-01 4.210830629481027709e-01
1.512594779346140839e-01 -7.734068828394863315e-01 4.641044999058052678e-01
-8.908296871106980985e-01 4.125694902656906193e-01 -2.104320383902183456e-01
8.735593040488762728e-01 -4.014825350671579751e-01 1.921233151970215547e-01
-7.016592282448568252e-01 6.363160725770344861e-01 -3.580701703501921185e-01
-5.720812219932576159e-01 -6.647157428969945325e-01 4.036469471978851309e-01
4.743559821081816397e-01 7.640857632794204601e-01 -4.531834773239478698e-01
-7.089262820011084099e-01 6.299524563169996982e-01 -3.394051237405650845e-01
4.905309106359368454e-01 -7.305375953299834135e-01 4.160089007097815816e-01
-3.823738531003749164e-01 8.154157922993980900e-01 -4.596364408010720770e-01
9.393134461574749183e-01 1.517318564944569459e-01 -1.540502878354969574e-01
5.634456982913854661e-01 6.658158478178048956e-01 -4.577204382233573954e-01
8.565224603574675966e-01 3.607744167898461751e-01 -2.345136070976040210e-01
9.393047756644774468e-03 8.310893636947311869e-01 -5.399304930341789488e-01
-1.896658155708740578e-01 -7.576121504255483030e-01 4.967428823771501412e-01
-7.663292471509445258e-01 -4.681831804895099092e-01 3.433281308374538932e-01
-9.154742313465383807e-01 -2.895623590532686586e-01 2.111841458253868320e-01
7.522453303159594151e-01 5.024777402580196117e-01 -3.232936182609760234e-01
-6.820256451104722561e-01 -5.154092688654606791e-01 3.378971038088118828e-01
-3.161217729876024674e-01 -7.237111681593193513e-01 4.774969042199435632e-01
8.406228267174525870e-01 -4.477753454304796987e-01 2.200027839562154197e-01
-6.919895994602180966e-01 -5.195709342197866176e-01 3.240142747602330342e-01
-9.835135386435045479e-01 7.603285250359624603e-02 1.154524208473556475e-02
-8.005774745298855910e-01 -4.680023802361052976e-01 3.103120851310567918e-01
-9.886334111479389009e-01 4.123369872250128021e-02 -7.075205190406747002e-03
-7.540038838018631173e-01 5.579723333068037361e-01 -3.414484761877521479e-01
1.581497473669723208e-01 -7.704204402254569706e-01 4.936016678555509851e-01
-8.596027010095123044e-01 -3.866013238974813082e-01 2.451136116382334196e-01
-3.133447374104471050e-01 -7.241644881677703482e-01 4.633948518700873320e-01
-9.338122102305944638e-01 1.967645395973246780e-01 -1.180410721584760347e-01
-4.505103731829291913e-01 -6.967718377802177843e-01 4.721225713562224313e-01
6.596409001637841552e-02 8.750850124674701691e-01 -5.166646733429015592e-01
6.705273422735128497e-01 -6.227007344758194174e-01 3.451886412387987213e-01
-9.135612900556837612e-01 -2.718496467072856193e-01 1.684978134183020282e-01
9.439108934031319453e-01 -1.381544933750329662e-01 8.250817809416424731e-02
-9.151089095207904922e-01 -1.997473754925914724e-01 1.251607578089897754e-01
9.657867387550060911e-01 -3.603797774701490014e-02 -4.431061823014328244e-02
3.140134794266775664e-01 -7.545318728628312988e-01 4.827617888599543550e-01
-7.698972066720357610e-01 -4.204923704719319977e-01 3.063920782621800676e-01
5.281747654942551273e-01 -6.618638704432237008e-01 3.697002566482462393e-01
3.365026673170442434e-02 -7.838674787224235718e-01 4.697568674505729902e-01
-9.486039242419364026e-01 2.682992415638105754e-01 -1.055447631209963932e-01
-4.101927500662540249e-02 -8.289770660227852028e-01 4.823580983178613057e-01
-1.767081219781744261e-01 8.169847427714489463e-01 -5.238913108549525521e-01
9.057932949955835311e-02 8.404226927126595692e-01 -5.463100791385708810e-01
-7.849764282746861666e-01 5.269408882666487548e-01 -2.602995829432339092e-01
-8.377604415819467354e-01 4.914988790091978088e-01 -2.522562473706832509e-01
8.757401631769054506e-02 8.473863725814226866e-01 -5.466171834418833697e-01
5.314996249166974440e-01 7.247747013595976506e-01 -4.275064364070951251e-01
-4.292296004924716080e-01 -6.804266408572420266e-01 4.360468759944504114e-01
6.314184079858810028e-01 -5.905563024390430016e-01 3.278980146656484407e-01
-9.609428965891637642e-01 4.074207825426424956e-02 4.256859579962414541e-02
-7.038495818847398944e-01 -5.457344007541323760e-01 3.804839609575526027e-01
2.453471418467789156e-01 8.219841771192275548e-01 -4.800525829698941149e-01
1.041309281597284642e-01 8.602117117470039487e-01 -5.409183089477809236e-01
6.616206036855005745e-01 -6.279448151480185869e-01 3.390441208373946580e-01
-3.863838015983054874e-01 8.152206351232398340e-01 -4.640455142783674880e-01
3.576489758000874208e-01 -7.659461747219249439e-01 4.221921568125550084e-01
-1.926854377981739308e-01 8.217697461232112977e-01 -4.770710539749469792e-01
-4.159121849336978871e-02 8.245779673776096885e-01 -5.303230458491339228e-01
-9.214135818899229502e-01 2.475579262812313552e-01 -8.899847397481061573e-02
-5.211607536640773253e-01 7.329693851668502846e-01 -4.539605713497401607e-01
-8.652921679568945645e-01 4.327891311942549391e-01 -2.540075827705260969e-01
-1.122808503339632613e-01 8.552562588271339639e-01 -4.849440406804177983e-01
-9.836676454139099413e-01 1.480301754496692046e-01 -5.929445773290543259e-02
1.599433365085787262e-01 8.075414939835041661e-01 -5.139816694900505301e-01
5.975584120206570704e-01 -6.072820629842708984e-01 3.530218941635270835e-01
7.274080464838236226e-01 5.472029137662964837e-01 -3.346756232586883817e-01
-2.693961674771799264e-01 8.107197652224925610e-01 -5.174231387669960824e-01
4.820014524599461336e-01 7.511723784792775360e-01 -4.908342166309047072e-01
5.561598539103488337e-01 -6.318890732966806478e-01 3.834491787593592993e-01
-7.304081739453648359e-01 5.547973891453730211e-01 -3.453836166227327586e-01
9.387091120674985190e-01 2.952053011810670813e-01 -2.217507071203100866e-01
8.497443139819621516e-01 3.849127419533472927e-01 -2.968156683942557716e-01
-8.659347920607025628e-01 -2.831252002035341553e-01 2.323986348434479432e-01
-4.513513109082854524e-01 -6.888258203578578875e-01 4.695951298684771791e-01
-9.845856012552535175e-01 1.370842517030430585e-01 -3.820415628720093965e-02
4.146249236645601077e-01 -7.309446775550955122e-01 4.033816637319932452e-01
7.390344189637878536e-01 5.819786192957524529e-01 -3.869802519389239359e-01
9.532785404681006769e-01 -1.992850711185098767e-01 1.166689001585071161e-01
-3.820867545295686396e-01 -7.116749785678974094e-01 4.341341694612261271e-01
8.081383829966474197e-01 -4.049994145280534918e-01 2.184585795026572352e-01
-9.873579055590451237e-01 1.222887380759204307e-01 -3.474181742920780941e-02
1.614312653502656542e-02 8.296423571671289743e-01 -4.978958205228933287e-01
5.259287567243247086e-01 -7.011375443469213264e-01 4.240211004893896241e-01
7.855789792977663222e-01 5.093675933563940328e-01 -3.648340946466434032e-01
-3.667179932605588721e-01 7.640679855872508641e-01 -4.582187457445723311e-01
1.927190407239083025e-01 -7.805816322858619705e-01 4.494794137582099891e-01
6.206844941458184994e-01 -6.242224860380073403e-01 3.291787160947559632e-01
9.554527521311200200e-01 -7.437032800619931827e-02 4.301005178933861584e-02
-9.754141800729881906e-01 -1.125907696194825974e-01 1.095373513070632132e-01
8.600739177465543950e-01 3.559606017573690440e-01 -2.305067107595669684e-01
-7.867567789440198522e-01 4.989106862892766503e-01 -2.490894388453709918e-01
-5.524291336281522691e-01 -6.599848301740723899e-01 3.895759952608489618e-01
-5.955898757018071032e-01 6.963259645523430796e-01 -3.703635800249633347e-01
-9.346651731134030250e-01 -3.966877136462926626e-03 3.371776382394860855e-02
8.574804377050778692e-01 3.430614585412778417e-01 -2.518485624854098215e-01
8.827323974879650592e-01 3.561120999138033816e-01 -2.159204930666955569e-01
9.644697037904725878e-01 1.620688386896187716e-01 -1.618202713231019774e-01
-6.111375160636909332e-01 6.766665200659116586e-01 -4.183892303080888886e-01
8.858734259298919334e-01 -3.881182860740042262e-01 2.003944741628146675e-01
3.266435444609907535e-01 7.739274439666544714e-01 -5.144406836392335647e-01
-1.978096675993835651e-01 8.574124707356121089e-01 -5.195136563470722502e-01
-8.473712938154351892e-01 -3.910584592014252903e-01 2.859915448022651852e-01
7.608602977401607292e-01 5.277557958563484641e-01 -3.786892536870600789e-01
-8.927246807087179103e-01 2.760111963012328862e-01 -1.409643129313269960e-01
8.377888325821553073e-01 4.666971556699781032e-01 -3.257458889264929214e-01
5.330874526508564415e-01 6.805517388509940702e-01 -4.637223171923313680e-01
-1.843602075198688961e-01 -8.137178541742744464e-01 4.845177856573134045e-01
9.113303605541600572e-01 -1.990128106052282964e-01 9.617630614353825380e-02
5.706158215571677239e-01 6.900541767861413378e-01 -4.671260811094147258e-01
4.601622238626780770e-01 7.691453631987735795e-01 -4.545120722814636749e-01
9.480457865718260324e-01 2.084828297886484050e-01 -1.269805215366352491e-01
-7.307996675901147210e-01 -4.635534703675827095e-01 3.156930177394469128e-01
-3.795707893732645499e-01 7.671269538642562225e-01 -4.441840649675158348e-01
-9.745532322576576645e-01 -1.204395588479131030e-01 1.106008632773476941e-01
-9.372188573621109686e-01 -8.165034661786296777e-02 5.869452730597757989e-02
1.343335514864753555e-01 8.152468367418259643e-01 -5.311254313694746543e-01
-7.708478155811608890e-01 4.971561653533096981e-01 -2.635132801622336318e-01
7.983243160100852442e-01 4.805730416700031427e-01 -2.903911436288217907e-01
-3.767694210414578720e-02 -8.080140189316330490e-01 5.192500147473416705e-01
-9.507291399312077784e-01 1.700061071512126154e-01 -3.673487291728979448e-02
9.017033054890100097e-01 2.791986980851891009e-01 -1.786953792297765464e-01
8.617388953935641860e-01 4.421666684736889064e-01 -2.994360319559897787e-01
-6.507003455922610868e-02 -7.909325069385929607e-01 5.180366393142040726e-01
-8.688906977449912805e-01 4.393847774130335559e-01 -2.120620535156953201e-01
9.649846838946821714e-01 3.650204627497197207e-02 -2.380075404995277838e-02
-8.810552406928187086e-01 -2.403601005188092388e-01 2.008166802741563339e-01
9.535838858726185530e-01 2.493376131394216544e-01 -1.603536560119801224e-01
-4.834240843462411785e-01 -6.958914552453711044e-01 4.630782595748823005e-01
8.204975316912325178e-01 -4.437875231408426324e-01 2.093416540471736420e-01
-8.598822975456337225e-01 -2.851939086939173640e-01 2.280852773953164769e-01
-8.825645796755194894e-01 -3.536806883991014394e-01 2.347260527259749929e-01
-1.920284507801645890e-01 8.610733522922345839e-01 -5.159016338819711889e-01
-1.669597561259299201e-01 -7.988596974725963307e-01 4.611816893981446341e-01
-2.875539270336217867e-02 -8.023339804844372702e-01 4.631357193786771465e-01
7.118620177593036891e-01 6.128560032121587176e-01 -3.915198274468879580e-01
4.559411050820134648e-01 -7.105228702513430861e-01 4.494381629091809272e-01
-4.917291798766482841e-02 8.431352274014490833e-01 -5.437358801245668616e-01
9.432079065115251959e-01 2.811249527121227956e-02 -5.113529495278572312e-02
7.836485652043212458e-01 -5.025396012199150331e-01 2.474424185207339533e-01
2.957252948133003434e-01 8.029633859802308704e-01 -5.303890933074149050e-01
-9.658897042389952281e-01 1.626484433727768547e-02 5.751036293364208962e-02
8.450969379881857479e-01 -3.697694869493461933e-01 1.745926118919117476e-01
-1.406171454959007638e-01 8.148758094012851227e-01 -5.011701285425209651e-01
-8.054002295182945970e-01 -4.542279494447203358e-01 3.157786402970237938e-01
-5.084148041943470364e-01 7.037464302595629606e-01 -4.106835787410182403e-01
9.830073918824122625e-01 -6.138032574753568560e-02 -2.547459354943629878e-02
-9.334499048234284890e-01 -1.792578672264698650e-02 4.785232206999850274e-02
9.481774911659331118e-02 8.728106443885874643e-01 -5.181553752251565337e-01
-9.853350689815213448e-01 5.736724129941490197e-03 9.511276653322220040e-03
-5.697322383308687233e-01 6.643042003088158731e-01 -4.007391015381820409e-01
-2.608580109647788969e-01 8.016370691854950437e-01 -4.708614560030409124e-01
9.645459565535168256e-01 1.816328332118490874e-01 -1.703828225507049710e-01
6.966684914124188222e-01 6.050810356299552994e-01 -4.150743061716257176e-01
9.251458937252236003e-01 -1.515502711983846562e-01 5.664366308339595368e-02
3.740446220580137537e-01 7.686209146593306896e-01 -5.148441207385243690e-01
3.944273455576444501e-03 8.344830776916082327e-01 -5.421905133833364587e-01
7.992575834585051719e-01 -4.787920482299707903e-01 2.889349611002846041e-01
6.424839145394911633e-02 8.593467990349414887e-01 -5.441457133784088906e-01
-4.078389764442117427e-01 7.523854571217278853e-01 -4.406297266037981220e-01
-9.865483901467476668e-01 -3.850725075691217858e-02 4.446180702070678947e-02
9.165802751888046940e-01 2.512026205623352215e-01 -1.583846793110470219e-01
9.755341302718966157e-01 -1.706753148764654504e-01 8.098188352561633274e-02
-7.133903957443877841e-01 -4.927272707961867781e-01 3.570538500499279566e-01
8.371794995440504650e-01 -3.666859729942927304e-01 2.183429668498152731e-01
9.576119710154459286e-01 -5.446798840926093260e-02 3.063603786547015526e-02
-6.865035159971141221e-01 -5.422144447555989899e-01 3.266660319021931769e-01
9.295407956140673278e-01 2.145007705114249652e-01 -1.956039968912784421e-01
1.977335350253550117e-01 -8.131343727644381181e-01 4.592751152688152594e-01
-3.864160797798772418e-01 -6.971817500650130395e-01 4.523764583638888448e-01
-9.807901261774460977e-01 1.640375178224885988e-01 -7.035237674014759024e-02
-1.570652521206719610e-02 8.358083120100375796e-01 -4.927505936727005209e-01
9.703153245796655169e-01 2.059909196684646948e-01 -1.682859531721033475e-01
-5.056247212513024225e-01 -7.035136403285557893e-01 4.267258770441222371e-01
-9.823503601999260537e-01 2.913029197588161770e-02 -8.668044243969016613e-03
9.105416303196802730e-01 -2.582397267643573024e-01 9.658942617172948386e-02
-3.481412663690490739e-01 8.263153789743208355e-01 -4.666101841599705757e-01
-1.612460098166910299e-02 -8.315354342201197735e-01 4.897870535075429799e-01
-1.578141868596805997e-01 -7.920784049455923403e-01 4.597219410889964997e-01
-7.234602431293961633e-01 5.465899216429110918e-01 -2.998473452581181808e-01
-7.047377780585162288e-01 6.064632686506041814e-01 -3.716543780456027513e-01
-9.133997412876482258e-01 -1.812365180039734458e-01 1.741291151219246935e-01
-9.366684670860220274e-01 -2.402697675053262760e-01 1.842233866185757074e-01
1.000000000000000000e+00 -7.516027557777861003e-03 -2.920231860165800955e-02
8.447854993545398372e-01 3.653970700705342911e-01 -2.629399395054466404e-01
6.097337231818532599e-01 -6.088495176933345077e-01 3.824316236969682592e-01
-7.507428262297100030e-01 5.680798706752560046e-01 -2.866461184207941271e-01
5.232490649322776299e-01 7.106763199367348571e-01 -4.817483193608996794e-01
-8.708998687426534602e-01 -3.573143197808086868e-01 2.646289665332994256e-01
4.396291497436004003e-01 7.351680412952175114e-01 -4.965638227556032902e-01
8.684963359621401535e-01 4.341194396438742831e-01 -2.888832515256781752e-01
-9.352929532868290430e-01 6.355016737124824511e-02 -3.453120095086334700e-03
-8.074677662834690572e-01 -4.602792214288925488e-01 3.039399848019888051e-01
-8.752007855034885653e-01 -3.636556082956281521e-01 2.343887073402887711e-01
9.717862143149065268e-01 1.362093248310438098e-01 -1.452858135701026732e-01
-1.564613744491855085e-02 8.734405860195968430e-01 -5.327875039463579876e-01
-8.850660931285476707e-01 -2.959963509331824949e-01 2.433860019230299765e-01
-1.566216326228504208e-01 8.535382461348113292e-01 -5.325566459062243130e-01
-1.188877294998060552e-01 -7.748549623724937385e-01 4.699191931835867142e-01
-8.338271507789071224e-01 4.002599696717608069e-01 -2.317704920394376700e-01
-6.642982305169354840e-01 -5.528785869392316421e-01 3.943505031140638883e-01
-1.237939038545120968e-01 -7.806568585684179329e-01 5.144898881566333237e-01
-2.308378771589243983e-01 8.286736519295455627e-01 -5.256917741767499486e-01
-9.393709788011779249e-01 -1.571858193102249335e-01 1.615726376573223266e-01
3.814047984793376700e-01 7.548841641431618399e-01 -5.048886804085267466e-01
6.936010481093279889e-01 5.563457930409455576e-01 -3.649766083963043584e-01
-9.472679604512087570e-01 1.455215514656310605e-02 -1.235532518567318550e-03
-6.661789019387208688e-01 -5.612729584562153873e-01 3.973251113932826928e-01
-1.835496154386550560e-01 8.362040203621156076e-01 -4.752033818468863191e-01
-6.025452341146512181e-01 6.490012323117465565e-01 -3.673819188687215131e-01
-8.039232607236339589e-01 4.435163690385553470e-01 -2.498877861602741002e-01
9.412383665305681379e-01 1.883154468501910539e-01 -1.171772910936946382e-01
7.224300939773574681e-01 5.318228807587681572e-01 -3.439945805651159483e-01
-9.034899199147268245e-01 2.463880558469430937e-01 -1.161705686824917594e-01
5.849904001821616406e-01 6.964276576062384816e-01 -4.582088320312437402e-01
4.949167403782845920e-01 -6.787407768747174552e-01 4.301268011749337372e-01
-7.823336868086270268e-01 5.140661401020770738e-01 -2.550217931720501485e-01
8.204059897201094742e-01 -4.773795712309278905e-01 2.629609715003981552e-01
8.274289582141464150e-01 4.026280417534758294e-01 -3.005814178816571536e-01
-5.370069052478145810e-01 7.413783489219106793e-01 -4.412833330344394511e-01
-9.109143223747155904e-01 -1.470654895722351418e-01 1.348540169970555147e-01
-4.821488656803036288e-01 -7.144771671459093643e-01 4.293333034411052074e-01
-7.526229115494202926e-01 -4.859431649771467354e-01 2.915457352909986977e-01
-9.453709920092093766e-01 2.159489442354968758e-01 -6.485372171219570825e-02
9.995071603292249307e-01 3.827755274442423694e-02 -5.532306071689712529e-02
-9.415249380713927585e-02 -7.798356959099776997e-01 4.689073773926981659e-01
-9.565759001546491058e-01 -8.358386731760966692e-02 5.200527168212973339e-02
-9.480334178747057416e-01 1.811489904610056323e-01 -4.371857716274940575e-02
-8.455256966288553500e-01 3.800995691151883293e-01 -2.182432195868388158e-01
3.369943223342097838e-01 -7.308343855594844340e-01 4.602000342070181604e-01
1.959011660835912882e-01 -8.117410464857075514e-01 4.953251631811022015e-01
-9.327939960164725042e-01 -2.525671888670717388e-02 5.203416387314574454e-02
4.153917922295406462e-01 7.946881774223004680e-01 -4.778576008125256513e-01
-9.780028491974214200e-01 -7.680269059582843505e-02 5.964358158899331352e-02
4.805839315682141621e-01 -7.125514219186316334e-01 4.426128781934119960e-01
5.691833898984114404e-01 -6.432519349692379373e-01 3.516269871087716048e-01
-8.516491082145083436e-01 -3.762263206138767857e-01 2.825974560490776000e-01
-4.255477310460910045e-01 7.820047169147109623e-01 -4.288012329844566595e-01
-4.887369807254287601e-01 -6.637889573144594157e-01 4.066064262008511343e-01
9.951946432825973243e-01 -7.651456792223389203e-02 1.409006136631373030e-02
8.073264232543390095e-01 -4.401475531019406473e-01 2.737913882296331147e-01
7.522744546902868645e-01 -5.520702382101319028e-01 3.061194881003548307e-01
9.675173703899886402e-01 -9.034649299899532790e-03 -6.104412476547591698e-02
-5.555601715301820009e-01 6.927991650050953076e-01 -4.359843355610024673e-01
9.040663461590741079e-01 3.635244731722439004e-01 -2.652722645228718368e-01
-1.790874870859413270e-01 8.100740697837708337e-01 -4.952756321328513067e-01
-3.022052095647171366e-01 -7.439985738378998015e-01 4.982794008852399203e-01
8.588890687050363404e-01 -4.254008381606206868e-01 2.336087189967911704e-01
8.073036914446249934e-01 -4.046480775631307036e-01 2.337524093186212903e-01
-5.151497219776518532e-01 7.228779983459787672e-01 -3.960270091195871589e-01
5.534461699777212251e-01 7.187605939999555105e-01 -4.665534515988852826e-01
-8.811511368018608570e-01 -2.325413482842524915e-01 1.740498122651250312e-01
-2.193533850473698976e-01 8.029863539575328168e-01 -4.899921843369263730e-01
-6.828674733843501654e-01 -5.230056968642194937e-01 3.751505237978222107e-01
9.374746662498044669e-01 -2.525837095048339975e-01 9.064170762929647795e-02
3.538799396366947292e-01 8.171630707374205604e-01 -4.879125028665401431e-01
2.516986019639583794e-01 7.892732547186906977e-01 -5.117440443617725654e-01
-2.378985927990723281e-02 8.591397483989352546e-01 -4.905433050644724124e-01
-7.703840646590637276e-02 8.327273352514026339e-01 -5.382622145780219247e-01
3.211113793251619830e-01 8.220851526518451191e-01 -4.816694296181606161e-01
9.426146029394001369e-01 -3.207244736035005234e-02 -8.557583110586771194e-03
5.566606649492032988e-01 6.657119987060950983e-01 -4.550405209134555373e-01
-3.622945997034905941e-01 7.653455272680457222e-01 -4.600333195002904718e-01
7.388740711887220591e-01 5.682032573891291349e-01 -3.929995319887055749e-01
-9.681454567018789037e-01 -1.469369484297405049e-01 1.117760186354473523e-01
-4.069272698021796919e-01 7.800961532137340448e-01 -4.891986508939917822e-01
-9.314217619003422044e-01 1.996087242091245662e-01 -1.190985354107537419e-01
-3.667609240994493258e-02 -7.895591753939419366e-01 4.662354796607149354e-01
-9.131544367902212356e-01 -2.972977242491981476e-01 2.073361854332493592e-01
9.635735702378028789e-01 2.190643998889410804e-01 -1.430548330451201777e-01
-5.886879584206071714e-01 6.951592090901504983e-01 -4.279841922115214525e-01
-3.040821490243159064e-01 8.342734426943400061e-01 -4.672009433365332809e-01
-2.159941655016962836e-01 -7.497014662562634379e-01 4.818978293097377352e-01
-1.143582082550526346e-01 -7.671927132323688170e-01 4.915468361271936870e-01
7.946699783064681277e-01 -4.263398046404391351e-01 2.562671013229865236e-01
8.350807176195316206e-01 -4.550470893148549356e-01 2.561746578326328239e-01
-5.731963395912659243e-01 6.970986830254426447e-01 -3.741326814394321798e-01
5.745031469240745592e-01 -6.867332593379353867e-01 3.849053235537951978e-01
-8.105717494818089897e-01 -4.359274742923470169e-01 2.626627912964105138e-01
6.944045108750911410e-01 5.738884777583082020e-01 -3.534043267742705829e-01
-7.180810743319558653e-02 -7.851611795224201495e-01 5.154351852842290471e-01
9.883945978963943890e-01 1.046489670568393343e-01 -1.147266302518213654e-01
8.455235550189824645e-01 4.493966473222706370e-01 -2.723967563754702281e-01
2.643129647231332591e-01 8.155588000796557546e-01 -5.347271500607132522e-01
9.469868105735473884e-01 9.439086140544862558e-02 -6.845810382574646358e-02
8.864532628152942129e-02 -8.241290929850156877e-01 5.045004809585138528e-01
-6.604924328344244921e-01 6.569311211200824507e-01 -3.452584813506244243e-01
-1.528940116593083265e-01 8.235525522745958948e-01 -5.297618797722664086e-01
-1.739596939642144291e-01 8.291394945510806025e-01 -4.777255824968798525e-01
-6.650171954291684839e-01 -5.817896610094859255e-01 3.458907164782388244e-01
8.030349816825654852e-01 4.920923237128073113e-01 -2.949765203857077078e-01
-5.908360132022041356e-01 6.505195504521433802e-01 -3.924829127700903419e-01
3.696215722856412977e-01 -7.402145018520497333e-01 4.155321418286243573e-01
-5.566899353505148085e-01 -6.631506321240767665e-01 4.380906661112183298e-01
2.377339080654889969e-01 -7.790307682986205018e-01 4.982301393148110269e-01
9.622138495951311210e-01 1.844159110528812984e-01 -1.732104056924548552e-01
-7.143716110186741908e-01 -5.054701270718018336e-01 3.105204018172928460e-01
-5.466189451374025010e-01 -6.386775061994471869e-01 4.422149878057693995e-01
3.197284871132792250e-01 -7.865456280905496200e-01 4.741857374292697269e-01
-2.784175272588109706e-01 7.963212638221202067e-01 -4.686432101895303126e-01
-6.114510328517639426e-01 6.416882184782171095e-01 -3.641596820248971800e-01
9.272089202734139501e-01 3.038066326624804803e-01 -1.875222126292400426e-01
2.402505229149465293e-01 8.420768462909019592e-01 -4.901068131424308194e-01
-9.613564079015195496e-01 9.265273694364335733e-02 1.098589898910566978e-02
3.358229000230071315e-01 -7.292370262788008262e-01 4.495589742894769980e-01
-7.373764737423512683e-01 -4.583994958776662632e-01 3.067901641216737585e-01
8.575000808972809141e-01 3.429102976138198589e-01 -2.449037343959732937e-01
8.727464007038264748e-01 -4.071190127008676996e-01 2.179795215572366274e-01
-9.505598904473884225e-01 -7.554611322230743442e-02 1.132596901047272231e-01
6.539142634319847769e-01 -6.172689131577305810e-01 3.740298794243961389e-01
-2.823913778390118590e-01 8.153194408969380857e-01 -5.168675893002888655e-01
-2.869851082035418388e-01 -7.586197187397857311e-01 4.464807438365658854e-01
-5.244173049590464819e-01 7.557819096387236035e-01 -4.287351797843830803e-01
-6.870240198521102570e-01 -5.108278962873586959e-01 3.350987624533631748e-01
4.614686558767328028e-01 -6.852131044512240754e-01 4.297019429351329189e-01
-7.709173821050678832e-01 5.704399274695807209e-01 -3.007297642778848923e-01
-3.607021958729140776e-01 -7.382156625532202421e-01 4.344322464500927627e-01
-9.202025709470056380e-01 -1.075288443859111348e-01 1.067136657222509805e-01
-8.339491261703854130e-01 4.563701746885148736e-01 -2.158269986951477093e-01
-6.990410165547025767e-02 -7.896741585650655093e-01 4.649951255757966972e-01
-4.574352381840310899e-01 7.289660735046946671e-01 -4.287256834961292173e-01
-9.899007855543685563e-01 3.175236281397784271e-02 2.838988603252777174e-02
-8.527306107838502139e-03 -7.768173393620140255e-01 5.008159320257136171e-01
2.736022213024720817e-01 -8.041720976114233865e-01 4.674631161246065036e-01
4.049557650999893732e-01 7.984037992724678512e-01 -4.780337923060272720e-01
5.379686820735763986e-01 -6.686021982303073097e-01 3.632004327682453737e-01
-3.440947719717778464e-01 -7.596207597830149094e-01 4.431114760183611501e-01
-7.342636677687494062e-01 -4.597329910654440188e-01 3.246670314103586863e-01
-9.039060420728585177e-01 2.996412106537141296e-01 -1.832979600106372786e-01
8.680155086195886494e-01 3.723892402580828986e-01 -2.903314573687577616e-01
-2.788668179526963137e-02 8.424056129106228807e-01 -4.895854412561689295e-01
9.371030886791733572e-01 1.242971359994562430e-01 -1.279712706692024693e-01
-4.639153682454154048e-01 7.792914481350495803e-01 -4.630123687488054696e-01
-5.840705990561450012e-01 7.151797342760960463e-01 -3.859238040639207390e-01
6.649153224933155304e-01 6.260994581070594700e-01 -4.302220954108921802e-01
-6.825436930485649922e-01 6.530199313161688668e-01 -3.599870554872304784e-01
9.395882404075444061e-01 8.676943215775641260e-02 -8.123951979324986472e-02
-4.640292736250329897e-01 -7.213809936527254552e-01 4.296251461000922811e-01
-9.867283459905793475e-01 8.823773212675085909e-02 -1.650402310148271247e-03
-3.105533626501396083e-01 -7.336769203657880212e-01 4.498148273193660063e-01
-9.345975657239267154e-01 9.305210142305039844e-02 -1.460529865476548582e-02
3.261361408722154298e-01 8.265984060750984908e-01 -5.030710084040455055e-01
-7.228282728140100755e-01 5.856133556262159701e-01 -2.991293960554758935e-01
7.181530846288644021e-01 -5.088748212122640169e-01 2.879282494267559889e-01
-4.762183178779880177e-01 7.701375422009079097e-01 -4.211292779909542316e-01
-8.639548229226099441e-01 -3.152398483830636811e-01 2.565073751415123393e-01
-8.869659768390519838e-01 -2.185020596929375114e-01 1.795084193034757747e-01
-9.627630366103265835e-01 2.640992590267242021e-02 5.147834957952481666e-02
7.393723859880589888e-01 5.499779585676466409e-01 -3.302372725999049852e-01
-9.355247416068983579e-01 -2.295130244833097355e-01 1.472280911927026370e-01
-9.672311545667042765e-01 1.384625994356273038e-01 -8.028209801686866931e-02
9.372246218635965631e-01 -9.887344964520994317e-02 4.205565971288265092e-02
-2.918612791026999331e-01 -7.826385528762717092e-01 4.574501353103841428e-01
3.512855152087870358e-01 -7.613911574588220210e-01 4.207545613571277432e-01
5.484417547752961086e-01 7.103350426948482621e-01 -4.736170693251298691e-01
2.614631394762649275e-01 -7.782981722961577198e-01 4.374017690880965814e-01
2.678839087231539851e-01 8.411354956678747108e-01 -5.170495359739327723e-01
8.133976101589929231e-01 -4.427038886566764808e-01 2.737671105620462786e-01
-6.419760829440749328e-01 -6.107369716672677029e-01 3.660620306634884136e-01
5.655318847743358024e-01 6.563724331797644584e-01 -4.223452679507317953e-01
-9.553412885335199611e-01 8.828214539273468789e-03 6.104713189129553491e-02
-7.451280318484139187e-01 -4.773820534995524834e-01 2.920161394714976821e-01
5.710097688573502195e-01 -6.393009720192972534e-01 3.516502865286140200e-01
9.554898695667427555e-01 -8.684486753183690011e-02 -1.085301977710156386e-02
-7.108992894225943382e-02 8.281091698824283309e-01 -5.347153768502448390e-01
-1.501657830527584059e-01 -8.135004926543868420e-01 5.058951865467217202e-01
-2.858508874112654641e-01 -7.896825001161005275e-01 4.836411499934930580e-01
7.673100238087209313e-01 5.601706602992697626e-01 -3.513842750827252948e-01
3.320406454983928501e-01 7.678485789553507468e-01 -5.063728332856882730e-01
4.017548007789962239e-01 -7.562247731417685026e-01 4.153302011083725431e-01
-1.149407530137781797e-01 8.311744482155293268e-01 -5.359657646683587684e-01
6.089078657036205433e-01 6.920579630786358738e-01 -4.222244301060008587e-01
-9.788338019375355525e-01 1.543311649344202841e-01 -7.505487513833129787e-02
-3.669678854141436575e-01 -7.057878883431507600e-01 4.680693260047779636e-01
-1.149590999583726542e-02 -7.759922604106943567e-01 4.839993674217998865e-01
1.657246761284545677e-01 8.360955126582029218e-01 -4.868190362220072842e-01
-3.807636618412170160e-01 8.173797357178418377e-01 -4.679953757550945892e-01
8.825602797075268180e-01 -2.740639920650529415e-01 1.418826677902271793e-01
7.143578207781797751e-01 5.483573222607263098e-01 -3.439310839816022702e-01
-7.239672941951913465e-01 -4.723952801236543930e-01 3.161913919979664755e-01
-8.215766272764518652e-01 -4.085167257054853063e-01 3.061094456512314932e-01
-3.959094515842270234e-01 7.621527469837746649e-01 -4.831944485953114654e-01
-1.263542430497121075e-02 8.220389185115269948e-01 -5.110163223560032497e-01
-6.591693356334089593e-01 -5.342612634494821044e-01 3.731606978995278268e-01
-6.574838648830270971e-02 -7.889435354871888739e-01 5.172509062343511044e-01
-4.977172853630655314e-01 7.527256496776689731e-01 -4.082335119353403541e-01
-9.556999689980089085e-01 -5.617060938960434513e-02 1.016164932996091175e-01
4.283491829573726761e-01 7.552282972133866901e-01 -4.488726463606386718e-01
-5.852415268183306374e-01 7.117978955840337241e-01 -3.822119338723493631e-01
-4.621125241351912161e-01 7.235134996377424743e-01 -4.417934628243888051e-01
9.434828812807516396e-01 3.082003138702959708e-02 -4.782322365127366498e-02
-3.459251256445443623e-01 -7.714921703579539214e-01 4.606434250155949650e-01
5.378871836127455675e-01 -6.544073030643591249e-01 3.670627478432732516e-01
-4.044651031399552621e-01 7.619457896316740309e-01 -4.833956971899661670e-01
-6.415233986872491689e-01 -6.151393558502176173e-01 3.725530374746038875e-01
3.922769611436610106e-03 8.266753234287960161e-01 -5.012754722197818591e-01
-1.251296949213016041e-01 -8.226505388307978617e-01 4.935181349986831889e-01
7.120122005031112589e-02 -8.181421910740919179e-01 4.641465247764531843e-01
2.650527851913379029e-01 7.860292546076661502e-01 -5.109513103140602697e-01
-2.518950381278661776e-01 8.351330637648191058e-01 -4.674819242058097513e-01
-4.063731816173117850e-01 -6.922633130709106020e-01 4.380886873234258183e-01
-1.177133066312831683e-01 -7.914847325779892362e-01 5.181046483972262529e-01
6.581863379016270610e-01 6.316632262713792745e-01 -3.754953405699927860e-01
3.423096538165079639e-02 8.554423192176060509e-01 -5.461277192776297085e-01
7.614402221976640517e-01 5.095995598098996826e-01 -3.133930611691227996e-01
-7.741689563373664873e-01 5.669554554429867554e-01 -3.168762524906760247e-01
9.147807496560026452e-01 -3.318739978937993440e-01 1.510695635504233081e-01
-1.549526994046508677e-02 -7.886858573315573828e-01 4.670156131710497815e-01
-5.893222944229293825e-01 6.531236186554715273e-01 -4.000319269792544929e-01
7.774084302134791624e-01 5.137637896949590610e-01 -3.693001881395345798e-01
9.366159801275956154e-01 2.915807301647221905e-01 -1.837867975483002680e-01
5.849242683201542059e-01 -6.363341829924401560e-01 4.012776427854835570e-01
4.883345828157080737e-01 -7.305343064831175681e-01 4.221908972660280979e-01
8.655238483092775326e-01 4.342035761007325689e-01 -2.989562582768202081e-01
-9.360971657161289983e-01 2.529563361925492651e-02 2.539400232254956924e-02
-4.877491361124935421e-01 7.115671054026917464e-01 -4.370956111145194445e-01
-2.079908603038131965e-01 -7.568514982256776547e-01 4.670851727657811536e-01
-8.677078721360673708e-01 -3.720536423989022623e-01 2.638528020915158478e-01
6.829663672145355191e-01 5.749236644167088350e-01 -3.623355325749730294e-01
3.687788019793556554e-02 -8.142921140552106252e-01 5.160883187767313363e-01
-6.533888526956869169e-01 6.472179968998018618e-01 -3.986920337862236985e-01
1.051980242413896594e-01 -7.727272062697420063e-01 4.808898613720860582e-01
1.806733900717965857e-01 -7.641626616352446000e-01 4.741301056966907290e-01
7.308458402723375658e-01 5.785409959257311607e-01 -3.968721127177332608e-01
8.168970765734261397e-01 4.243150305838238601e-01 -3.170349953273451371e-01
9.905038489367158361e-01 -1.583639476516266603e-02 -4.893779843929625673e-02
-6.471237310800759257e-01 -6.144424467068791973e-01 3.846350031564192418e-01
2.214632198163270227e-01 -7.785207647491094729e-01 4.998499377245272934e-01
-5.877819111859285961e-01 -5.876742771880287819e-01 3.956889547661869289e-01
-7.371967566438447639e-01 -5.372218237537690344e-01 3.390639445886149406e-01
-8.632056062497395210e-02 8.387655556986162164e-01 -5.406704676069232773e-01
-8.959398378008126551e-01 4.035954212516191797e-01 -2.080485238848385487e-01
-6.525143957445247445e-01 -5.862940113109886831e-01 3.483023451649339131e-01
-9.371889546114253733e-01 -2.065465247589393927e-01 1.286342085457186923e-01
9.175067618246459666e-01 2.054552726291364317e-01 -1.772813026969917161e-01
9.915417096171930122e-01 -8.248418587598026208e-02 2.428706367411511526e-06
-6.087183919287674216e-01 7.064654407729376029e-01 -3.942004759188145191e-01
-1.855495176530543855e-01 -8.053534639516112259e-01 4.664226784111312196e-01
-5.658108087161894950e-01 -6.135330959119604799e-01 4.268106632485426100e-01
-8.003574958833378217e-01 -3.853863780558573482e-01 2.906221848368295002e-01
-9.322853868039857606e-01 -4.673239115851469949e-02 5.302694757723477176e-02
-9.379944018940502559e-01 3.157583863375949540e-01 -1.515429178877973349e-01
-9.284781309879577282e-01 -2.435905460681214441e-01 1.540062061976171792e-01
8.224283773620388871e-01 -4.763171506785940923e-01 2.463787434766345485e-01
-9.884221007017607308e-01 8.419634623118948946e-02 -2.409086767181303247e-03
7.356915108908030909e-01 5.152982711973624896e-01 -3.387592191151379550e-01
-9.746342181465942334e-01 1.923966376941758233e-02 5.310519107049629928e-02
5.707674875532060543e-01 6.502868403804298314e-01 -4.326887426490753641e-01
-9.252038564854399016e-01 -9.868883220137152079e-02 1.125751885918971490e-01
-5.560626412321078016e-01 7.335816542055446643e-01 -4.312682429318503985e-01
-9.481734130911229075e-01 2.092832846003492286e-01 -1.257519239331171546e-01
7.819705034230447493e-01 -4.914781121815442466e-01 3.006426510746628700e-01
5.479312251234141895e-01 7.220553413032058110e-01 -4.682126185611787395e-01
7.050402805510492810e-01 5.766605939707882822e-01 -3.479605350168730182e-01
-1.005134870505018790e-01 8.728661492930538390e-01 -5.225983221271016665e-01
6.524605985384949181e-01 6.480711608730624906e-01 -3.855882996650077388e-01
3.597775817492686046e-01 -7.703636052669244894e-01 4.253569652297031212e-01
1.504449177003181481e-01 -7.833378144690121836e-01 4.558956031403961773e-01
6.083316614747699136e-01 -6.588507429768487578e-01 3.515919413396766391e-01
9.505076977247836068e-01 -1.962921266629603229e-02 1.385439870140238536e-03
-9.872935802280079498e-01 -3.803140636312081491e-02 6.508450757591729974e-02
-5.806201200102346638e-01 7.180327975732433421e-01 -4.230964491935185201e-01
9.352071916839937993e-01 -2.921678529409246772e-01 1.492931556733274046e-01
3.476732773441995605e-02 8.414558283226918345e-01 -5.460877053705975870e-01
9.812344566802784218e-01 -1.097315720023900182e-01 5.617357594000414039e-02
8.000925212188559899e-01 5.233028063749366465e-01 -3.276537361408485838e-01
-4.337746601426292758e-01 -7.301643601784580939e-01 4.693576122494275693e-01
9.272699291825496903e-01 -3.069836272139048194e-01 1.619848265559533373e-01
-2.914316584461528192e-01 -7.748262690118666862e-01 4.504742708584796307e-01
-5.910595506579079811e-02 -7.760022737286630390e-01 4.779807232730472477e-01
9.374006043240526997e-01 -2.811249771115367779e-01 1.497002343992971385e-01
9.437725317180706286e-01 -3.642831012269850954e-02 9.451263171920889095e-04
-2.556236412436147520e-01 -7.402422046862940919e-01 4.803689868235670457e-01
8.517167172527051466e-01 -4.390228537443836565e-01 2.267286462096367583e-01
6.568872415835087519e-01 6.537617053366242548e-01 -3.941951478661129826e-01
-8.918962091828201988e-01 -3.019052213878612445e-01 2.419274419925483977e-01
-8.101024034162676024e-01 -4.305859429761825785e-01 3.157325895155485007e-01
-9.334207210424942947e-01 1.043575899601169449e-01 -3.948803758144583953e-02
-1.595341589971816243e-01 8.138581287518885654e-01 -5.174721149201048087e-01
3.862081762959859721e-01 -7.625492520697525478e-01 4.632072996540460008e-01
-8.834053291525088003e-01 -2.256495467738490746e-01 1.742411444344165172e-01
-6.358270204024643046e-01 6.760347114518419076e-01 -3.579671813600623920e-01
5.277191163343464275e-01 6.885435929731333893e-01 -4.707606107879330204e-01
-9.062463532810405287e-01 -2.048968513235313316e-01 1.889670291821588521e-01
6.720378867806378609e-02 -7.945665501556123944e-01 4.610734099051154722e-01
-8.615066680334340088e-01 3.792674716425797898e-01 -1.757912807651037523e-01
-9.135050139969190797e-01 -2.722430799955644076e-01 1.688041125063581005e-01
9.102727364850913272e-01 -2.172842870229498291e-01 8.652811114427147454e-02
-8.943974094299003141e-01 -1.976189399715534423e-01 1.546326275663424954e-01
-7.783230264063814019e-01 5.641924471843275946e-01 -3.025198014468547525e-01
-5.800704122529574125e-01 7.235151234991661351e-01 -4.141481167484030168e-01
-4.950641871862962451e-01 7.531103347434189299e-01 -4.085507694637984799e-01
-8.173610688010640724e-01 4.852228207973195984e-01 -2.951017555419443994e-01
-4.002790763952073783e-01 7.656905660968155169e-01 -4.347467547657404840e-01
2.484284979315883879e-01 -7.610638847795120343e-01 4.465772933942216416e-01
7.605397089366375818e-01 4.849878796053433416e-01 -3.411274250818633891e-01
-8.918168420600615098e-01 -3.353150740831886134e-01 2.371019696546852462e-01
-2.794846595949677104e-01 -7.773385826647463137e-01 5.015103385078394371e-01
-8.549461234746232874e-01 4.600748237307702437e-01 -2.614639593103985638e-01
6.935056079972512499e-01 6.293139886140366457e-01 -3.917883944299391241e-01
-8.252845439070740641e-01 -3.656648411546711830e-01 2.852955656058226430e-01
8.691965529499606768e-01 3.893131839813624984e-01 -2.348143233476084335e-01
-8.578862962040276763e-01 4.100376463005945826e-01 -1.877553024989299379e-01
5.564539364808203104e-01 -6.405366914424440727e-01 4.027954242917407002e-01
-6.824245067955609922e-01 6.213698286619502298e-01 -3.226154145758433622e-01
2.145505581306153542e-01 8.106537762891455889e-01 -5.350526019738039984e-01
7.296689386455932347e-01 5.257694100070603449e-01 -3.744282426187122703e-01
-7.059493877533780104e-01 6.064284992599024982e-01 -3.117443209343157551e-01
-9.054192806283133388e-01 -2.335243506127249180e-01 2.080573821514383748e-01
8.484835836694396560e-01 4.058874485060653403e-01 -2.472818420978783738e-01
-6.820247752689955201e-01 -5.172485153755208565e-01 3.357347711989097649e-01
2.895382457717063929e-01 8.101056402722203176e-01 -5.315492046673804261e-01
-1.628777630982823632e-02 8.442919535128786679e-01 -4.896520618649544132e-01
-4.646983746859968331e-03 8.525684980349164110e-01 -4.897108292303734012e-01
-7.540922092894056794e-01 5.618071748725241843e-01 -2.826669920366188249e-01
-6.104870744569514951e-01 -6.392851989626547882e-01 4.069353575945409141e-01
-2.724118500894120443e-01 8.450727409491164410e-01 -5.045460918590635169e-01
8.019517769113355954e-02 -7.931873606909799479e-01 5.142061477705236472e-01
-7.132905171524294152e-01 -4.860125501595390918e-01 3.480747902299322627e-01
-9.321567380500241917e-01 2.178700817179221594e-01 -1.322617245474790038e-01
-7.081524265680507746e-01 6.135903877392832051e-01 -3.690985197966261677e-01
-1.927684149122574353e-02 8.771233558912653328e-01 -5.108388175993590075e-01
5.264468259486042578e-01 6.960978314089854013e-01 -4.233922450601025900e-01
-9.205581994267245660e-01 2.386223134571043569e-01 -8.585943375721491466e-02
9.593523262887855285e-01 -5.231660298404512861e-03 -4.922875006424305049e-04
8.569523619624784816e-01 -3.420544832742793417e-01 1.618520534787678267e-01
-8.117467778216521657e-01 -4.114815897606275419e-01 2.484771207882693622e-01
7.690508120033445749e-01 -5.187290761924006066e-01 2.578823389718259418e-01
-8.636350902695163478e-01 3.469966362883903921e-01 -1.765247391663679055e-01
2.105584047089653632e-01 -8.123292757231957983e-01 4.594740172016547608e-01
3.770596172434576704e-02 8.656876506927470016e-01 -4.962242558907643541e-01
8.678953861741617315e-01 -3.781104804496163152e-01 1.674972185087361953e-01
5.966904174814459116e-01 6.524595013204069760e-01 -3.981102093818576493e-01
-5.173899070303760173e-01 -6.656104752118525703e-01 4.542052833023977332e-01
-4.266115503320305757e-02 8.576585590226079026e-01 -5.434245476190652235e-01
8.700631485231874462e-01 -3.173975541888188201e-01 1.463778460873744747e-01
-3.734354190744624824e-01 7.724886841509109869e-01 -4.908193852930431422e-01
8.040307146664807947e-01 4.505401186366613797e-01 -3.352373536442374014e-01
-2.155251399790436839e-01 8.387459740953974174e-01 -4.718895425623688689e-01
-5.790924823512907382e-01 -6.470292146412172096e-01 3.828987424569904041e-01
-8.625215755605313284e-01 3.860918236219338939e-01 -1.767460752852137440e-01
1.400382993112523067e-01 8.670753612943115085e-01 -5.225314478293350273e-01
-6.384164465469326366e-01 6.200070620481833439e-01 -3.524461313217814862e-01
7.860449194242280502e-01 5.130255621392050269e-01 -3.071535135537555861e-01
5.227476932750482197e-01 -6.603436301379608242e-01 4.165557541670607544e-01
-5.937405662340019541e-01 -5.835752747259022044e-01 3.892948966683860146e-01
8.359514692522016510e-01 4.407193253338521077e-01 -2.651657999640205099e-01
-1.349001776736197533e-01 8.465480123404425239e-01 -4.811310512036344189e-01
9.469791546892324385e-01 1.317111078435667104e-01 -1.441269840647510792e-01
7.212067805530175679e-01 -5.460920395115561599e-01 3.383583145730775232e-01
9.625978901259308884e-01 -9.272814818190111552e-02 -9.833863557839495062e-03
-9.439257550170403466e-01 -2.027946402816796223e-01 1.302940030542679983e-01
-4.583959770609560835e-01 7.421859855901050684e-01 -4.695651221285119248e-01
-8.184700063305130335e-01 4.518079181969429925e-01 -2.210321230762189448e-01
-9.017581849293191398e-01 -3.189478163106496678e-01 2.231547786444800230e-01
7.242203128022399738e-01 5.368600613786878029e-01 -3.840124016970117848e-01
9.147408453154535213e-01 2.394833330563703178e-01 -1.563088278794054486e-01
8.857234940736744555e-01 3.848504816725471511e-01 -2.344588234443303887e-01
-9.403619717450176774e-01 9.532079365208794008e-02 -4.687785842689579097e-02
-8.836802427589445230e-01 3.125444888976347535e-01 -1.829702609981049000e-01
-7.871005973702185354e-01 4.803095784189784223e-01 -2.491021948934970809e-01
9.306883554256025759e-01 1.698865145703575552e-01 -1.608916944832405327e-01
7.249626205054354733e-01 5.987836100126224803e-01 -3.662790532532814169e-01
-4.503381948740065033e-02 8.427073968203336873e-01 -4.885954373516939175e-01
-8.546785563293900490e-01 3.818894924947675573e-01 -1.826477440627713167e-01
8.287487878464999680e-01 -3.773609244852926814e-01 2.229083236258056766e-01
4.640071866100874409e-01 -7.250667207816477999e-01 4.463979441875609577e-01
3.954577115756404138e-01 -7.613991079103371584e-01 4.591340930827471634e-01
-5.593742332201451228e-01 -6.290439681872237454e-01 3.815436102224240567e-01
-9.023424776932433833e-01 2.498421373835059689e-01 -1.305446032258508748e-01
9.773798584048852822e-01 1.318369176942616183e-01 -1.390826271841822948e-01
-9.610683008648373757e-03 -7.859557701207593450e-01 5.135039489957413661e-01
-4.594604593267182652e-02 8.320260137303652215e-01 -4.935343560753276404e-01
9.976406541483673340e-01 6.197651047678014169e-02 -6.404640970659333798e-02
-7.227843514348332166e-01 5.587343042665362525e-01 -2.952811063879335340e-01
8.387937016401854073e-01 -3.569849904321688028e-01 1.936692579732480490e-01
5.526315869825532134e-01 -6.443550305573920722e-01 3.621779288947926667e-01
-7.707146128956243736e-01 5.719780374608595119e-01 -3.150090821468998770e-01
9.516262788026880193e-01 -2.381946692793728559e-01 1.284429115784852804e-01
-2.728443628137913191e-01 8.001586368810602590e-01 -5.108708450863114203e-01
8.269060152860777668e-01 -4.695362033431304538e-01 2.389719950979957153e-01
9.293643493437362402e-01 3.182851315883463705e-01 -2.335900325651967535e-01
7.125492345496742264e-01 -5.134628548824867744e-01 3.067563688054752435e-01
3.626964838016500936e-01 -7.634891000622053836e-01 4.205548556400927618e-01
8.017422988590012789e-01 -4.686754806010704488e-01 2.862659371353235560e-01
-6.860408208083806914e-01 5.869156144028416788e-01 -3.203633925337114885e-01
8.185984130930383795e-01 -4.228796315001517869e-01 2.018423026348175053e-01
-7.083766401936649748e-01 -5.406328109037894514e-01 3.782533705995737572e-01
-8.871843695302124022e-01 3.303184946466760086e-01 -1.434416804941755774e-01
-9.684235460307888399e-01 3.333868252191536652e-02 4.682688637430655609e-02
9.548112728533743043e-01 -9.471757654854567887e-02 5.647471670995889148e-02
-5.049500737256713556e-01 -6.409517437863661016e-01 4.173660950466825392e-01
-1.671964503456313533e-02 -7.991275230668647422e-01 4.632927781989531479e-01
-9.472113434718807401e-01 1.711179383558493472e-01 -1.037017430563136333e-01
-8.003208041797383876e-01 4.494502277009992386e-01 -2.485751936629521930e-01
1.604472255636084921e-01 -7.763684318105432691e-01 4.586449673108376479e-01
-5.005273578578730564e-01 7.445268003560816528e-01 -4.038036013855713646e-01
-5.592903352196414435e-01 -6.131610415497508182e-01 3.896446349220565875e-01
-8.810386144881526826e-01 3.997626932641469288e-01 -2.372186565559589455e-01
6.648747742586728071e-01 -5.615412024285637571e-01 3.477532336319823503e-01
-8.186382848180164817e-01 4.661065013369362076e-01 -2.245218946998163712e-01
2.149360746301976766e-01 -7.859740264320630443e-01 4.447402263609647188e-01
-5.963575329125695434e-01 6.890692190652241145e-01 -4.248237107082171726e-01
-8.232476767149590202e-01 5.117834267941887560e-01 -2.690804328934422451e-01
-9.287597282223910566e-01 1.453777513444730329e-01 -6.809505768375660739e-02
9.192449093690560069e-01 1.882762325215650567e-01 -1.518338785285880121e-01
-2.116711075047657264e-01 -8.065237258618235261e-01 4.738703720136105968e-01
2.829909707902154570e-01 -7.767757168732778439e-01 4.909791875945690998e-01
-9.495860121438085555e-01 1.434472974019889435e-01 -8.629559137348552511e-02
4.626204204994143754e-01 -7.078862918831977380e-01 4.475010964171056704e-01
3.586253838932143556e-01 7.657113615650090743e-01 -5.118116028206110002e-01
-4.014027398361548760e-01 -7.472735396904620631e-01 4.414523022759846427e-01
7.337579188166940547e-01 -5.569930829667960603e-01 2.833482905711424693e-01
-7.910085125016089735e-01 4.684706697934444275e-01 -2.487331580682514975e-01
3.271657153736303170e-01 8.170505235858691595e-01 -4.773115968015851363e-01
8.134852620930144163e-01 4.248318021965818980e-01 -3.149906617051557167e-01
-7.511762743759901051e-01 5.749209523992346860e-01 -3.430682238693671393e-01
2.027195768554536717e-02 -8.126578534805625198e-01 5.173503227141914573e-01
-5.814392400914740744e-01 6.940651132857711403e-01 -3.712166486935570275e-01
