-9.499227539817316213e-02 -7.111563526799777879e-01 2.070588469743584251e-02
1.699824888064560280e-01 -6.174175833234626237e-02 9.797098986852939007e-01
6.409338110519676723e-01 5.164859405103967571e-01 2.592577439896190383e-02
-6.417722590573663455e-01 -5.015167889567438975e-01 -9.311342154301952001e-02
1.048442441578848472e-01 -2.750573375477250448e-01 9.632226256541904785e-01
5.531987485522461556e-01 9.148479737482423380e-02 7.168124713399017800e-01
1.638500331161109047e-01 4.384982454234456206e-01 -8.132356207724185382e-02
5.634349392148641118e-03 -1.412298885061661069e-01 -8.012832526310550429e-01
3.912264239904497121e-01 8.428154997498794598e-01 2.598768003834766027e-01
4.211336213024484687e-01 -8.754798355301464385e-02 8.606792230754618522e-01
-1.333159715560715830e-01 1.290401527424751837e-02 -4.627014631651056864e-01
-1.326585416362558167e-01 -5.093516187022375519e-01 -4.674529339805206241e-01
-2.927257181900127028e-02 -5.400281938285665939e-01 8.552123861814177053e-01
-3.443624546411803711e-01 3.128069503872252799e-01 -7.386591880657814579e-01
4.674484100991075364e-01 -4.385299859248956156e-02 8.162753552557470149e-01
-3.698653712850000774e-01 -3.845789539035535110e-01 1.914602015958680181e-01
6.106129074245228994e-01 6.209158908240458574e-01 4.816832048089287333e-01
-1.969354495424804619e-01 -2.153574679444389128e-01 7.888006119074012501e-01
-1.493160956146813434e-01 -5.038544308349919287e-01 8.489178441355108573e-01
-6.508215188418835506e-01 -3.811869655690171554e-01 -3.620705435789588478e-01
-5.931818001374777882e-02 -4.484098383178214964e-01 8.979370267278318218e-01
3.711730005517190345e-01 -1.893532753584938055e-01 8.630829962158298452e-01
1.897868408676717245e-01 4.134391099628139110e-01 -8.633195280898349200e-01
4.936861129481926458e-01 2.510108914579938233e-01 8.283766577929857489e-01
1.854560937662990960e-01 1.304542039225998484e-01 -6.584733398207838206e-01
3.882586172263717272e-01 4.728639991386516250e-01 7.716067431168829316e-01
1.548325611218026310e-01 6.373744568072152727e-01 -7.767117148500958246e-01
-2.051766716002892399e-01 -1.829798443232426297e-01 7.265813426200337100e-01
-6.144513470947952083e-01 -6.999612357544450214e-01 1.523158504967506710e-01
-3.856948426890288977e-03 3.356811879160894185e-01 -3.594161958617299590e-01
-5.066109644619108954e-01 -8.204127874610124271e-01 -3.413592622332884963e-01
-3.900232846242057128e-01 -3.413187993069007886e-01 -1.240333265250618267e-01
1.727005574635566698e-01 2.943526064878561055e-01 -3.552885923817636349e-01
-1.981789302714820067e-01 5.080466152529474755e-01 -5.837426342006211133e-01
2.833427719746980378e-01 3.586481758492514604e-01 8.474738962787756735e-01
-5.498267055142439519e-01 -4.640580745202401158e-01 1.000915881082199282e-01
-1.445321103461695844e-01 -2.286730745216550564e-01 4.366882716199023684e-01
2.761912358322148875e-01 6.022504962313260934e-01 -7.443837059686718716e-01
4.550217583090344076e-01 7.230931765417277779e-01 4.926444273007891117e-01
2.773597070857174440e-01 3.468702535785572055e-02 4.066559226206279409e-01
3.850814522483133606e-01 -2.489552030712375297e-01 6.511424317631879788e-01
4.462360607813187774e-01 3.832576026294930993e-01 -1.208468933691282110e-01
2.663452297676373592e-01 7.298243419844910873e-01 4.120194189793043860e-01
1.638423369059737456e-01 -4.525829238768901419e-01 8.588373616049108650e-01
3.568973347975508137e-01 2.352632463862479872e-01 2.531170758750119210e-01
2.359658195728873420e-01 2.585326006660379483e-01 -4.490117398832089157e-01
-1.441437350288068686e-01 -3.362982084817019990e-01 -4.037184005737167736e-01
2.791438100940530354e-01 4.879502425109351060e-01 -7.815036069517184991e-01
4.364210737238663484e-02 -9.479898847090255376e-02 -7.024315941740509883e-01
2.407982843315776555e-01 3.745154567150989489e-01 -1.627600862299453666e-01
-1.271566938325859042e-01 -3.133660527012417929e-01 -4.412887300385795464e-01
1.753112499195926682e-02 2.845326992312269820e-01 -3.822573464140235910e-01
1.595193591657825261e-01 4.519617384933985460e-01 2.078574813217342054e-01
5.113759755655604700e-01 6.305933326907489644e-02 4.964122560385982319e-01
-4.402030905912917014e-01 -7.688378512656017794e-01 -4.769569595803482276e-01
4.069669590791986091e-01 3.764083779654402440e-01 -2.520446528487345628e-01
1.196879601079036265e-01 -5.259982982083225567e-01 4.113431873589615817e-01
-4.730133042369688012e-01 -3.749317860794207889e-03 -5.447187906187979101e-01
-4.347381059839681705e-01 -4.056796339396585016e-01 1.872309918270096962e-01
6.014857083244119496e-01 1.814389314499994521e-01 5.697964237621572225e-01
4.755537377629924234e-01 3.252195382830133097e-01 1.144879069472212185e-01
-1.269245419958686949e-01 -5.749023362590811176e-02 7.281325183409738111e-01
-4.876288741769754798e-01 -5.199873585179841662e-01 4.359222400513589335e-01
-5.920495990240875334e-02 5.468408006217223560e-02 7.310138785029971498e-01
-8.861698416621696661e-02 6.135805825991342832e-01 -7.243653852910117985e-01
-3.470032836858999992e-01 -2.381788027105362637e-01 -2.957471932566663186e-01
-4.294218507865691162e-03 1.433886145099264597e-01 7.550573539784176669e-01
7.606711808921563789e-02 7.923166523546371076e-01 -2.554710461974076252e-01
6.324966555634803367e-01 6.825856859575427649e-01 3.366289619582347736e-01
5.661057232174743215e-01 7.907524230440673429e-01 2.484227052813934022e-01
-3.208045487889895631e-01 -5.491732811953876636e-01 7.173454526142676313e-01
-2.741429227112842648e-01 4.174599206009247943e-01 -6.744934008770541167e-01
-2.497653740608294162e-02 4.196244632707365335e-02 -9.603793307543213587e-01
-3.366236926376481309e-02 3.004962221413576828e-01 -3.896606265030526095e-01
-1.946362448216233665e-01 3.115524470779393318e-01 -4.724579561684571494e-01
2.567161073226814638e-01 2.240004712319471070e-01 -6.625768734700997475e-01
-5.637472892632117150e-01 -7.342403091298154161e-01 2.762913618202065269e-01
-3.779533671196695921e-01 -3.718631347568375767e-01 4.854849256664662827e-01
4.512554706143304117e-01 7.381094448849353507e-01 -4.766997058763988160e-01
9.728914772782830400e-02 5.134894453910670009e-01 -9.718834498577839931e-02
-5.392497746595935615e-01 -4.942188931853580547e-01 2.243480662809104187e-01
-5.738002998832919532e-01 -4.867944224729547353e-01 9.179295632645965985e-02
1.740853716597869916e-01 8.273772313289975422e-01 -5.026637454872054933e-01
1.566110563068073280e-01 4.262829587124202235e-01 2.652563523172150051e-01
-9.473152156736266982e-02 -4.153867851800094879e-01 2.334038463162904919e-01
4.704811151206014230e-01 2.704424681851511081e-01 2.134354613011348878e-01
2.330592790153145077e-01 3.531854582033903678e-01 -2.361929032084022495e-01
2.969751310546652617e-02 -1.009187616338292071e-01 -8.008339185650021896e-01
2.174571838644187849e-01 4.095220014417070287e-01 1.298152405725689273e-03
-1.528313645668253895e-01 -5.140216393030860864e-01 -1.181704321915637568e-01
4.443117062302965325e-01 8.775474293901390777e-01 -2.205045771593813486e-01
1.212108505625047322e-01 -6.041619626573433433e-01 7.050392803477535386e-01
-2.414562218374503022e-01 -2.730714602950526926e-01 4.422939194411112385e-01
1.751283502578684231e-02 2.956396926270787318e-01 -3.752387855341904332e-01
1.726956235344401791e-01 -3.586957986433790269e-01 4.412365460952403784e-01
1.786263523333006531e-01 -3.816494284396418912e-01 4.488228191898384067e-01
7.542742422036476102e-02 -5.968198081637327013e-01 7.709666600771958311e-01
-7.491959383363640257e-02 -6.194743716323564131e-01 7.203456013148872017e-02
5.960350666389505614e-01 7.948623018361079540e-01 3.452257738659427616e-02
5.215779121118518935e-01 5.452263265259104097e-01 6.598271935506269115e-01
-9.175630257167247117e-02 -2.038009960821293431e-01 -4.985335900095774209e-01
4.398814105924512829e-01 6.820639501091304568e-01 5.549659499323814638e-01
-3.173165358710058892e-01 -3.674480970896881749e-01 -9.551390775783363818e-02
-4.206510219180588650e-01 -3.992496918905490966e-01 1.704946800914046434e-01
3.631755947617137242e-02 6.533941290463771701e-01 -1.787689115308504495e-01
1.012873810785642065e-01 3.784441036834229055e-01 -9.177646823181130342e-01
-3.722809975881971045e-01 1.993974499352962615e-01 -5.948625986325740689e-01
-7.682056156178469764e-02 -3.545953820496793862e-01 3.060250083156395018e-01
-1.548800390615275857e-01 -3.778303218660953311e-01 2.430478052342544271e-01
6.297661837371594240e-01 4.292255335285709017e-01 1.442485335038131145e-01
5.724423590661108230e-02 4.166548112610396482e-01 -2.612299524964692976e-01
6.099324413388773625e-01 2.040876455455207517e-01 5.628264474932482830e-01
-1.554799463216682276e-01 -3.068600901523492186e-01 -3.965629360331499043e-01
1.589945091781236886e-01 7.006282547278549488e-01 2.086276145997485454e-01
-1.300932065344825028e-01 -8.033758994321088531e-02 6.177481888149429778e-01
-1.953406994502104033e-01 -2.094540329211701801e-01 5.070866818099573070e-01
-5.889704349358830804e-01 -2.608273642684327820e-01 -7.300580105229111938e-01
-2.392094840535396727e-01 -5.362232465250585389e-02 -4.316199643737489433e-01
-1.973596865541474010e-01 -2.018943596240153626e-01 -9.427743443061985529e-01
-1.938284096775895748e-01 1.324394109922777674e-01 -4.612064016747216000e-01
3.726215799529588035e-01 4.901844742321732618e-01 -6.729259491578066799e-01
2.450860862848950328e-01 6.232578924218036553e-02 4.000973694857119511e-01
-3.011267663257241045e-01 -6.838705173644408220e-01 6.709629015019568099e-01
1.524969412961428850e-01 6.532772568275668768e-01 2.591159529782003923e-01
6.104493759064192338e-01 2.188754031089504282e-01 4.976409582783952734e-01
-6.826898177713999205e-01 -5.941370355834781902e-01 -2.218159413179376926e-01
1.408033662294518873e-01 5.034934062014081446e-01 2.454825735820879706e-01
-3.885500856652004398e-01 -2.359526416996054199e-01 -2.920812420281841404e-01
-3.549502777540484155e-01 -7.971386691515665035e-01 5.209385727960393897e-01
-6.160640085958909995e-02 -1.719919608583788950e-01 -8.788746017388511245e-01
-1.322934825617311516e-01 -2.065801627830940734e-01 -4.520041079702692977e-01
5.462154532915138860e-01 4.542401174395230834e-01 -1.509338966427238304e-01
-6.322543413919275990e-01 -2.840175619120458572e-01 -5.852080018644191250e-01
-1.846582195728217746e-01 -1.434362115181815056e-01 6.436248267801873979e-01
4.410418020263395245e-01 8.718717581347691370e-01 1.521433327548670500e-01
1.171180249108468990e-01 3.603591820308825189e-01 7.229425258463351156e-01
-2.913598026211351444e-01 2.975920002173135237e-01 -5.578218675539551308e-01
5.191487660574498619e-01 9.758814922383902968e-02 4.664861305220599497e-01
-2.265426558645345090e-01 -2.509768581412183952e-01 -9.272637346337772035e-01
-4.155268449524421315e-01 -3.715488597970393325e-01 -3.095170028839283605e-02
6.164470322227524335e-01 5.457865761750037015e-01 -1.068460689440859646e-01
-3.746115562978889479e-01 -9.265374332199927121e-01 1.474428397630659637e-01
-2.221307177662796561e-01 -6.208666507256405120e-02 -9.885023161817784176e-01
6.058823059305817882e-01 7.634115680086627220e-01 -7.064922696293762794e-02
5.803186678956534506e-01 4.510570510399650179e-01 -4.224823344766385352e-02
4.836306022514093306e-02 5.850578201148931567e-01 -1.525030619545461041e-01
2.359388479756941662e-03 3.986466942024327609e-01 -3.194903004178169525e-01
3.881869610666151549e-01 -2.111262799549950275e-01 8.173462538317688431e-01
-2.007224244809109881e-01 -7.252133379732973451e-01 6.827423370039086281e-01
-5.864267636093496439e-01 -3.792229037648348067e-01 -1.899724707145995506e-01
2.902257118003285230e-01 2.625132861785456906e-01 -6.045782082787577449e-01
3.966102926159019160e-01 9.018948691464122591e-01 -1.699772624855059311e-01
-1.186499633764347833e-01 -7.893028190594609805e-01 4.096844395789543680e-02
-7.545899025892631451e-02 -8.084714542658498759e-01 2.399590151863610632e-01
-1.796033790433108068e-01 -1.471218841116544163e-01 6.054027715876919569e-01
-6.967862200978144904e-02 -6.863949419801727014e-01 8.540762344805931383e-02
-4.667361012952725430e-02 -7.787204224821018261e-01 2.617910855779229662e-01
-2.761280910742487382e-01 -1.854293988848478292e-01 -3.626700802148270508e-01
-5.906091956857334457e-01 -5.569509688878947484e-01 -6.211217027148620007e-01
1.205025341677261608e-01 4.549571184554763170e-01 5.212856345969947292e-01
5.082858775426296605e-01 4.210889362078932274e-01 -1.502944798965539508e-01
-6.058268428432132119e-02 -7.178109760826441033e-01 1.288076804047763868e-01
-2.560808826658694803e-01 -9.148222673410171257e-01 1.045837665171863023e-01
-2.499325624497200637e-01 2.134801744898409959e-01 -4.917678518777689467e-01
1.373658222653412475e-01 8.420981820108230931e-01 -3.973191852068397312e-01
9.662774891099866481e-02 5.450473696906820154e-01 -6.023094891722149263e-02
3.401334438447275454e-01 -1.486549213248623269e-01 4.999087030628970307e-01
-1.260433436348734615e-01 -7.740990665542220039e-01 6.197265371677350698e-01
3.219527285048924825e-01 1.946167023849771360e-01 3.034896763039892642e-01
1.801577489096163609e-01 1.232840088029893560e-01 -6.601952895168847757e-01
5.538652943444111187e-01 3.696919152153212984e-01 7.360320301919311969e-01
-1.385320091413450583e-01 -7.864567100433579594e-02 6.534555663104439915e-01
-1.946682613530226202e-01 -3.390917435378681954e-01 -3.174365255573282640e-01
1.369414458869533668e-01 4.503512346456788884e-01 -8.843775077301712084e-01
-5.566443775714218223e-01 -4.851858463222016860e-01 1.412962881142364180e-01
2.356021439385707628e-01 -3.446536728244491976e-01 4.928889072359809997e-01
-3.887187900437197863e-01 -8.230018236860517922e-01 -3.750971324231082149e-01
5.482291618738791561e-01 7.112786034183347927e-02 5.684754023321169081e-01
4.544684346424037735e-01 3.144636523798884364e-01 1.269988491438085454e-01
1.182008092837139729e-01 -6.367324019303934879e-01 5.905384696051190208e-01
2.759607118950175523e-03 -6.431179933946002958e-01 7.576398771897006057e-01
-5.704397093038595656e-01 -1.413571581924051024e-01 -7.209501425708666478e-01
4.510974519839247021e-01 -1.246591905066364164e-01 7.721657042812244409e-01
1.730694538036166470e-03 7.225877011523288429e-01 -6.077103882773285948e-01
-4.903913479949838748e-03 -1.050455763193937908e-01 -5.830036882555624800e-01
3.134757887869926152e-01 -1.678236235901691964e-01 4.908116251461158708e-01
1.138504589776909159e-01 3.853326522728326431e-01 4.419707811094238936e-01
-3.634157903451953331e-01 -2.546851064823834609e-01 -2.736481904428635925e-01
5.744829142187685145e-01 3.929269000113146948e-01 8.367967854994910748e-02
1.232219218886502349e-01 4.470635143988674343e-01 5.776532430718805955e-01
-3.608251764248529003e-01 -3.752629340308749617e-01 2.622310900106485931e-01
2.560152790248179308e-02 4.654701853334928807e-01 -9.066999790852969809e-01
6.626721347115017979e-02 -6.816517727483504263e-01 6.182227512102578260e-01
3.305550867263728487e-01 3.361408884541283171e-01 9.251959831311527827e-02
3.585112237893742226e-01 -2.694604311080913139e-01 6.094527021739843953e-01
3.377236222750887307e-01 -1.715689811418915633e-01 9.070513543883624852e-01
2.801208123540621098e-01 -3.694474804970904747e-01 5.642255486493588101e-01
-3.192494805364925470e-01 3.524929431972874672e-01 -7.123167900977488420e-01
-3.746587783813860040e-01 -3.874832128744777338e-01 1.383325529701831813e-01
1.175985792788192402e-01 5.647303462237351912e-01 4.746274210030130419e-02
-7.198172997834152709e-02 2.576887373196146483e-02 7.580327408155184132e-01
-2.337751842914530809e-01 8.331292651980660990e-02 -4.624566903841429433e-01
-2.820100228904786621e-01 -7.692294102863588279e-01 6.028170085620265795e-01
3.756902709473209923e-01 3.670089248727760878e-01 -1.087269672225833761e-01
1.777239721855037591e-01 3.238944781167019671e-01 8.294284559560356485e-01
-3.441809347924058571e-01 -3.507471971704781977e-01 3.737095253824223029e-01
-3.847963213259116833e-01 -5.828711892662206129e-01 6.388052580440052308e-01
1.267828789166165204e-01 3.200547330132562651e-01 4.087411094962203895e-01
1.608956764791525662e-01 7.045187420773248999e-01 2.092571337542674659e-01
-1.962135101757639388e-01 5.048532881148468654e-01 -7.509059224876534211e-01
3.746780651181840782e-01 3.067852054765863867e-01 1.388912772123448436e-01
4.813891537222235173e-01 4.312352963432350972e-01 -3.050385529549480279e-01
3.073764056341802761e-02 -6.125590257544233364e-01 2.912496008130008862e-01
2.634645008138081224e-01 8.747851217719704309e-01 3.567678968556882435e-02
-4.765023103445253927e-01 -2.704554600966858624e-01 -2.648908877380552473e-01
4.370842112308229721e-01 4.598778504170260018e-01 -5.346882454380076366e-01
-1.890892621386867367e-01 -1.126563089814289625e-01 -4.307917391732526968e-01
-4.689622434659706518e-01 8.246943587764754557e-02 -6.505510997942218765e-01
-5.888217063727543138e-02 -7.441134525205678196e-01 1.599751755454138225e-01
-2.952313754344813024e-01 1.526802069910668802e-01 -9.586318937376513416e-01
-1.198561801699345591e-01 -2.025146896250109851e-01 -4.654871779192279457e-01
-2.047868271956016228e-01 -3.285023203040731699e-01 8.311168387305983840e-01
1.289048744373374467e-01 -3.907232091467972013e-01 4.078979172270790210e-01
-5.708003065835545176e-01 -5.991409039534290049e-01 2.774890661344323051e-01
-1.178700512327595651e-01 -5.157383725041674305e-01 6.137085122595070663e-02
3.472326729057522154e-01 3.212763560935158469e-01 1.189113447565686293e-01
-5.788139302997754587e-01 -4.891643199825130295e-01 8.234122491899346918e-02
-2.678970098425182966e-01 -3.036171540038496985e-01 -2.669880323136047395e-01
2.536720705150368183e-01 -2.828648462883344705e-01 4.891293209843509127e-01
4.788561326059537770e-01 3.539058081466196493e-01 8.066334954160998549e-01
1.223266181931871310e-01 4.231699301306416916e-01 4.125618401716926176e-01
2.664320826002783416e-01 8.749539315863541500e-01 4.075081525960914247e-02
-5.004349865740722603e-01 -8.480537018984167785e-01 -2.742549156384478382e-01
-6.363635216270320250e-01 -7.147314505803165074e-01 5.144317545077037312e-02
6.506129599103208649e-01 4.317148286294995030e-01 2.138215271508484283e-01
1.872520278895216661e-01 8.735541452945347896e-01 -2.779551763275025511e-01
-2.522997569869801504e-01 4.385294903963168345e-01 -7.553718939216957917e-01
1.835826695635196792e-01 3.904795425363696282e-01 -8.701358108566660254e-01
1.569370392590991869e-01 2.210385946052034478e-01 3.940661142863221000e-01
-1.523131255562892028e-01 -4.666399939818368092e-01 -2.957780829592305261e-01
2.591365588135803311e-01 1.886915996752615982e-02 9.679621732193645078e-01
-1.303109113100118510e-01 -4.761554172440579102e-01 -5.916712376141731733e-01
-4.219354583621985899e-01 -2.820396308211879921e-01 -8.938529166181664598e-01
-1.459646284576587849e-01 -8.420006997558922013e-01 4.756183616616028176e-01
8.910249576002933491e-02 3.317761864693094531e-01 5.135842796919789510e-01
-3.015619382108937763e-01 -3.038974977680868328e-01 -2.393179036886114164e-01
5.565915263194810558e-01 4.301834558284348686e-01 -5.013487443117734671e-02
-4.774131671363500695e-01 -4.156115710854593193e-01 1.063310559165337038e-01
-3.407700884844173661e-01 3.149169068469157562e-01 -7.587298225255310058e-01
9.508670252870372874e-02 -3.756609035260634055e-01 3.853087869655075770e-01
-2.089118721326657380e-01 -7.011052316924835104e-01 7.041848801969022853e-01
-4.249850753261775194e-01 -5.791767616031018306e-01 5.836026643183573892e-01
-4.941232121595682258e-01 -5.484755974280630664e-01 4.436222024307217016e-01
-1.652945902017511071e-01 -6.969420729653729163e-01 -2.801614077100619271e-01
2.585361570076502580e-01 -2.709693160188953454e-01 9.179225428074755389e-01
-5.357426894454984101e-01 -4.921221100206429888e-02 -7.365698560905457049e-01
1.437444059106538496e-01 4.873719952649643861e-01 2.452829406606577001e-01
1.902802379803558153e-01 -3.928134249028305547e-01 8.879257935441893235e-01
-5.281078643098229275e-01 -2.261322820172153789e-02 -7.162919469039173981e-01
-5.358762373582689476e-01 -3.877922370234377913e-01 -9.121661813129645913e-02
-2.361894591257848175e-01 2.645377225545921251e-01 -4.941339618834941771e-01
-5.783448461634190796e-01 -3.030947074262393959e-01 -7.501523472443447638e-01
1.499946473572748851e-01 2.721958174820641729e-01 3.843243176751427459e-01
5.211694980222917328e-01 8.419890231538039727e-01 -1.617685518444249015e-01
-2.439616785637963720e-02 -1.960504237458164933e-01 4.273528015121974000e-01
1.458522633156755233e-01 4.419159575064540713e-01 6.632719985756041492e-01
5.418917397429356964e-01 1.173944693803011530e-01 4.772008669379846912e-01
3.888117929640689807e-01 -2.540596920503921385e-01 6.941527359759674942e-01
-2.788166647235381101e-01 -1.950568159569892046e-01 -3.553145020547877064e-01
-6.623471666770504029e-01 -3.931744411535411099e-01 -4.989641773851449802e-01
3.908591521654434797e-01 2.217555488733594649e-01 8.967893612877668730e-01
-5.670334593534196443e-01 -3.139028691043168617e-01 -2.770802465855561336e-01
-6.775931838331593626e-01 -4.661762963634760171e-01 -3.914197928287472261e-01
2.446008372061276304e-01 7.292078728418315281e-01 3.815875878199670446e-01
-5.983151568594412550e-01 -7.505634227438379158e-01 1.612444034153054095e-01
6.241826689780126669e-01 5.171020342578511730e-01 -3.778165410900265891e-02
1.521903289443263425e-02 -6.030715117907183009e-02 4.798836567618332549e-01
-1.600480594481217544e-01 -3.420884177503468737e-01 2.949775638338592021e-01
-7.065104861896526200e-02 3.533091540521486329e-01 -9.560401283062897049e-01
4.333772250428822859e-01 -9.962189052299758041e-03 4.812360534789797972e-01
2.441995472960002411e-01 -3.663396591181437012e-01 5.110007290726650275e-01
6.386273087973467523e-04 -2.446844149016103032e-01 9.536289181087892475e-01
-2.672645882445388518e-02 7.014214735118808886e-01 -3.972530876181747939e-01
4.855226600191663855e-01 5.034690763021603122e-01 7.161805395863962698e-01
-3.138947111753080388e-01 -3.584016391559828318e-01 2.804598891654494497e-01
8.481045214385292408e-02 2.871384990518666136e-01 5.030458830704781503e-01
-2.550432588563616987e-01 -2.361415534967311602e-01 5.968992282647695991e-01
1.871489076281753205e-01 6.348523953385326601e-01 -7.695179801193338109e-01
-3.762336120713043464e-01 -9.261200367351934970e-01 1.500260985859127594e-01
5.098657743601391346e-01 2.222018859487009668e-01 3.066910428135682376e-01
5.023169349701502862e-01 7.013215655055303754e-01 -4.266222114324255688e-01
1.784409518871720723e-01 4.315319057207015474e-01 -6.220616040593333895e-02
3.793985139143060681e-01 9.032103243174328666e-01 2.237637170440845685e-03
1.181173117120211807e-01 6.332575505314941289e-01 8.811135673983287731e-02
5.455916461909897652e-01 8.292404993229188781e-01 1.548546606226559319e-01
2.695670335805191442e-01 -3.549459739572330963e-01 5.370246666041508243e-01
-1.215044977467568121e-01 -5.161427892490650926e-01 5.084699655306168520e-02
3.420004886560641666e-02 -4.705911619459667017e-02 -8.592257069895453681e-01
-5.555829598707021644e-01 -7.006313359358998794e-01 -5.080956717052691474e-01
8.469426690839683414e-02 3.214405265511891541e-01 5.229748110384513371e-01
4.318894375210923786e-01 3.587009926280625982e-01 -8.504367135597434846e-03
-2.945591191542680787e-01 1.543236344331904430e-01 -9.584847153192319613e-01
1.958819906318771398e-01 4.068068891967219769e-01 1.591588084704205208e-01
4.668230866033349358e-01 6.195580055861319435e-01 -5.234704354267286641e-01
-4.326726709459213956e-03 7.194944422797411310e-01 -3.580514717163505445e-01
4.398757370612841333e-01 8.922526937392796231e-01 -1.428358927707795156e-01
-1.406923805019053841e-01 -1.243010959916442532e-01 -9.570027214162944995e-01
-3.943461142793829866e-01 -5.185450616941129909e-02 -4.464353086110646740e-01
-3.346742538257979627e-01 -6.488856195514980385e-02 -4.240210110161443113e-01
-2.251807025288080355e-01 -4.084906602000840103e-01 -1.492743910245450389e-01
6.179840938928709004e-01 6.746085003916187928e-01 -1.489932588077461373e-01
-1.259253308118882531e-01 -6.094363063554594229e-01 -1.216457991701002384e-01
-3.645787974876905230e-02 -7.085870694235442135e-01 1.871270312985692519e-01
1.153496026229730992e-01 3.145139648052432402e-01 4.341097940304960989e-01
2.142822031886485734e-01 -5.146344772219182406e-01 6.801700894821716137e-01
4.721021718912827292e-01 5.294275331955645703e-01 7.029619894029365268e-01
-2.540241374208143110e-01 -4.085366153410516232e-01 -2.904530058142201776e-02
-2.016197440035598365e-01 -1.691749222452333112e-01 6.209125535487335368e-01
1.849935664099261745e-01 -1.142271260823901624e-01 4.381562333039465962e-01
-1.344734691159194251e-01 -8.021243320072993788e-01 1.492464115343658526e-02
-4.131551048511944435e-01 1.956202059827131523e-01 -7.628226624121065003e-01
6.716695576528342038e-02 -6.923681546588040803e-01 5.583297386682956054e-01
1.806156006344354914e-01 3.620395483752719690e-01 2.734914595145842564e-01
5.924197650414410043e-01 7.440862626069135732e-01 -1.694398321950905673e-01
4.934883168186578462e-01 4.194286499970905635e-01 -1.924702123585806945e-01
1.638960712901993411e-01 8.314296001555881999e-01 -4.843390800865775558e-01
2.253022207178062841e-01 3.256067346921320271e-01 -3.037241628593722043e-01
-1.398680379115403993e-01 -9.305605205543278358e-02 6.180017747576040943e-01
1.647257318272484783e-01 -5.650114139823230186e-01 5.376966431401185575e-01
1.479957144556507190e-02 7.094430623995310325e-01 -2.782074689902197528e-01
-5.707922672614962334e-01 -1.292024690866189207e-01 -5.797855550626157539e-01
3.060776937089902394e-01 3.672664225074789290e-01 -1.477972985655481679e-02
5.639978863946012444e-01 3.454201613812311056e-01 7.321321690380245828e-01
-5.373320809574455570e-01 -7.502296601537343512e-02 -5.719091842205095144e-01
1.844767233854851807e-01 3.059728561814538672e-01 3.169562988064023035e-01
5.148871019326799470e-01 4.710398765662257570e-01 -3.085044944892693097e-01
1.390581198842435195e-01 -2.185909400861716922e-01 9.724360858992738832e-01
-3.580366840754302671e-01 -2.543403641492960054e-01 -2.752631126758660063e-01
-3.026676064273119970e-01 -9.266459735385929042e-01 1.385654515250643037e-01
-3.791820903663384867e-01 -7.133302134587953258e-01 -5.621922071550942146e-01
2.715668326452177483e-01 -4.232349534048093775e-01 6.144696936950948540e-01
1.361107101844237499e-01 5.728096068047138639e-02 -6.900044963953310129e-01
-3.808502947659632709e-01 -6.864690869367746640e-01 -5.989397700963177140e-01
-5.003593121425069512e-01 -7.600983099263699527e-01 3.840968971321803149e-01
3.305805943560070070e-01 3.463560616730617520e-02 4.090024214270049363e-01
-1.743504507538959913e-01 -4.740705702591101467e-01 -3.914855597673357057e-02
-1.877243348169580772e-01 -7.990118193094657428e-01 -1.580029335684078051e-01
4.338259467914707956e-01 8.746538456797237071e-02 4.033977226405283112e-01
-4.184121721001081151e-01 -8.513056526759774645e-01 -3.112823557308238009e-01
1.807651021065883046e-01 2.173519526787594802e-01 3.721200014394565603e-01
6.717669166675359627e-01 5.801021567287649727e-01 1.182117231798853196e-01
-4.274156563629924466e-01 -8.517774101770094752e-01 -3.088535352726731187e-01
-3.812336482184308650e-01 -9.277410983545726353e-01 3.571103525179246396e-02
-5.163888645309038239e-01 -4.350677353878875109e-01 9.259682376933117687e-02
-4.092913424033065017e-01 -2.526549117045794740e-02 -9.251859111311524497e-01
-8.660650598064477401e-02 -8.238041701099555469e-01 2.551133926550622211e-01
-6.321225913014293374e-01 -2.781839047434468970e-01 -5.385643133287878470e-01
6.188945183396652450e-01 7.434932380896503989e-01 -5.373007257174167856e-02
5.655733948601497918e-01 1.229264961565963710e-01 7.056061015762988831e-01
-1.344451136869177499e-01 -8.503563900829899103e-01 1.599908486436070199e-01
-2.703519420500042347e-01 -8.979510194751072483e-01 -4.785689053312629226e-02
4.014726950503958447e-01 3.107183521424602968e-01 1.259001568594102505e-01
-2.543959231741462768e-01 -1.109779353013450182e-01 -4.082043037952952091e-01
-4.846676053339457058e-01 -1.167758654285427911e-01 -4.461410078245019450e-01
-1.005807862468063862e-01 -8.420381819773488097e-01 3.551936655277839194e-01
7.243302948439477029e-02 4.481344211073548522e-01 -2.151354856119379877e-01
3.144516312821065140e-01 3.450288163579265932e-01 8.587192375807302103e-01
-3.606053937132830955e-01 -6.915905450688409895e-01 6.172167016792478034e-01
-3.603359381938845418e-01 -7.869319444659585994e-01 5.293137374744091295e-01
3.561332354310583342e-02 2.359181410280564439e-01 6.399429186316809570e-01
5.789917052543220866e-01 7.465668525250709342e-01 -2.097890126705916070e-01
-5.698055186047380483e-01 -8.057231364206338675e-01 -2.846194601479963837e-01
1.541610841449982949e-01 6.380868293583824569e-01 2.944002837860423272e-01
-5.679045371074937787e-01 -2.476065750588272718e-01 -3.804227005817787388e-01
3.093623892457800784e-01 8.484246682976188669e-01 1.962680162520233362e-01
-2.006721363123956936e-01 -6.675148366145458034e-01 7.358996552196019891e-01
-4.748643464129299607e-01 -6.462118374349516969e-01 -6.322232258798483606e-01
3.788413464292801347e-01 5.708631467874083487e-01 -6.600674034697396886e-01
-5.684043843384026795e-01 -4.335794430305618952e-01 -3.380334385617534548e-02
2.041129172076104892e-01 4.177207957643434000e-01 -2.554932933002354578e-02
-5.703461494955154309e-01 -4.862875924187501364e-01 1.011217499696873690e-01
-1.311225512641508717e-01 -5.156474536144971532e-01 2.210048941419863466e-02
5.480256499281973559e-01 1.358783465459446893e-01 4.627524796730532741e-01
-4.193521999533774136e-01 1.570530631642962083e-01 -6.352759645906661534e-01
6.576646191163589839e-01 5.765757472192994948e-01 3.155736586335565474e-02
-4.278922190598420938e-01 1.175528736661498597e-01 -8.428709799864503305e-01
-9.866166487087790760e-02 -2.323976471826775039e-02 -4.775452717181538076e-01
-9.130623257324824160e-02 -1.273964432462346141e-01 5.053282928404806418e-01
1.455905081723804784e-01 2.274646268997506104e-01 -4.370784247503954889e-01
-1.585964109497979557e-01 -1.857110708524589149e-01 5.006342556156945234e-01
-6.021153808809063257e-01 -3.474094727296866969e-01 -2.788526934894734466e-01
-5.663464519258669672e-01 -4.638247693682646111e-01 -7.127396042442698532e-01
1.044390078836184427e-01 2.289517754784952119e-01 8.449790411178709215e-01
-1.259558037024628430e-01 -3.716189192656976781e-01 2.661276868542770124e-01
5.811391502499414496e-01 4.745951755645735903e-01 6.521355534460563375e-01
-3.190115945713948298e-01 -8.065310113269623660e-01 -3.737640939118079819e-01
4.668395023157116963e-01 8.875214130242310429e-01 -5.719088969049584276e-02
5.284535864511272912e-02 1.980583623608496088e-02 -8.867131987152589989e-01
-1.669064424017735471e-01 2.148927129317458329e-01 -9.867287485926333757e-01
-6.505735213394381322e-01 -4.039500187017618926e-01 -3.124727992953132416e-01
-1.542604567181448012e-02 7.221597957001225643e-01 -5.654686865504068294e-01
1.341015848308727831e-01 2.959112612339653836e-01 8.170766777100270106e-01
3.243198199948855720e-01 2.924306444548848138e-01 1.883785860262091605e-01
2.058141126865639658e-01 -5.276846051264002524e-01 6.600110054188973452e-01
-1.052848758710848431e-01 -1.712546291900343964e-01 8.823407342980673640e-01
-6.553245617801431999e-01 -4.778900657363274740e-01 -1.884518466720659924e-01
5.230906532754038274e-01 8.535811200330635229e-01 8.791115033953980640e-02
3.359906998913170240e-01 -1.592538183186585285e-02 4.354111382289286292e-01
1.370493985683608196e-01 -5.977535366434176822e-01 6.857732699217961025e-01
-1.731115521951145653e-01 -4.755832006736949169e-01 -1.412153352552515950e-01
2.436630101372750101e-01 2.199331258483297469e-01 -5.591902123727310325e-01
6.274744624003087967e-01 4.080688199824582529e-01 1.785152049304625788e-01
3.773158012450395504e-01 -2.609179459814508495e-01 6.483830006210798969e-01
1.586167026648332701e-01 5.048500148721489778e-01 5.907506140968128427e-01
1.244065398249494941e-01 7.557730230984094355e-01 -5.587871190552470835e-03
2.621366912201733221e-02 7.504277513258612586e-01 -5.646230627811964498e-01
-1.453332219546162041e-01 2.651210593584416575e-01 -4.435999009013356642e-01
4.328654189930554175e-01 1.741603817577005442e-01 3.228242302312824275e-01
4.251104890029634986e-01 8.619505722911785517e-01 -3.079670636487095714e-01
-1.642506121540801001e-01 9.197943306257888585e-02 -4.574076535511421016e-01
4.972501421248231024e-01 -5.463830123137617539e-02 7.047041216281603182e-01
3.982192256290133514e-01 -8.525512434155720076e-02 5.073738768452759063e-01
-3.047702448045498391e-01 -3.191910870554747204e-01 4.143542466318261286e-01
-2.462364710792711853e-01 -2.906743312455330464e-01 4.091210525185037250e-01
-4.527897203581128793e-01 -1.095930098150571658e-01 -8.985728509217619786e-01
-1.031849714286613567e-01 -3.159549480512084396e-01 -4.901060755619409681e-01
-6.364323879071476231e-01 -5.311996111846496449e-01 -2.257437424587778810e-02
1.037832699460347619e-01 1.224114380635278471e-01 4.585882865957313093e-01
2.872035599287837138e-01 2.629954683187510911e-01 -5.490102252462730759e-01
-6.697632489094382802e-01 -4.203062678667540131e-01 -4.355771396438095633e-01
-5.168722204682489885e-01 -6.224539867759083522e-01 -6.337070781009231935e-01
1.260340245142765880e-01 5.488709172759715926e-01 7.372882506962288862e-02
2.644834297569042536e-01 3.020028403433311359e-01 -3.757921682705214761e-01
3.345458039494332847e-01 3.742698513022222340e-01 -6.887396997490371486e-01
-3.089712121917650434e-01 -5.453470758534134655e-01 -7.398454250658351716e-01
8.446154685871597179e-02 8.107555829928446700e-01 -4.274236713887600847e-01
-6.274135110880842969e-01 -2.913231180344361682e-01 -4.538386257401018087e-01
1.645414354129081658e-01 5.211980804296890701e-01 5.779556709337644316e-01
-2.021420100752916935e-02 -1.836753604887546854e-01 4.336678665725917092e-01
1.509175399816817253e-01 5.945607896558833261e-01 3.610714542720289688e-01
5.206475116170837802e-01 8.606545665336090556e-01 -1.294683488077865742e-02
-2.033180738057830672e-01 -7.738466316260347311e-01 -2.557548575442771810e-01
6.600380747556831851e-03 -6.945801127455089041e-01 6.805008591150137898e-01
3.970333545689480603e-01 4.322022464252840979e-01 -6.038744461122101947e-01
9.081671883181985372e-02 5.069063217802213250e-01 -1.200570726175682473e-01
-4.974322308298546602e-01 -8.572943860648262193e-01 -2.488109282962833180e-01
-3.593507499202829858e-01 -3.825742886282007538e-01 6.055367298214341387e-01
-6.414460360407695516e-01 -5.519720288607571357e-01 -1.047879523245575685e-02
1.113201720130042871e-01 -3.273949194323922396e-01 4.034753758150685932e-01
-2.929480103657944659e-02 -1.691791623648054854e-02 5.345813998811467238e-01
-1.493451112371891876e-01 -5.639757855819708121e-01 -4.690943977596140346e-01
-4.810387941227906028e-01 7.566393386565520296e-02 -7.209053119097365014e-01
-9.179286024292158952e-02 4.183144566432626110e-01 -3.895640867018359543e-01
-2.428051654551555139e-01 4.613007739415697084e-01 -7.131152001687989239e-01
-5.367097686809751966e-01 -3.482556564902496987e-01 -1.785034547769346613e-01
-1.386362272032211629e-01 -6.314657830985987985e-01 -2.199847179276491482e-01
-1.816687592756561220e-01 3.913478926085259824e-01 -4.738321224208643656e-01
2.633911550482509467e-01 5.463369072363699619e-01 6.764459894425021158e-01
-3.699488311390238815e-01 -8.700676360651699026e-01 -2.532276619631530501e-01
-5.388690309573789250e-01 -5.813259403209289911e-01 -6.557173492797107039e-01
-1.549555073520385573e-01 5.621972282707334845e-01 -7.117733655701813378e-01
-4.364967433608292757e-01 -3.871742067045528257e-01 2.587766977265223631e-02
-6.504715149129974838e-01 -4.390792134162021521e-01 -5.718073498680701361e-01
3.864958938233695879e-02 2.336177460890520585e-01 6.110747730851887605e-01
-2.465055301989834136e-01 2.528967872103526360e-01 -9.467480008789137536e-01
6.430785771257564454e-01 5.284768589032101671e-01 1.702024496645337601e-02
8.520024756160640700e-02 2.713009125437667590e-01 7.796264989227924547e-01
-5.564203916815655404e-01 -8.553751307224494171e-01 1.998297392686252880e-02
1.170561642157154497e-01 4.079578709550792937e-01 4.349613199916430029e-01
5.650976081349618624e-02 -5.581282446428567079e-01 3.254496665444921999e-01
-2.405112589374864829e-01 4.661891856652017330e-01 -6.681562459395342657e-01
-4.642889173313479168e-01 -9.101672204703263880e-01 2.295577680918168412e-02
-6.956704619878416318e-02 3.650131443427270805e-01 -3.840780584891386740e-01
-5.989754574673847864e-01 -3.416001034082533638e-01 -2.828304444233975534e-01
1.069143602592514952e-01 -5.352679206327760619e-01 3.953814949147350655e-01
-2.661025822118512352e-01 -5.678431195894361183e-01 -6.943347823095387117e-01
2.560688564178011939e-01 8.653446648655127582e-01 -4.137912901960256185e-01
-9.109299974818370338e-02 -1.878207006101915433e-01 -4.978821371885047142e-01
6.899246657876445532e-02 -6.680477926796611898e-01 6.529236623655592098e-01
9.920543895003808288e-02 8.189736804386044122e-01 -2.750028141330014830e-01
-3.843227028873245632e-01 -9.040422619801432580e-01 -1.384582928690262504e-01
-6.864121138744355699e-02 -3.229329516010640555e-01 -6.623661966543569202e-01
1.304920887009481112e-01 4.713325574640405691e-01 -8.515391790262775984e-02
-3.952060852081961118e-01 -8.744713835907825805e-01 3.495331802431240753e-01
4.367506856427997297e-01 8.693326435584175504e-01 1.656502739029621085e-01
-2.240138057036259456e-01 -3.985374881153439519e-01 1.497696954398619051e-01
-6.272036034552461725e-01 -6.504615123052762682e-01 1.186931329139319785e-01
3.640988551742465051e-01 3.412514063165733025e-01 -4.437426797534551048e-01
-6.003198641204419289e-02 -1.904312890809248260e-02 5.694579114561097999e-01
-2.855468928411838414e-01 -3.926766162854463671e-01 7.530816114499992997e-01
1.177588409600867220e-01 4.376293666609256672e-01 5.692402793861424115e-01
2.250362899963710001e-02 -4.289493049523468438e-01 3.163741520366295523e-01
-1.459329220362478030e-01 -2.094706654191488826e-02 -4.591989421941705674e-01
-4.300972171544398259e-01 -3.455024129386503606e-01 -1.136681307305120181e-01
6.583024004915696281e-01 6.565102503202239204e-01 2.807781516788817044e-01
-3.408044151243614373e-01 2.762575363090097880e-01 -6.166929116824505508e-01
5.114119742790685930e-01 5.077174834506273937e-01 -3.883285836870869479e-01
-2.477428434517759681e-01 -7.586967560606813210e-01 -3.824081270580106939e-01
-5.594326817451573258e-02 -4.740354795159629209e-01 2.135053001321882693e-01
-1.818960865385111092e-01 1.004299884270981741e-01 -4.583108361615002568e-01
-1.258623522185142174e-01 -4.767718172973506308e-01 -4.657502070890957024e-01
4.823488749479404869e-01 7.418765283146956380e-01 -4.263957998353845591e-01
9.882922299780277919e-02 6.518007130701134466e-01 3.184487537814478450e-03
-2.537469857448701460e-01 -2.386221458633918380e-01 6.652751033107962009e-01
2.723816241832797691e-01 8.811964570327779356e-01 -3.567759048108737896e-01
4.132381652894725477e-01 4.211135801634521281e-01 -5.490680394691762611e-01
1.276422249118336349e-01 8.397356169101193313e-01 -3.776746870204059636e-01
-1.980479157763466724e-01 -4.308073856630863507e-01 7.947666846955506181e-02
1.333350953116175797e-01 3.712419418577465047e-01 -2.535416898717887668e-01
-8.631310764581980044e-02 6.562324846361079489e-01 -5.895662111383781490e-01
-4.745519686809111515e-01 -1.835745321803093910e-01 -3.707230203313497396e-01
1.566769842373552310e-02 -3.436248826723442562e-01 3.526381902113818745e-01
-4.586077073216994204e-01 -4.107910984279176669e-01 1.312181254947920594e-01
1.371361241368329043e-01 2.423646857167959245e-01 4.108301471220955903e-01
-2.801894461886371146e-01 -5.257381645775957013e-01 7.601591362575504940e-01
4.371750574710088211e-01 8.243399755191718747e-02 8.875304188489846480e-01
1.675682109577182333e-01 -1.007147026884786661e-01 4.369888254250092752e-01
-3.438186779799800585e-01 1.757686698607487108e-01 -5.448451754350457366e-01
1.577525844564426905e-01 4.177032695724974820e-01 -1.473705727441067259e-01
2.334254095329696133e-01 3.485350108248869705e-01 -2.485442343701601831e-01
2.751239122092549727e-01 -4.294137469561193909e-01 7.134118622321694581e-01
1.443452176082490324e-01 7.089249916858106904e-01 1.374594271366646192e-01
2.256202279995695725e-01 3.616023745811833834e-01 1.830743321036420734e-01
-5.988737842219041263e-02 2.728536305321999644e-01 -4.096875300087441940e-01
2.300514626641394778e-01 7.215360071346222925e-01 3.706971515371910164e-01
-2.845856763270238621e-01 1.933950058994578225e-01 -9.503471334029662820e-01
2.526012956239641061e-01 7.264264358147076717e-01 3.993199904307389025e-01
-3.661818420618817571e-01 2.054154555229405210e-01 -8.677045493828173806e-01
6.573820178881915055e-01 4.157078234525231619e-01 2.774858645707721228e-01
-1.606808176488102868e-01 -2.857244684038146021e-01 8.643449725858383115e-01
-5.808644292447303625e-01 -6.612648320932067447e-01 -5.292997671595641718e-01
-1.576493753668476439e-01 5.696088464998018130e-01 -5.807272875833789927e-01
1.608278151713123383e-01 1.022446401046612774e-01 -6.453502302012461556e-01
-3.948249118613617603e-01 1.748113109991036029e-01 -6.073984707392032778e-01
-6.596654695473845864e-01 -5.317057376397812396e-01 -1.167397944741889182e-01
-5.226791913964930203e-02 5.033574488267549274e-01 -3.354607239492308768e-01
-5.778644410636888384e-01 -1.325792809877538170e-01 -6.581612470337806498e-01
-1.577662339074634990e-01 -8.474532328652458757e-01 6.060890789440094573e-02
-1.689001650942423965e-02 -3.911968616865889592e-01 3.085284408186368399e-01
-2.427058881590822004e-01 3.917687405440640758e-01 -5.500979964924086474e-01
-2.571845467140147501e-01 4.337549906699738611e-01 -7.513361260622581916e-01
-9.245640713474601036e-02 4.651373512556332135e-01 -3.861799750223146033e-01
1.817397758677812003e-02 -1.427417444534917756e-01 4.454254301877154099e-01
5.604193334994517217e-01 6.829018209597325084e-01 -3.160475303784514023e-01
3.587334694124301171e-01 2.633314740742233040e-01 2.167083531205195868e-01
5.118792073477760468e-02 2.711023898053831205e-02 -8.933860883659113794e-01
4.493801780821068403e-01 -1.311334552465778236e-01 6.337791049311830571e-01
-1.795640960251022322e-01 -4.630913766972736823e-01 -1.751519304462192863e-03
-3.540295701983981469e-01 -4.230596981564080372e-01 6.583862610622126521e-01
1.455965584710496585e-01 5.063135107004016616e-02 9.573779463864471317e-01
3.819478405607702465e-01 -1.209151799998255394e-01 8.890649176674930709e-01
4.881317367069692992e-01 6.211135015295950884e-02 4.676026223271079196e-01
-1.908723668407961982e-01 -4.090001323669474331e-01 1.559779910361752675e-01
-1.375181858315461525e-01 -4.877756597626137225e-01 -5.991902965154410898e-01
-6.023304843073908899e-01 -5.172732350351425534e-01 -6.340661210344749055e-01
-4.110045783926172813e-01 -8.933140900312399602e-01 -1.823212618518623984e-01
-1.450627386709613283e-02 -2.052694322002013572e-01 -6.856747435721551875e-01
1.753971444505899036e-01 4.130916060463255546e-01 7.448024230604403106e-01
1.933665354503502631e-01 8.629286765441906981e-01 -9.709924059003939567e-02
3.456347371286841996e-01 3.343874125797723917e-01 -3.903643656951250041e-01
-5.566888858077740920e-01 -7.544223488946416589e-01 -4.217532833840064721e-01
4.643171228315849941e-01 1.339987450105950550e-01 8.659327972929957706e-01
4.597950243310676144e-01 8.779552215949685268e-01 1.008346113892597262e-01
2.230759109892766490e-01 -3.037688619461657025e-01 9.220965100804242587e-01
-3.402143907246452104e-01 -3.854375514593951224e-01 4.799040032693673713e-02
-3.603538310965980762e-01 2.798790904459960704e-01 -7.753251630924162807e-01
-1.284964565066631925e-01 1.247474515412145823e-01 -4.549041002866453520e-01
1.276800500473155020e-01 6.830060529417115722e-01 1.014968974043800459e-01
2.336943670074153323e-01 3.917383570769960577e-01 7.226320516001079330e-02
5.833264720470476838e-01 1.617388933339894141e-01 5.083919950772994856e-01
-5.004972999070722572e-01 -6.545017102878034621e-01 4.473077950309314876e-01
3.216312777040454818e-01 2.997417203728260371e-01 -5.897323901516748901e-01
2.072722720699436416e-01 6.287829618936273679e-01 4.930434449787637896e-01
2.273482227025814539e-01 3.503952054279608763e-01 -2.453391152958491750e-01
3.971787573735491850e-01 5.026301168245171924e-01 -6.373298721688497315e-01
-1.419715319171445667e-01 -6.277213559611840576e-01 -2.509587381168149611e-01
1.177126112777813760e-01 5.793762480725267450e-01 6.563420065653682856e-02
-4.476317044874031925e-01 -2.212349231418402340e-01 -3.170330507686514587e-01
-2.888054875776658453e-02 -1.453089057001580179e-03 8.735087302788823171e-01
1.616238141829468289e-01 4.699606893902547600e-01 1.026372544048160806e-01
-4.356930680674892531e-01 -1.870416579344063579e-01 -3.502046406977888382e-01
3.347704865981131206e-02 7.596501319629360705e-01 -3.230316266389666180e-01
-2.751926961455105070e-01 -7.795755223165845571e-02 -4.180764673807796372e-01
-2.460590328313967123e-01 -4.128192572164748886e-01 -3.490413454406617044e-02
6.237916319685634509e-02 3.540426331174694741e-01 -3.136458917292093140e-01
5.712186710711264492e-01 6.944154189086640949e-01 -2.822657423471788274e-01
5.489278290160773954e-01 8.363841776974768605e-01 9.322375843576719001e-02
-1.894482729168457669e-01 -5.434792663857375139e-01 -6.395135854005058462e-01
2.053058356384712124e-01 1.304707737654730859e-01 3.895250991091999127e-01
8.967893452766459439e-02 -6.461893443564887818e-01 4.480172280649935557e-01
-1.386853703550081640e-01 -3.011625871071447746e-01 -4.244276916970042279e-01
6.125227372262287417e-01 7.170529945634969149e-01 -1.324267579042764376e-01
3.443539726118404198e-01 2.510053785429206333e-02 4.164140704804716875e-01
1.628933933791288369e-01 3.700238261723751143e-01 7.761950538012446499e-01
8.304066484025190986e-02 8.110030411060452638e-01 -3.278126824810572160e-01
-2.672943343740724620e-01 3.324402750633500547e-01 -5.478018565310024401e-01
-4.861736716937375968e-01 -4.074092373551295165e-01 4.642468668843702934e-02
1.335373677432074024e-01 1.036462348917644577e-01 -5.802290802591474339e-01
-2.035985802643258125e-01 -2.861784905389594957e-01 3.868465412415888482e-01
-3.818994813976641645e-01 -2.158091665115586255e-01 -3.138361585768691397e-01
3.482637261044778110e-01 5.061264178879397724e-01 -7.061516538718217717e-01
-1.033069382772197758e-01 -3.284765484885215359e-01 3.233095422593468271e-01
-5.922118574950331338e-01 -4.438495661532478875e-01 -6.903235717814253380e-01
-1.473341197774504230e-01 3.933543435740531335e-01 -4.407372030378309269e-01
3.706479469280572481e-01 7.257523360846752647e-01 4.923145290063102864e-01
1.884257183847625194e-01 1.831470288084983411e-01 -8.068396357487050974e-01
-4.141662496151296557e-01 -2.583886232301055852e-01 -2.651710024343713057e-01
-2.580071743852396793e-01 4.338518837105300174e-01 -6.399003581130008333e-01
-9.074781887200020214e-02 -3.768965475463488812e-01 -5.957508480476252366e-01
3.432956915916247631e-01 8.099065331679186630e-02 3.839663170691970384e-01
-1.690443276626591440e-01 -1.785398318064792267e-01 -9.444011853368495801e-01
1.175765312290946440e-01 -5.958544554164216800e-01 4.524158918376802174e-01
2.985058119268827470e-01 8.508508910288784532e-01 -4.457523504743672871e-01
-1.380346071535553387e-01 -4.928724399344692753e-01 5.169498278588849360e-02
-3.712863059531963938e-01 -7.382424563507508086e-01 -5.236485095301712800e-01
-1.064010873482332392e-01 -3.928531860222020389e-01 2.509773159770081197e-01
6.219583997242694728e-01 2.399944207260010232e-01 5.235004821489195326e-01
7.950866146147382574e-02 6.854844717415149447e-01 -7.424094407316343680e-02
2.901427463587091804e-01 7.619500996269626958e-01 -6.014175018161325159e-01
3.397545723955628927e-01 -3.303495276288421212e-01 6.672566008879684540e-01
-1.307976437268929815e-01 5.858181635142418742e-01 -5.126158221460300757e-01
1.468433786561226528e-01 1.575415851131914402e-01 4.197745031049609499e-01
1.123840423441830293e-02 -7.503378573622495606e-01 4.676178992631553899e-01
-5.415694210829814503e-01 -4.830568575910071383e-01 1.850153691225612240e-01
-6.568736260096004198e-01 -6.291932656722925010e-01 -1.212811898889773130e-02
2.024646921823873291e-01 4.024527327955640388e-01 1.480076568314815932e-01
2.612176740412168741e-01 -1.616411270767026962e-03 9.690748181724511134e-01
