-4.993481988985498665e-01 -3.674252658895602597e-01 3.114818297463816180e-02
-8.730584192674210875e-02 -7.462856749156429048e-01 -8.219588605380631630e-02
-5.156397163183309290e-02 -1.199726443630387135e-01 -1.479342822918880973e-01
-3.316523933717503009e-02 -8.725334191372109693e-02 -2.011868841723708778e-01
2.636347422039356792e-01 2.476284699128609712e-01 8.086546618264819353e-01
2.237184082631721860e-01 2.801006338520897754e-01 -6.325967932614091904e-03
-3.051190024187414584e-01 5.634647782198082266e-01 -2.163927738615682439e-01
4.211316475760371048e-01 5.307320292023952613e-01 7.532113131934938810e-01
4.565416359478347008e-01 -4.238915211561060103e-01 -6.460170928473855101e-01
6.511449026886827474e-01 -7.538490539577946681e-01 -1.890312187838575353e-01
-2.547276051443348455e-01 8.106287585086895398e-01 3.628638025621248875e-02
1.433618476780083306e-01 7.691546240358213549e-01 1.371337242839531234e-01
7.659617788957339135e-01 4.075387914209607221e-01 5.244064023105540207e-01
2.021598880456276087e-02 6.426362585282966444e-01 -8.638850558222773562e-03
-1.924242367131671350e-01 -1.785349626975521187e-01 -3.042891431684109638e-02
-3.359613014842436907e-01 -3.632935862444747459e-03 -7.012963230135430548e-01
-7.376865970745378753e-01 -2.277429563731245971e-02 2.452746084192344855e-01
-4.375134065430372754e-01 1.313536580146635879e-01 -6.313117265289311941e-01
2.348304111282787932e-01 -5.976070457844598893e-01 1.598545507904848006e-01
6.857511189552806252e-02 5.262278496292506665e-03 2.949190077792249176e-01
-7.278009706120706079e-01 4.365649892459852466e-02 3.014648660768845523e-01
1.556518508523206112e-01 -6.825107506744966523e-02 1.415032166729592866e-01
-3.686313506912959337e-01 -2.414340947061126563e-01 -8.080209905909908619e-01
8.370939317159279414e-01 -3.363945962701176406e-01 -3.152573074406885834e-01
3.379196265326900872e-01 1.990545517194087233e-01 -6.936825050299345874e-02
9.626917458902697344e-01 -1.281425914594734039e-01 -4.465875619517828410e-02
-5.183550057932483357e-01 4.899473494700825986e-03 -7.130986207231575502e-01
1.236282727148446253e-01 6.596941604462134290e-01 3.803028530755467318e-02
8.903288836176178611e-01 -4.878839592094286748e-01 7.191020592855996985e-02
-2.701725304823544005e-01 -8.258522226313113057e-01 -3.617665528195614377e-01
5.645195126443393052e-01 -7.023154706498260236e-01 1.228244849294431312e-01
5.270005519837597241e-01 -4.127198896532632832e-02 -3.646797656269213372e-01
2.272761552177156863e-01 3.662305037459104295e-01 -8.854388698382944720e-03
-1.564858625404668968e-01 1.140392785943642878e-01 1.621428963385845856e-02
1.151483936445935607e-01 8.678603387707928274e-01 3.798854426803346951e-01
1.185978735000225298e-01 -1.785241123872085833e-01 1.486162016705811113e-02
-6.611638527722644640e-03 -7.156356026156092398e-02 -5.745465371813904820e-01
-7.224508905134012782e-01 -3.269574215987835347e-02 -6.605028034803319681e-01
2.329360763167822312e-01 -2.848978634994177028e-01 3.114948436050128944e-01
2.835667609990617510e-01 6.261894610383260673e-01 7.129236440920441731e-02
7.295565731395265985e-01 -3.129950615259618485e-01 -4.322787357354095916e-01
-3.050937425975266404e-01 1.156672390113151760e-01 -5.817850033818118272e-01
-4.857686568527652855e-03 3.344880667035330379e-01 7.946473934577117371e-01
-5.443249496321458381e-01 7.365445130267853080e-02 3.985212522285197512e-01
1.432893870534752423e-01 -5.959914894062068313e-02 1.956602571532848611e-01
2.665546337171648128e-01 8.194351965400433757e-01 3.635156297093921074e-01
-1.494543237878968589e-01 -1.243277688251473445e-02 -1.431949299706973822e-01
2.746130871205718776e-02 3.491486075104705544e-01 -1.820136483209802009e-02
-5.523231196978570234e-02 5.485069500504483608e-01 -7.174966492125506301e-02
6.551656224668385431e-02 -6.944420757229541330e-01 1.954715068605627007e-02
2.568773690312372571e-01 5.435620577404273734e-02 -6.656865961840206791e-02
9.607343673918387061e-01 1.464136078689289890e-02 3.379405108474649033e-01
4.793132358978614144e-02 -6.218503692961598051e-02 -3.285294205906887921e-01
6.538158303327223919e-02 -8.822167003513529115e-01 -2.306908872929044341e-01
2.735481821527276369e-01 5.961091640866625352e-02 7.248532108449480260e-01
4.399838665846668162e-01 4.229710242051655245e-01 -5.291300517917741329e-03
-3.472458733434128919e-01 -4.405321350964428763e-03 2.545708940998255287e-01
2.042673407488510007e-03 7.346573272052412396e-01 7.059971924499969242e-01
3.242347841305348033e-01 -2.590779738760146667e-01 4.600808455095584670e-01
3.978770628130688380e-01 5.364429790456693992e-01 4.883517424664388096e-02
3.651599903789150975e-02 1.567409702230023252e-02 3.459849488994803379e-01
6.476638121517727109e-01 5.312472322355615839e-01 1.840050283722285129e-01
-6.357806603605482554e-01 3.326473546995398767e-01 5.178681810595251456e-01
-3.734871018144900190e-01 5.457056154919293078e-01 -2.658948061063168833e-01
-6.135980231085223086e-02 -1.591845250077500440e-01 -1.054088939853282531e-01
9.728105637456337107e-02 1.667105883535418068e-02 2.113948304399793643e-01
-5.318222502869960344e-01 6.259883286901193333e-01 -2.292332881057451976e-01
9.460337748537103186e-01 -3.408419982207635535e-01 -7.603986053635317099e-02
9.420068117093904903e-01 -3.822107235285023275e-01 9.998464383538244182e-02
1.299151968438168603e-01 -1.129651771654314185e-01 -9.673701820572386256e-02
7.318103154665926979e-01 -5.585965100206458089e-01 2.356558277299509729e-01
-1.793828413964994595e-01 7.560568571158944595e-02 6.493935199465844521e-02
3.735528385066553825e-01 3.923662045989093627e-01 8.089039925966182709e-01
7.743173380473331036e-02 -1.850708111444643589e-01 -6.834315245210894618e-01
5.475371697544367811e-02 -1.100437433528532336e-04 4.322563490594458768e-01
8.092550159837196277e-01 1.513970991985165160e-01 -8.408368161873820690e-02
-5.008133615243958170e-01 7.748534639887707520e-01 -1.624916857641010848e-02
1.372082292458146613e-01 -7.757238853811418422e-02 -2.331335851990976316e-01
-2.628820728677215279e-01 7.091871530220976438e-02 4.032210764265494740e-01
9.313006933714932378e-01 -2.829618194228829542e-01 -1.475303840539420319e-01
-1.227732554733817760e-01 -2.044820322533445756e-01 -7.712230956979498897e-01
6.513502568076985355e-01 3.257271825588969327e-01 -2.993390623964609781e-02
-1.638210548905450203e-01 -6.372830673984134463e-03 -1.159787052837528004e-01
-7.546863025128255353e-01 2.008342178126106548e-01 3.781433737225140534e-01
-3.333559221842958831e-01 3.518471123464895350e-02 -6.713699457896615819e-01
-2.999038611636465346e-01 -6.156479386863020764e-01 -7.597453989354097104e-01
6.216250528918615403e-01 2.092562337354161028e-01 -1.288915423158413232e-01
9.471085254603581749e-01 -3.435091340220586820e-01 1.617440134768357851e-01
9.683939289090878200e-01 -1.400250903076117465e-02 4.529279769078478624e-02
8.648318961725993681e-01 1.913879361178970340e-01 5.060542576320543606e-01
7.034950657915928218e-01 1.957703099947835645e-01 6.814791087502535261e-01
1.399738534353185127e-01 -7.392928410961693841e-02 2.493785991247640665e-01
1.550435516009958936e-01 5.636385664532780337e-01 8.007522470989610897e-01
2.452262533482767459e-01 7.760314275118932337e-05 -1.138792278082398080e-01
5.684928077203385000e-01 1.946066010156961845e-01 7.530943652635129215e-01
2.633836767980815008e-01 -3.380394678183618745e-02 -2.605337932785073418e-01
6.027509769264244310e-01 -7.149009883434972457e-01 -4.146683069398930388e-01
-1.666456708332051673e-01 1.121254271445488448e-01 -6.341661959433148033e-02
5.822596499188216201e-01 6.125844326105708282e-01 5.416194443834446703e-01
3.036149994559216025e-02 -7.751308728548421401e-02 -2.568496304173457090e-01
9.819235314248930813e-02 -9.003799283941749110e-01 -3.063359756234908526e-01
1.633519670994161288e-01 -7.640993260237984863e-01 1.528812699529460886e-03
-6.455502246104753705e-02 -8.802346484899188361e-01 -3.199879716558152731e-01
3.834691857624147326e-01 7.514420207290873899e-01 5.282891674373251245e-01
9.271967251997559334e-01 1.718762982413097468e-02 4.248590399011764052e-01
1.470174272104547430e-01 -1.112481888413028586e-01 -4.604287738561913673e-02
8.174530046860802868e-01 -6.040259707888963048e-01 -1.084087987436200690e-01
-1.880543891759325070e-01 6.492046613394385213e-02 5.997691416233056488e-02
6.880861261527655426e-01 2.106211098517833669e-01 -1.097013321982217987e-01
-4.290335508200892982e-04 -7.447707070827683795e-01 -4.498335335465893786e-02
-4.181065934425279296e-01 4.910254812333209595e-01 6.719485742197393030e-01
-6.276337675342825717e-01 -6.206801313011872656e-01 -3.592010899235740795e-01
1.326166610336203810e-01 -1.964564579619876572e-01 7.068058726500886513e-02
-8.358141056942509639e-01 -6.631541835625373582e-02 1.396965707749866226e-01
2.261160449465264566e-01 -2.187908875625978466e-01 3.604589903785094251e-01
-2.277036230389533067e-01 -7.983160779780038574e-01 -5.924874077928734550e-01
3.121449557671157182e-03 -8.017970160678651315e-01 -1.027026098045594887e-01
-7.074461433930665510e-01 3.784811988284903579e-04 2.790656900678388785e-01
4.023892413839867399e-01 2.990266441226807070e-01 -5.624367625041958724e-02
-8.019691647047551275e-02 -1.743397346244488291e-02 -2.738064053124078523e-01
-5.945197854492345613e-01 7.115665085098430431e-01 4.322670372840885511e-01
-3.536243699904773052e-01 8.771688045126153632e-01 2.718872033032833646e-01
1.870955381295534847e-01 -1.129440792715778602e-01 4.489180936689153856e-01
2.797848660285725542e-01 -6.630043295202262543e-01 -6.920696306601987757e-01
1.512781026728416689e-01 -7.695695468993410393e-02 -2.052591322016819597e-01
-7.893372982929699466e-01 -1.667254584211825819e-01 9.594468424942100004e-02
-1.838070998556366187e-01 6.573559978289570394e-01 -9.283761080108829389e-02
-3.061976988315719406e-01 2.271947571625203000e-01 -4.613891391848181089e-01
-6.645482792706272623e-02 -3.845638956955946264e-01 1.535046217615400679e-02
1.401153562367309091e-01 2.397490240511582216e-01 2.671389037198818733e-02
-5.184056244930510537e-01 8.237867798419268306e-01 1.715289623964960652e-01
4.067514979181875434e-01 -2.105969477247397748e-02 -3.318061185656059342e-01
-4.638952660039701859e-01 1.036387763162743836e-01 4.485839130193797764e-01
6.905988719698148426e-01 4.163430532549182717e-01 7.701728178283819004e-02
-1.160020374159498741e-01 1.766576154580920266e-01 6.630862259558892857e-01
2.124862593042116665e-01 2.788993822346892415e-01 -2.857386773546800353e-03
-9.181976270123627382e-01 -2.331712958509496170e-01 -1.859628064396736113e-01
3.918723808551245469e-01 6.144437079854674078e-02 -2.071745446552450687e-01
2.348109143248461594e-01 1.740030482858709315e-02 -6.279194081907098213e-02
-4.097344212946770203e-01 7.756192942989620365e-02 4.219671858979630596e-01
-6.580772121107825168e-02 5.377844016058377224e-02 4.082674603783567058e-01
1.665707774989267365e-01 5.796698000182919086e-03 8.351456369856249951e-02
-2.014827145627344496e-01 3.925253126556722122e-02 2.883828562144947691e-02
7.954228094642868951e-01 -5.803730501616569670e-01 -2.615018413111552809e-01
-7.154873984911561992e-03 -4.810379477623223377e-01 4.950265476260940628e-02
-2.378208046689710420e-01 3.282836028910170456e-01 7.198681721709389025e-01
3.244312776235236950e-01 -1.047593628294380547e-02 -2.673496945587929829e-01
6.253531251162603999e-01 -1.296992493415815850e-01 6.309341338516393227e-01
-3.059270838839824869e-01 1.191981134099964756e-01 -5.786915886660238817e-01
8.395362372615126079e-01 2.716168870775355348e-02 -1.562006552521369440e-01
4.653589263487060146e-01 4.399734963440335433e-02 7.366996632263207445e-01
4.574833628770438865e-01 -2.809129599705805780e-01 5.236330360554887209e-01
1.902214180198266158e-01 -1.161958298090386005e-01 4.493001058712920992e-01
4.342047517830313619e-01 -6.452701384029049247e-01 2.026814756623327163e-01
-1.220609240443233240e-01 4.405653066433950354e-02 -3.544294984392034609e-01
-3.195558380964016315e-02 2.405947512367954122e-01 1.705948783237106262e-02
-9.544171615212375392e-02 -3.924697490638759945e-01 1.081573103462210410e-02
1.918727408127330891e-01 -2.794635602814710476e-02 -7.219564459859618630e-04
5.185342837873723187e-01 -1.410857492259839363e-01 6.366988186125157601e-01
-3.108217113867399739e-01 1.353445117290953681e-02 2.586508198353079657e-01
-7.205604195656940547e-01 -1.980921951945178727e-01 -6.797730405687407718e-01
7.714031774662721830e-02 3.266773114377892473e-02 2.202803990746747820e-01
-2.943889601106459697e-01 -3.390374944160458315e-02 1.350411008812814895e-01
4.719735526318545316e-01 1.087260209127284688e-01 -1.979061402732745778e-01
2.912673298790443011e-01 -7.959027709928780114e-02 -4.201960036116534902e-01
3.377220557056125894e-01 -2.638636688395364360e-01 4.680746261482990889e-01
8.616902719777769226e-01 -3.734392147598071254e-01 3.170565344612897296e-01
-3.532856176250155356e-01 3.962800598637087335e-01 6.943630758785028778e-01
7.010285871987769202e-01 -9.177496263934512011e-02 -3.463068709600442552e-01
-8.741414819686292581e-02 -2.592234953075340381e-02 -5.666136565655447432e-01
-3.866801547408312834e-01 -6.518351791266223660e-01 -6.975542092852367038e-01
-1.072847262951609482e-01 -2.583874630411178153e-01 -3.307932701016211979e-02
2.185875090771378648e-01 -2.185910767130349874e-01 3.433368955730172756e-01
-5.739048895418142893e-01 8.069332633531575705e-02 3.974197168655966839e-01
-2.419127256956483674e-01 6.087554266299035621e-01 -1.524611513391043727e-01
-9.104725448230855944e-01 4.408461442933522129e-02 1.276173689275440781e-01
-4.613180744182734938e-01 -9.457810972763161517e-02 2.047958552005960109e-01
7.141972630191756322e-02 3.692934185551605131e-01 -1.300511564959114241e-02
-3.185433812595543368e-01 1.721041394443250938e-01 5.720565817283745913e-01
7.285717859419248432e-01 5.126735076327807450e-01 3.790934322736087547e-01
-8.108111481327398562e-02 -5.331054254532942016e-01 -8.141136679628300232e-01
2.434886067158785472e-01 2.180071284692552611e-02 -7.539232182028751672e-02
2.122213500374613149e-01 -5.564949486655414862e-02 -2.817215444872800401e-01
2.578917989487226614e-01 -3.397419526822759162e-02 -2.519362528976810123e-01
8.367468833677940143e-01 -1.353936806871606224e-01 5.092499819183151644e-01
-1.572204938687304376e-01 1.586127911144161462e-01 6.228135070000644369e-01
4.968988621973671194e-01 -7.056182738502044804e-01 1.342320853035214590e-01
9.061688624017300020e-01 1.326048217080119385e-01 4.485309857833397196e-01
-5.226052112021066787e-01 -6.477380660626301800e-01 -5.919724484264762276e-01
-5.396282921476862615e-01 1.572073658131710738e-01 4.776657246828269754e-01
-5.553434572057331514e-02 3.895444061398057323e-01 7.951823525054537711e-01
1.636721145503623187e-01 1.492280759885319108e-01 7.521420012212207684e-01
-5.402474814439255368e-01 2.514889649609853839e-01 -5.617607693930225521e-01
7.882048627034590749e-02 -4.612480724510715224e-01 9.702053009894351376e-02
1.677780458934231833e-01 -1.531874798607835153e-01 2.374390123824212107e-01
1.196102309872682651e-01 3.949525999436879209e-01 8.240125260088633219e-01
-1.874886619754597417e-01 -2.902448582451402914e-01 -8.854222833115883706e-03
4.668931886308961415e-02 1.725456972347090279e-01 8.757259591085397865e-02
-1.750969073038549095e-01 8.541205327509467093e-02 -1.625890308277690155e-02
-1.069805201382882792e-01 9.455621277164649729e-02 5.421392565342038061e-01
2.513732678400636966e-01 -8.824404562667448326e-02 -4.426826376221844050e-01
-2.840458965934731794e-01 -6.135509073738077968e-01 -7.653550514750813161e-01
-4.547218853540967443e-01 -4.568312920572986657e-01 -1.380615900845547604e-02
-1.636467732080070514e-01 -4.837944584172217816e-02 -9.848142805096342378e-02
6.322026343688076644e-02 4.472436627052523428e-01 -2.748290834915471589e-02
-7.778102631090273444e-01 5.731287061424057416e-01 3.177819348527126664e-01
-2.806731551957892257e-01 2.077084819377292002e-01 -4.505804577005728118e-01
4.296114995505890405e-02 3.375316355715670680e-01 8.054346567056122064e-01
-1.248090830922835015e-01 3.515855999157878331e-02 -4.656211208624664311e-01
6.204746181616107581e-01 -6.662905577584947447e-02 6.632468638741703115e-01
2.339370524952590902e-01 -1.873595915838297543e-01 4.187526460284418106e-01
4.854895338517410397e-01 -2.719283122431805366e-01 5.389293157385459665e-01
-2.784410865702510174e-01 -6.475274534247269509e-01 -8.081336651846748875e-02
-9.920186336688103790e-01 2.097878072037453190e-01 -3.488514969879805139e-02
4.047562342453408513e-01 1.779644159077454213e-01 -1.153367204576829508e-01
-3.818447738117545787e-01 2.019503592713037810e-01 -5.501041072520774788e-01
-1.442399750739560005e-01 3.639006080998726245e-01 -1.445470435001024734e-01
3.244488166221663750e-02 -5.120271899661177351e-02 -4.108070727665198429e-01
8.705895412641049269e-01 3.146410219622315374e-01 2.476089732056083736e-01
3.513182748146494450e-01 -3.940667906944750332e-02 -3.454565800036599743e-01
2.028886818315320251e-01 1.414110184995177599e-01 7.577194543091438916e-01
2.408910222613468710e-01 -3.031175577222681161e-01 3.119691882464469268e-01
5.751786216009913827e-02 -6.030959842597254095e-02 -3.596213834492900663e-01
1.436265538035153555e-01 -4.701568121428947866e-02 1.770784194363724529e-01
-3.209497667361345674e-01 7.875955533179875845e-01 -1.008623788644349983e-02
-2.743013327542026536e-01 -6.806886282143611577e-01 -1.040146141490802256e-01
-2.826264268841070515e-01 4.009232599200697467e-02 -6.436826833500522982e-01
-7.748237308506454868e-01 4.034783093792757014e-01 -3.829566264839491252e-01
-2.719324994875471635e-01 -6.755277956057639255e-01 -9.891141644580694892e-02
-3.355243751762378435e-01 8.800524298710984406e-01 2.571916203766023146e-01
1.375449914099168003e-01 5.943624760095197468e-01 7.899363319433581054e-01
6.891756018942573059e-01 -5.447974136717425031e-01 2.817964009270256254e-01
2.177878016883424972e-02 -1.074322086173891272e-01 -6.174394222623292849e-01
-9.519487666663891678e-01 -1.636372165523392874e-01 -2.971179843310822744e-01
-7.814711055095379111e-01 5.665002479848677552e-01 -1.786138612714202323e-01
-3.476521261048959310e-01 -5.836477663751334782e-02 1.682826829837527349e-01
-3.959758287434486657e-01 1.713936811136856642e-01 -5.844637949593538551e-01
2.165757814976119466e-01 8.312601075013817953e-01 3.221219040437152126e-01
7.855058785199982019e-01 -2.127656616318003568e-01 -3.483765941456161142e-01
1.263050519190475340e-01 6.609739249260000449e-01 3.968992392010155246e-02
-1.926904526689059982e-01 8.506420421169204049e-01 1.211766831358033758e-01
-4.114121160857340392e-02 5.692224590981752597e-01 -6.015263906694640755e-02
6.213406398756169402e-01 -6.678229651656708565e-01 1.510192003981430386e-01
-5.605304973901279464e-01 -3.482602493634799345e-01 -7.589314234913557833e-01
1.498028913093834291e-01 1.543587327484186866e-01 5.409997946115119999e-02
4.841199543170140451e-01 -5.899377170375560975e-02 -3.892129651365637821e-01
-3.732557723916343773e-01 -6.708348349266912702e-01 -6.865737659317930897e-01
6.276782090121537649e-01 -1.235335067472969617e-01 -4.082374997027695129e-01
-1.630268943047049335e-01 -1.570258310089987785e-01 -7.546287243637301856e-01
1.400322226897025846e-01 -9.031612993836422021e-01 -3.531429335262017410e-01
9.800594052753363039e-01 -2.445019834628950339e-01 3.795253054809492876e-02
-8.319887425126584746e-02 6.193895766765622479e-02 3.241249475492422594e-01
-5.017010714128123938e-01 -9.180149689482706987e-02 2.208780859436273170e-01
6.450374160934380097e-02 -1.249137361213230185e-01 -1.465726673828910420e-01
2.266081634624287355e-01 -3.937097254636571786e-01 2.457498634775942825e-01
-4.453439302691788448e-01 -1.164968607329721767e-01 1.768753868082295899e-01
1.131460857301480744e-01 -9.262960835516773073e-02 -1.934414032088754842e-01
-1.850662775492251111e-01 -3.332758028374285808e-02 -6.609917707712352763e-01
2.147557250093601044e-01 -3.607907951005214636e-02 -1.250646425328033051e-01
2.408044959579424549e-01 -7.973628193909819695e-01 -5.999809221746291721e-01
5.391931295666725354e-01 -5.717014151699442159e-01 -5.806875689657945427e-01
-1.668858064890949011e-01 1.579830587826354937e-01 6.174121538242601792e-01
9.165927350672689045e-01 -1.807973764225968283e-01 -1.670693467811608102e-01
6.907715899747975952e-01 3.165038153040065638e-01 6.716004458448544545e-01
-5.512995139725823668e-01 3.780649139115522250e-01 -4.640459456581372821e-01
9.611915371832489008e-01 -2.937767855388929150e-01 -4.446343427240252721e-02
1.921248254054136739e-01 -2.836433416629632331e-01 2.339716211423119030e-01
1.056593797692265552e-01 -7.027823971972492478e-02 -3.166952473039261196e-01
-2.543572564021928106e-01 -2.686978772892960610e-01 9.503742564659651421e-03
1.186869221790040063e-01 2.390704133990947666e-01 7.878059265362589159e-01
5.236092639253215886e-01 9.115727958569665168e-02 -2.268017025355521521e-01
-3.505160814763415567e-01 1.055946963567767211e-02 2.871671326164610960e-01
-1.064933964522696286e-01 -5.398753142612118250e-01 -8.135770876097994098e-01
1.677943599945613817e-01 -1.363236327507785228e-01 2.931040106699256964e-01
7.782860070821909781e-01 -1.191907723237805861e-01 5.650013273341109032e-01
-8.422194349850897765e-02 5.968112553832084083e-02 4.260824508171223157e-01
-1.260392456981969944e-01 7.540960245056543831e-02 2.411060764244942478e-01
2.497136853532440637e-01 -1.302906229690156681e-01 5.234365743814317629e-01
3.450121259229129711e-01 5.416738572293536835e-01 3.993232855577927981e-02
3.357859529338209637e-01 4.624305058500504662e-01 8.050379432655234702e-01
4.242494060623318297e-02 1.572705928582702750e-01 1.017743216131598849e-01
-3.996229083677945715e-01 8.041321204729404148e-02 -6.586413557449514178e-01
-4.089734183725851069e-01 6.067948405220592589e-02 -6.750201898359096120e-01
-2.276085341002795637e-01 -1.198710283313647873e-01 -7.879107660846009636e-03
5.709070352973391049e-01 4.844632091545251207e-01 6.915805139684501057e-01
-8.590953271097401256e-02 -4.528765998096853998e-03 -2.945089823500066650e-01
6.079894898607918208e-01 -7.412505056397362679e-01 -3.626391382224044002e-01
-5.757508226575080990e-01 4.660295131943454905e-01 -3.898597974565616853e-01
-2.830573534584286677e-02 1.984032504760439852e-01 7.201637391564678081e-01
7.213327134028909571e-01 -6.853276343990407637e-01 -4.625855895325921806e-03
-2.152052563938448848e-01 5.040179094430779355e-02 2.478485826615495491e-01
4.862660958364946606e-01 -1.705928359522926596e-01 -5.057064808462572447e-01
-3.226579799512371283e-01 1.905439188246013313e-02 2.843794562235978374e-01
3.049884242513262733e-01 -1.304051288781442330e-02 -2.534260229199227221e-01
-1.687382447477514189e-02 -2.991620265963338965e-01 -2.299947634981909603e-03
9.015724901600137287e-01 5.527646061007898681e-02 -5.393169336627053057e-02
-1.362093135302685498e-01 1.820756780553592913e-01 -4.774572173590591745e-02
-4.585509247111339004e-01 -1.780355627116674000e-01 1.337862657141788147e-01
-3.251908965632563930e-01 -7.337608242483244503e-01 -6.396910911620630191e-01
1.466489326781624403e-03 2.940986346338660823e-02 4.286143116058079294e-01
-6.701092299067089586e-01 2.062478869455404706e-01 -5.783738532322442172e-01
1.662680075815971825e-01 -6.184677346289398914e-01 1.104125727932764034e-01
-2.466192447362196283e-01 4.199919512877730021e-01 -2.476376411510816666e-01
-9.547577167414915689e-01 2.857306561366905751e-01 1.043418104879769159e-01
2.839722289478812875e-02 -4.006968115733551272e-01 -8.036845849109492956e-01
-9.449004872744048988e-01 -1.653381982240379189e-01 -3.420634432473629305e-01
-2.544014216155084385e-01 1.794779408111740471e-01 6.054325027175003759e-01
-3.896544163085585016e-02 5.675957823249945244e-01 -5.952325807500834232e-02
-5.758702879294659294e-01 3.974297403497688563e-01 5.727190566851066977e-01
-1.673596167607480090e-01 2.130671406854187933e-01 -1.611664474404726211e-01
-6.965584881856520805e-02 9.690074994210957915e-02 1.949087081195604865e-01
-4.551490885273739018e-01 3.353250533054326632e-01 6.269942706944983124e-01
-1.806836438055144933e-01 1.589744921162244418e-01 -2.453204564433225376e-01
2.918895950163729047e-01 2.724512754041008011e-01 -2.992501570737661140e-02
-2.224587327202734999e-01 8.849244224924692759e-01 2.182690938659325730e-01
-9.037347018731868298e-01 5.573845622381710246e-02 1.448232649162074226e-01
-2.200962393493556199e-02 2.511577805557115850e-01 1.399329291746422704e-02
-4.585969271599801278e-01 -7.238811153247982633e-01 -5.190307406232967935e-01
-3.409612731174398448e-01 3.851016199210710589e-01 -3.602776098760889223e-01
3.505119389427634458e-01 -4.459017157627543360e-01 3.310596264436910241e-01
2.482251495724264317e-02 7.629574677102476943e-02 2.068017968985593202e-01
2.953812498881251626e-04 1.204600513773505521e-01 1.517149193103139171e-01
1.564980366405561985e-01 5.175054171045364582e-01 8.141248762109547510e-01
2.293682424956058896e-01 -8.712855984151969269e-01 -1.564931258541676640e-01
1.835473145611952184e-01 5.303138903133225446e-01 8.094362008733237968e-01
-8.183716572141028212e-02 -1.388997444292075778e-01 -1.150366180295454288e-01
3.749231118498668608e-02 5.566092279676265742e-01 8.015582429899182904e-01
-4.781202331056427224e-01 4.008372677442514354e-01 6.329674498424404661e-01
-1.242432681980411430e-01 2.353717941821761861e-01 -7.300669174210679124e-02
5.367886999764251987e-01 -6.448055004655274258e-01 -5.480987329908283412e-01
5.035210652235417861e-01 -5.481970059688198171e-01 3.096466225531714356e-01
-4.825348186933227090e-01 -2.436688071958993396e-01 9.880383058834807386e-02
6.906117853600987067e-01 4.418610682537185697e-01 6.060171953522499599e-01
3.515376648255950226e-02 -6.072697748970797837e-01 -7.817018152045154267e-01
1.093249778049373427e-01 8.666275623915395965e-01 4.376907470260099076e-01
5.338534627305953073e-01 -4.542692554263498272e-01 -6.020019135834401292e-01
-8.165951863993650695e-02 3.277519171332379799e-01 7.724865527739411819e-01
8.665708609714102284e-01 -1.268343263305656554e-01 -2.215382231230101084e-01
-1.199211087526186187e-01 8.947124512018582720e-01 4.030419530787858196e-01
3.412173697461751143e-01 -6.644927279874890402e-01 1.590572616481248647e-01
1.473240286813921329e-01 5.700791712494825969e-01 7.988911346570146677e-01
-9.442477792647778478e-02 1.722199883539806409e-01 3.902133187907118328e-02
4.504408975275540628e-01 -6.913018948631134419e-01 -5.825800393835940394e-01
-1.130945174283757571e-01 -3.143937034472454872e-01 -8.124126011896214417e-01
-3.082319492435632302e-01 5.225495958624173376e-01 -2.444534431866944302e-01
8.412748052406014976e-01 3.263390395369905606e-01 4.528812685890688527e-01
6.288281936644068981e-01 6.082507470863141030e-01 3.724606937319016597e-01
5.393525811509045642e-01 -8.160506037037588978e-02 6.707905873382715711e-01
1.834467912335380479e-01 1.229542721048447751e-01 7.410805392087510546e-01
1.579931527821311354e-01 -1.382362756265343162e-01 1.373308646778922670e-01
3.179498708901455362e-01 -8.316868754742415271e-02 -4.286801024891710443e-01
-1.474442326066661146e-01 1.972495967301024777e-01 -9.323441183252161035e-02
4.202395115490795141e-01 2.325511910210419364e-01 -9.131018558638200056e-02
-4.340626716121856465e-01 7.067412556387169253e-01 -1.309221506994487361e-01
-6.436264576450805297e-01 -6.088496794953617286e-01 -3.822009937442832905e-01
-4.197780335834090659e-02 2.281167586195554098e-01 7.360988532750374347e-01
-6.275932007135112123e-01 2.817372915849065684e-01 -5.373634747425966030e-01
2.609551421048855180e-01 -5.286355151539291475e-01 2.146856848811825591e-01
-4.144002033951122432e-01 8.146864684128471978e-01 4.620523835883489916e-01
8.512098013033210231e-01 -5.621313234178418883e-01 -5.922281650667256953e-02
-1.548262807918594219e-01 3.738674685519574048e-01 -1.568109526646704888e-01
-9.928138943098347990e-01 1.021530279246367877e-02 -2.372372847199427370e-01
-5.875994358002942231e-02 -1.327530534490712344e-01 -6.956774798809834959e-01
-8.459798173205724803e-01 3.762930663016435529e-01 -3.446149438439638502e-01
6.768822417218800513e-01 -7.315222383780289883e-01 -8.065776021586965050e-02
-1.341641501764658240e-01 6.294912705692108368e-01 7.510902388381777151e-01
7.650258408594688697e-02 7.489803791626827856e-01 6.906173094601986140e-01
5.483487330279528393e-01 3.061909265556425619e-01 -6.654065648323115312e-02
-3.877363903032037817e-01 1.895766743014998604e-02 3.229363274050257582e-01
-3.587271305180517733e-01 3.852005259738533471e-01 -3.748946135627114762e-01
3.937439688946705041e-01 -1.202412940135480640e-01 -4.794911895604009322e-01
-5.922501889404753195e-01 7.551677089502176754e-01 -4.212365973294756943e-05
1.572753092454267088e-01 -5.020740529342407332e-02 1.248111399375419900e-01
-1.937184387336589042e-01 4.163734247356302987e-02 -7.542853027653546524e-03
8.803855409442643554e-01 2.946241575650888622e-01 2.315019725447312049e-01
-2.601220684278376938e-01 -7.317574872375517403e-01 -6.754040390795781335e-01
-1.963494118708136449e-01 1.876961627991886594e-01 -2.825184717605007112e-01
8.303747423720936327e-01 2.910156201051692926e-01 8.631492789190610415e-02
-2.243700542681870413e-01 5.004576629095534857e-02 2.764902431301845542e-01
-2.522439743329483730e-01 -7.970281039355670005e-01 -5.790582075486386815e-01
-7.581225544982803100e-02 8.960921545032092261e-01 3.736525771594468304e-01
4.824772881337839325e-01 9.629553812026331316e-02 7.546479301240391901e-01
-1.694718222042446987e-01 1.827060945543462767e-02 -5.814429147595410186e-01
-3.108506867214939073e-01 -2.974618642544346048e-01 -8.207480187867263188e-01
9.859542970274579043e-02 -6.942908571047256006e-01 3.398420071959970534e-02
-2.207279527163091282e-01 5.775308942744561413e-02 3.304958455970353204e-01
-4.434675090036905437e-02 6.806270178519835401e-01 -1.551514829040613608e-02
3.072078033232673588e-01 5.817645771637638408e-01 7.678423656584695278e-01
-5.525377675415007461e-01 -6.009046421195670673e-01 -6.233134449064463567e-01
1.659914295836348863e-01 -1.092058887396998024e-01 3.909294497266073698e-01
-9.544234319939075631e-03 6.016824760391301652e-01 7.829764470559021916e-01
8.969431379524750447e-01 -5.564193328756086160e-02 4.663766623230950481e-01
9.596472289572006709e-01 1.112366735552378361e-01 2.173784375936559099e-01
-4.999254823996433089e-02 5.056528823750687796e-01 -7.526486109447833028e-02
3.867348595349723306e-01 -3.688339228525155250e-02 -3.519752629489286688e-01
4.485481519415013274e-01 7.106795645253144444e-01 2.756505405650710450e-01
-1.236464391447736622e-01 5.257189379300705213e-04 -2.126189600885433628e-01
-5.237827599807836076e-01 7.511267922943811737e-01 -5.380325461588243707e-02
-5.878150098184222738e-01 3.583458365375429278e-01 -4.818686637183508537e-01
-3.755504447259073175e-01 3.211980682770085860e-01 -4.397054789851059797e-01
-4.111559329391306639e-01 -7.638742675574224927e-01 -3.727306091054876647e-01
-2.699134444009997913e-01 6.211342607890934370e-02 3.767278485171418612e-01
-6.658213608445064935e-01 3.894767100837285834e-01 5.052156099400595402e-01
6.644903160666353337e-01 4.860341347097081877e-01 1.368875534172622754e-01
7.230097010942734825e-02 2.996117194196629141e-01 1.000295224643947024e-02
-4.158429425904656140e-01 1.492708609461871339e-01 5.133274704587431625e-01
4.744816018010991621e-01 2.496171612245936828e-03 7.174160927686843436e-01
3.024622000170257841e-01 5.911258424640254416e-01 5.592731823809798247e-02
-6.095480004723362599e-01 7.781275206822898527e-01 1.248155479643941190e-01
-7.776141555135757111e-01 1.652357045098164501e-01 -5.512407520472328848e-01
1.121229433015148436e-01 -3.299485238370213347e-01 1.085507029470449275e-01
6.166931298890945268e-01 -1.488801918149024461e-01 6.224743778666605998e-01
3.589814624489794936e-01 1.540933822472518588e-01 7.822636137554662694e-01
-5.857232569263427502e-01 3.094746632164717057e-02 3.470348400910208686e-01
6.818293059675836210e-01 -6.771661034996780959e-01 8.525024888333072870e-02
1.974476149166756456e-01 -2.129207451871732715e-01 2.922405448493503588e-01
3.952844197470381515e-01 5.781367455965382707e-01 7.378747472831396204e-01
8.280792994267958118e-01 -5.028004641712665590e-01 -2.747256855371624229e-01
-2.672862879153430349e-01 2.863135528439973987e-01 -3.508159615992498259e-01
7.962462511567798551e-02 2.862987261675401518e-01 1.597872264614648430e-02
-4.197917050123528004e-01 -9.972887970091785792e-02 -7.633594710602448208e-01
5.048652371620840906e-01 2.267371911189713374e-01 7.771800916377405999e-01
-1.601593965244843543e-01 3.096952400229476682e-02 -1.457654057591672991e-01
-1.898312046466070768e-01 1.533890687912647932e-01 -3.137586442725425195e-01
1.750872911786813813e-01 -4.730425730631734188e-02 4.711006287335825493e-02
-3.653155894674648546e-02 4.887284514602139862e-01 8.036281352053826765e-01
-3.874880267471324524e-01 8.259574480828698606e-01 4.633791399833808722e-01
1.563264023787278023e-02 8.863829841084737149e-01 3.959433671485268480e-01
1.552238264572581850e-01 6.998273905767011804e-01 7.246543528036412107e-01
-4.316055178082596200e-01 7.297957392937829413e-01 -1.011703894247965446e-01
2.499246136181323408e-01 -4.681495233099393638e-01 -7.455473475238092451e-01
6.980492834175594519e-01 -6.429480002374385883e-01 1.348208957090455962e-01
-9.055928137716350301e-01 5.157595606336123212e-02 1.395771359679690016e-01
1.992566648047372213e-01 -3.570200259853004154e-02 -4.693524855071922602e-02
-4.549418102859967838e-01 5.352135387885270656e-01 6.469965402434676438e-01
-1.583264353398269597e-01 -4.019249428765332421e-01 -8.294919294504354834e-01
8.967188189180480551e-02 4.707324460342978689e-01 -2.112156529515054476e-02
-1.862353249447218362e-01 6.490795557035178298e-02 1.712858489346540461e-02
1.091151521789978929e-01 -1.805171761651524487e-01 -1.330287024827393272e-03
1.033145787083047801e-01 -3.370293600107577281e-01 1.007158942766177567e-01
-3.228681638437774781e-01 6.258159064724918563e-01 -1.805404563279598418e-01
-8.131288434304579926e-01 -2.801766594637039032e-01 -3.430067547647417531e-02
-2.518671461988798987e-01 8.447255367539291404e-01 5.162197725029177287e-01
-9.226005234376164488e-01 4.539796433608860315e-01 2.527778489276985216e-02
-2.382310686086425711e-01 5.918210901193940998e-01 -1.604098755037094148e-01
-1.046655571762734327e-01 4.417880746398959446e-01 7.892299645923609441e-01
5.446576874501954935e-01 -6.833234881268658301e-01 1.570165130262660691e-01
-1.933178448626833024e-01 -8.336469094496513632e-01 -2.748500838251951572e-01
-2.277723056754117070e-01 -8.363863086900982236e-01 -4.821949153910676245e-01
6.555070699510850973e-01 -5.429669952175211756e-02 -3.411491481493220124e-01
-4.067548852574077167e-01 -7.654516373030768595e-01 -3.668089679919607216e-01
-4.228930611619617363e-01 -7.595595862837656309e-01 -3.968284413114563369e-01
7.433897825696258455e-01 -6.827652646599449149e-01 -1.221794699179448163e-01
-6.073076221268501884e-01 5.972683084834942147e-01 -2.525290887752331126e-01
-1.724429239245278411e-01 1.076071102067634178e-01 -3.646716013336158135e-01
-1.680027336149932937e-01 1.779532911554772279e-01 6.408386768450297089e-01
-9.612952035470324896e-02 8.470332996608384013e-01 1.430055335278259676e-01
-6.465424110217918852e-01 -5.427765983776469128e-01 -1.851866498765664948e-01
-2.723419917027722903e-01 9.489139431510584810e-03 1.871475113907229149e-01
9.829310662504076035e-01 -1.309420851988516432e-01 3.207894244365870617e-02
1.536007512964477351e-01 -8.738715518352753175e-01 -1.755445645046551650e-01
4.058945768779129715e-01 4.849535188923165263e-02 -2.317845033120524978e-01
9.619316657114119345e-03 2.263963464995333019e-01 7.524751182220990042e-01
6.787663703880484345e-01 -1.240213775778401806e-01 -3.816870447647264797e-01
-6.252384573911146104e-01 2.702051662864565218e-01 5.031068592431133801e-01
3.769014319364058507e-02 5.458425891309778288e-01 -3.145116616380027458e-02
7.263305170468546956e-01 -4.945257981094745570e-01 -4.312239328472806665e-01
-7.519278891630416517e-01 1.870382917157734359e-01 3.739090697957333509e-01
-8.027439874926125540e-01 -1.001358667988466178e-01 -6.115071161676680633e-01
-1.947979582505140472e-01 1.317873844070134304e-01 -3.904404190546545972e-01
-9.331456287819228645e-01 -1.651847699990339480e-01 -3.904459723650543501e-01
-8.169833164244335588e-01 5.817343741552420955e-01 -8.398081543109467417e-02
1.579445963284782095e-01 -1.163432196035516925e-01 1.777829931260627161e-01
4.314567864166176173e-03 3.541941805225992668e-02 3.334431530181538594e-01
5.981807914732368836e-01 -6.146064574735059516e-01 -5.118577101309894628e-01
2.685707369533801847e-01 -4.900501352561817403e-01 2.409977703588887799e-01
-6.268912590498208759e-02 -6.723671875402635612e-02 -2.077056935744807653e-01
-7.429086268796826209e-01 -6.869898332164543764e-02 -6.552915373566321477e-01
-3.705128624550729083e-02 -8.897358283707346160e-01 -3.898579350053547055e-01
1.649484596824298543e-01 2.444565276823563726e-01 1.780695523822917181e-02
-5.218309478874963436e-02 -1.140249962177901713e-02 -4.152054082462733331e-01
-8.798351119966647538e-01 2.034876403449297211e-01 2.455214970618235515e-01
7.346332936573184424e-01 -6.681442939743565956e-01 -2.500880297861296508e-01
-5.935458515941148816e-01 7.774317665617298534e-01 2.957173326870487506e-01
-3.274248075868035901e-02 5.182012440533526748e-02 3.216931316382548589e-01
-8.466113558204750866e-01 -3.794484611360868231e-01 -3.080153394281805457e-01
6.639368827511950115e-03 -1.971348810053447920e-01 -7.007985756353062035e-02
-5.668105563742528025e-02 -1.335839470587658062e-01 -6.954872056296506067e-01
4.700383581979394182e-02 -1.435703286971779513e-01 -6.527861252616291576e-01
1.089497487073599197e-01 -4.213448004499785182e-01 1.191692928398167262e-01
1.662392338019155202e-01 -2.592362067541532644e-01 -7.073094582400872854e-01
1.527754976439534840e-01 9.717519452932652305e-03 1.117772323981294363e-01
-2.137558240894503747e-01 7.266375359061492123e-01 -5.199922683883550362e-02
-3.655233960782798830e-01 7.674626967590281179e-01 5.671911693709251745e-01
7.410660392862359336e-01 -4.938798275395515081e-01 -4.138858446230803678e-01
5.727160538596242079e-01 2.375412801984503469e-02 -2.933680848290594612e-01
9.531165025862909923e-01 -3.631274419418281107e-01 3.840397210388774712e-02
-9.782511274686354064e-01 -8.165872934464625532e-02 -2.342533330667720681e-01
5.338016289471363418e-01 -8.125552517448212386e-01 -2.953370090436179818e-01
-9.494746625756718128e-01 -1.696854898498462161e-01 -1.999824339936060458e-01
7.070198800711695597e-01 -2.293878754994476965e-01 -4.226621222550132617e-01
7.818447917444873996e-01 3.023526239041172126e-01 3.640990106216477479e-02
-2.839143426825437300e-01 -1.421491425634713035e-01 4.174405218408811652e-02
4.593580312537369759e-01 1.224888508161317974e-01 -1.810437144588130376e-01
9.197703768183704831e-01 -9.692037629298917711e-02 4.182291689467106943e-01
4.793953122317167748e-01 1.216538127036714406e-01 -1.887184217038117562e-01
-8.665240971603679343e-01 3.665136746303279680e-01 2.790332729378053878e-01
-1.723597639980174179e-01 -5.316170288027309843e-01 -4.570461106848773374e-03
4.180712048567096495e-02 -9.863567307343426571e-02 -5.874171926692488555e-01
2.761966239908751897e-01 -7.307209478434953387e-02 -4.023087737460288027e-01
7.551480710299416366e-01 4.779707790780202137e-01 2.988279894503416689e-01
9.859369858190554503e-02 -8.737417535302426375e-01 -1.919548308771510392e-01
5.727882891752064110e-01 6.277899135449538370e-01 2.652313520153160575e-01
-4.309603927162448667e-01 3.005154139924741119e-01 -4.918842429705632124e-01
2.903614655945855813e-02 -5.024340505943444835e-02 -4.208714052198595512e-01
7.177299250429892974e-02 -1.796482086634268172e-01 -5.264799107756467506e-02
-1.122264518639044112e-01 1.944318247057393034e-02 -2.832785656137034591e-01
3.412190023206942979e-01 -8.372121272821060611e-02 6.390719316366091363e-01
-2.640648942267215249e-01 3.166503365856810914e-01 -3.233317743140606826e-01
-3.393612783473877181e-01 -7.839259813726229265e-01 -3.011553186448255870e-01
-4.042062200374207243e-02 -8.491392446842628283e-01 -1.996181843812561418e-01
-5.524525397158466244e-01 3.504989785002865510e-01 5.777700747943169679e-01
-8.657308353345576080e-02 8.346206647673846957e-02 5.305175721849879622e-01
1.808923948104757817e-01 -5.853301605179234146e-01 1.347721898510677863e-01
-3.964016266646173681e-01 -2.635489154133386358e-01 6.441124001202153115e-02
-8.365951658417201120e-01 1.551829376904450830e-01 2.800423670259098996e-01
-4.013864366581146315e-01 -6.004669350104949732e-01 -7.313640192957855390e-01
-7.005740974077577787e-01 -1.282011608447794493e-01 1.766838636394731654e-01
3.410918235197244464e-01 -4.354407332668458475e-01 3.317326307184841339e-01
3.588306695339721908e-01 -5.380785775058852805e-01 -6.964214892253433042e-01
-1.922143019476935666e-01 2.089297678700721694e-01 -2.460760225542739654e-01
2.348587589834938705e-01 -4.081447044874257357e-01 2.490381379905306503e-01
3.068678257483970495e-01 -2.778572186337275318e-01 4.241043351431775799e-01
1.555796884921468171e-01 -5.978033960054966733e-02 1.369125401232606509e-01
-8.262829114449544710e-01 -4.086804645610772613e-01 -3.571171043702661141e-01
-4.304653968815310705e-01 -3.434246877860804847e-01 -8.057519637021536285e-01
-9.690896976411894626e-01 2.502289046874416334e-01 6.582050684891532777e-02
5.616297505612650315e-02 -7.603352377105594417e-01 -3.595942489739034631e-02
4.499743353884421392e-03 -9.009569855684507189e-02 -2.163814882132428508e-01
2.458045714115744684e-01 -3.662497514477657673e-02 -2.394474060823611750e-01
1.959349597618719185e-01 2.839264358074345962e-01 8.135562320442210060e-01
8.134970496727348399e-01 -5.620411533468658849e-01 -2.432200078183653080e-01
-1.000000000000000000e+00 1.379700696072735933e-01 -1.790280519056621500e-01
-1.690967537433071821e-01 5.709215861297843586e-02 -1.220393397938834695e-01
-7.976972695861447304e-01 4.633657273562392653e-01 3.578252412837183982e-01
5.686067017852721728e-01 -7.937015953953979741e-01 -1.029551417882208497e-01
-5.788237124336246264e-01 4.563407569000666464e-01 5.743245992014742729e-01
-1.816002320534157999e-01 2.198737809927725773e-01 -2.057355131535072712e-01
1.706293497879894094e-01 3.623590808723250317e-02 7.015661170775118471e-02
3.206370865813273907e-01 3.043197318478051416e-01 -3.354452018415163966e-02
-7.718793811886437428e-01 3.658537950578972242e-01 4.041781689447470627e-01
3.593829584965932411e-01 1.470074075036548189e-02 7.157100151190809445e-01
7.628396144105177301e-01 1.816612991131520694e-01 -9.456630232369724054e-02
4.510149350775896071e-01 -1.667914162859457095e-01 6.107852598161584989e-01
-3.308625460994304990e-01 -1.202441462758862267e-01 9.445527920958955714e-02
7.081066088905804135e-01 5.316445306507291413e-01 3.269184548905251786e-01
1.820576939522163262e-01 -5.752804483671335456e-01 -7.582168424773750859e-01
-6.604522946697521935e-02 -8.565655649104094715e-01 -5.388822655693306096e-01
-3.335969535519955342e-01 2.415757819992326583e-01 -4.756654414236762274e-01
8.879671467438663424e-01 -1.608530310376941330e-01 -2.070985147063054976e-01
6.168064081980904056e-01 -4.495907389028124257e-01 4.019978061961408944e-01
-8.433290273378641899e-01 5.068035235591014098e-01 -1.841490802170705210e-01
9.706089621685672908e-01 -9.880876530066763641e-02 2.994325104266617465e-01
-3.141038753960339047e-01 1.253221601139131204e-02 2.597164041986354532e-01
-1.729627939258595037e-01 5.712324659399718035e-02 -1.015748337390218331e-01
4.691115774416578232e-01 8.574445602313586490e-02 -2.189662361278758573e-01
1.792672460238481091e-01 -1.693712347791355988e-01 2.813471241202111228e-01
-7.396224752733323582e-01 -1.704686781864561129e-01 1.243428330427805428e-01
-1.698859946212295802e-01 5.336167806663495439e-01 -1.437288624450091257e-01
-2.530597368112084133e-01 4.540079947881173195e-02 2.984109314193655882e-01
-2.214769159007907717e-01 2.214641727482645761e-01 -3.214540225408948904e-01
-9.084819982488397117e-02 1.868068000522004057e-01 2.397533446782936992e-02
-1.731678392393475319e-01 8.061600502120661593e-01 6.062484049517589124e-01
-4.372355875916257295e-01 8.550455139580321884e-01 2.729661759438644086e-01
8.748601946555515374e-01 6.402593346313206757e-02 5.133725689511593471e-01
-3.884378950517451603e-03 4.663203615004363756e-01 8.103229244515643970e-01
-2.589491971659637071e-01 8.916271444958876469e-01 3.348571047383359645e-01
1.493053408142006599e-01 6.372618084574614705e-02 9.283106698182906624e-02
1.275324269498404051e-01 -7.306690021878108343e-01 -6.984995757719305587e-01
2.205831538693746874e-01 -1.841023439019522645e-01 3.955317954078141351e-01
5.444620806455230388e-01 7.792451891689977650e-02 7.372636556543483710e-01
-2.285058880536130210e-01 -8.708340371890056775e-02 -3.380342832926730781e-03
-2.182611935924242130e-01 8.179797207953314331e-01 5.754767219708606385e-01
-7.437635305786569617e-01 -3.952806513362979168e-01 -5.937874554046049802e-01
8.501178341629627155e-01 7.695264524186901101e-02 5.462144245520684782e-01
1.794620258888048603e-01 1.606597965188612531e-01 3.211123267029361572e-02
2.399391495913785755e-01 -1.664025665127744080e-01 4.595193148673870631e-01
-9.456983874549741431e-01 -6.452077488683351236e-02 -4.040434769440883755e-01
-2.208670077319977720e-01 6.882016274199370676e-01 -8.759062869083725222e-02
-4.637768869792902593e-01 -7.369890123319169373e-01 -4.194074127933517526e-01
-1.951039129230454361e-01 8.495985389322772141e-01 5.302629042059930908e-01
7.712096800350339704e-03 -6.103260413442479493e-01 -7.841512011991297326e-01
8.303398177783513079e-01 2.481170305761239703e-01 5.381233143050920820e-01
-2.270043857728165637e-01 -8.404728245002356379e-01 -4.584036351532632114e-01
-3.581841460162057955e-02 -3.631534839770159812e-02 -3.080867977938671065e-01
-8.959369170047376540e-01 6.826836606509578687e-02 1.633216673025073562e-01
-6.382333399071913327e-01 -1.688579500254416832e-01 1.600354529130965375e-01
-3.795483020049814776e-02 -7.910304814887657576e-01 -6.564420856251178549e-01
9.555530773603618799e-01 -3.256879981741360730e-01 1.537603413643923167e-01
-1.856014910228614423e-01 4.321988588289640137e-02 -4.608068616173292831e-02
6.632700453260260975e-02 5.993273816597995129e-02 6.204757661601092433e-01
7.921785698959420419e-01 -6.287556075998143035e-01 -1.532961186924255703e-01
-1.211056728864721849e-01 4.078388390115199047e-01 -1.244434085601002493e-01
3.883782366382884654e-01 2.627762452622913747e-01 8.054714213079612328e-01
3.742768923898219247e-01 -1.210428145024170128e-02 -3.045920484159874153e-01
3.116205253847029871e-02 5.766503474189837997e-01 -2.742202143058128025e-02
-1.296702392535034887e-01 1.370286376949862162e-01 4.249294173640410371e-02
5.567260855146870524e-01 -7.523950005074303560e-01 3.544722374468738807e-02
-8.093573263538201834e-01 -2.019783707622961055e-01 4.792687344946780503e-02
-9.984242004299388462e-01 1.914466246115388293e-01 -1.149212608127713336e-01
-4.442542431242005874e-01 -3.009812237092875375e-01 6.057816544480248283e-02
-1.445197021681313976e-01 -2.867653842088521698e-01 -1.770410714510901526e-02
-6.893698555602286587e-03 3.006508527567884337e-01 -1.000688366981473086e-02
-8.228593995710820064e-02 2.849866966014754643e-01 -5.193978579483406882e-02
-4.538503141764128612e-01 7.955352136010054309e-01 1.025887733700220870e-02
-5.266379632550250989e-01 -4.292031655149847191e-01 -8.902910732951893613e-03
4.397915796356942075e-01 3.428062054639192668e-01 -4.325963103195427234e-02
-3.800840356221454885e-02 5.797330188917826366e-01 7.866401731838474909e-01
6.847232758734217439e-01 1.139727817649673243e-02 -2.751683262124807183e-01
-7.247210987649440606e-01 -2.399223956056093301e-02 -6.569672598239232331e-01
-3.114206291593512033e-01 -6.125785722679396444e-02 1.235555281833074226e-01
-2.303169230761860017e-02 2.270337320229403322e-01 3.244847721373101540e-02
2.173311483397296628e-01 2.034862975333892321e-01 1.880401049979201194e-03
3.790770533801350872e-01 4.967299650826285662e-01 2.394201350395038647e-02
3.168148830896099222e-01 4.625208945127116666e-01 4.512413747035012683e-03
-7.590145711665351458e-01 -3.830282808430317543e-01 -5.820503089423718635e-01
8.664729707025208283e-01 -3.755807302873575559e-01 3.081736516753812993e-01
