-7.133166085674158552e-02 -1.497236949896222913e-01 -7.018026883507395564e-01
4.320310177625650283e-01 -8.127205505404406782e-01 -3.060511005524735317e-01
-3.632341360738254865e-01 3.016843869506575238e-01 -4.500947288017781434e-01
3.269676333038510352e-01 3.848622038637847242e-01 8.733685578842196318e-01
5.949941317705451649e-01 -7.483221032515112725e-01 4.312041582630534720e-01
1.858481166080159230e-01 -6.570339632307127531e-02 8.259207056259153523e-01
1.141336220478459396e-01 1.400089354033492439e-01 7.370866329394442085e-01
4.462946368718200829e-01 -9.110408123862981933e-01 1.957831439675938590e-01
-1.303580710155491096e-01 -6.182786927217143180e-01 -7.476730674016209832e-01
4.394697975406770540e-01 9.132403424774265810e-02 7.064119727483055833e-01
3.680186185258300657e-01 -7.556264077032512905e-01 -4.313513312941272826e-01
5.200640711992173815e-01 -6.371535856939523068e-01 4.687338615971658323e-02
-1.714752608426791947e-01 6.454863904998517921e-01 1.830539566063409951e-01
-4.359192485943946815e-01 2.177175117132791257e-03 -6.110172738240011725e-01
4.900970210228452473e-01 -2.321615765781593621e-01 5.561485450391294716e-01
2.556311872980960853e-01 -8.904644460009984996e-01 -4.344690107209583374e-01
2.014010058465623976e-01 1.070795396636212010e-01 9.790716427037512437e-01
4.269999806805046538e-01 -8.314662564460191252e-01 3.836007430994291534e-01
5.110863697689037588e-01 2.966562068387392989e-02 7.695665072416606467e-01
-5.505699413943498932e-01 3.927205894286387999e-01 -3.943791796740362954e-01
2.335075846369678021e-01 -1.893977891754339005e-01 7.751539177785587986e-01
-2.156951810356607657e-01 2.914135141488082351e-02 -6.223676315430383132e-01
-2.734368974125456764e-01 -4.289643376835631239e-01 -8.131756210691737374e-01
-5.250129957776026313e-01 6.169334903819778670e-02 -7.118977526605294592e-01
4.510645790284518175e-01 -5.911527026533206497e-01 7.029554440463340326e-01
4.216227714800927506e-01 -5.539706411678237963e-01 7.285458873132240054e-01
3.876026245682823723e-01 -7.896938418854710928e-01 -3.922601237240967986e-01
5.329697071895843630e-01 -7.260366448199812028e-01 5.411797799178449386e-01
-1.328287798082004867e-01 6.906504064559392253e-01 1.843730249231921026e-01
5.939074086319042767e-01 -7.544950543096557993e-01 1.083686064327334941e-01
-7.437320486817121856e-04 -3.338841368330507375e-01 -5.922072245196351448e-01
2.935994575832038822e-01 3.576390514375654139e-01 6.799623100021151556e-01
-1.264161351197020666e-01 -9.957006947962694643e-02 -8.763083022315991677e-01
2.648750616918224554e-01 -1.111108558973388782e-01 9.356853590433025225e-01
3.174483867304774831e-01 -7.862473499793897203e-01 3.252191493076350137e-01
-5.009117441917271263e-01 5.299595033369810526e-01 -1.713544105879284685e-01
3.063858397382546173e-01 -7.540289699242170851e-01 3.363068264104401295e-01
-2.484939805970320936e-01 6.356695809648912343e-01 -1.529451801721756245e-02
-2.938476743118634618e-02 -2.084278461798699800e-01 -7.160309362196036753e-01
2.570671747717657163e-01 -6.369245415959945422e-01 -8.693182255624322397e-02
-5.722014444620785456e-01 2.814949282346447812e-01 -5.463195704055339164e-01
2.581389336769412957e-01 -9.346123398485943756e-01 -7.610214300964815437e-02
6.026279675801331503e-01 -2.682535122084215296e-01 6.390240074215275401e-01
-2.996800983649838823e-01 7.028915573692892105e-01 -3.778303415923592312e-01
2.040481928655263344e-01 -5.691508269103380258e-01 -3.332457859601308803e-01
-9.738487011530303286e-03 3.223706278020068705e-01 6.968966326526007116e-01
1.080487652390979963e-01 7.007225119329347773e-01 6.095612625321455980e-01
2.500684852720047244e-02 6.755005378342903155e-01 7.958991375353344777e-01
6.059147891739543601e-01 -7.051514786950823233e-01 4.845763208289020629e-01
2.385082284302910971e-01 -6.191065608129047160e-01 -1.791924320499249657e-01
1.919307191278842861e-01 1.973495678199148617e-01 6.589696385087334685e-01
3.503902307257941717e-02 3.181868983684126850e-01 6.520404221900181208e-01
-3.245331529295169548e-01 6.802571129279695317e-01 -4.528447618153554899e-01
-3.411671050035542385e-01 6.046358451672964041e-01 1.811750978794771927e-01
2.670642057116627277e-01 -6.532635977357935664e-01 2.040111341504156905e-02
6.055853084339930525e-01 -5.588910717837345388e-01 3.090971197382318958e-01
5.096646074327019216e-01 -4.779058753852918895e-01 7.900765951999447756e-01
-4.360112657416188586e-01 3.694490852434568207e-01 -3.683316708038742449e-01
3.818307631914012457e-01 2.734532140752483631e-01 9.063245355477546061e-01
-3.073616244383434726e-01 -2.624258938403373903e-02 -5.875901272421637511e-01
-3.917469931399978900e-01 8.195503628813091135e-01 -3.162959438367267118e-01
-4.258624624645745982e-01 8.587740273075206154e-01 -2.415547769706711534e-01
4.280867558969435605e-01 -1.572347003505800145e-01 5.917037179477129261e-01
-3.466359398943726911e-01 2.297285598016291508e-01 -5.006365077861066881e-01
5.990187739613793416e-02 4.452981898421931040e-01 5.489522875114735134e-01
-3.879303643690460990e-01 -2.384373578981041075e-01 -7.133254088250102765e-01
1.422260667517180333e-01 2.202893089031427720e-01 9.688395012515974569e-01
8.342142680726205572e-02 -6.791443297127237599e-01 -2.648154338119760864e-01
-1.479074481046546707e-01 -6.202857146213144324e-01 -7.163689014345636652e-01
9.828164925961108134e-02 -7.004761560886566540e-01 -2.319387971385152569e-01
5.350571333313675071e-01 -6.277170071162531118e-01 8.919514447489369779e-02
-1.206666250032150667e-01 -1.648280027129506997e-01 -6.326242173816321035e-01
3.935784549187860276e-02 3.153918994299230172e-01 6.518204725633880425e-01
-3.110708598480098064e-01 4.438284467612600426e-01 -3.881164092918620856e-01
-1.349152129535203734e-02 3.255017411676623951e-01 8.334708975965582356e-01
5.558631683337430518e-01 -8.238566503082312975e-01 3.380702949518352152e-01
2.471889976726664162e-01 -9.376716600232660737e-01 -2.969930067216161040e-01
5.045513600418732869e-01 -4.308794774026203922e-01 8.216009662058113561e-01
3.912244127563015844e-02 -8.194115288679190146e-01 -3.904368109290486943e-01
-2.494542902024660391e-01 -2.139851039400592764e-02 -9.264854575848491258e-01
-2.727535153029641002e-01 4.664882912471009502e-01 -5.459955116080142945e-01
3.686007710863646869e-01 6.757363972625402004e-02 9.910940868514201973e-01
2.747769977933837704e-01 3.718767413963162127e-01 9.410013942362717154e-01
6.088462643766382604e-02 2.780541424900608849e-01 6.710455095519421986e-01
-1.608843191076920476e-01 7.447625173891125883e-01 8.090078526372615486e-02
-2.815104663270745489e-01 4.223691978330494368e-01 -4.776920830693731634e-01
3.317861428707401528e-01 -8.547610359173630767e-01 -4.216624298191310460e-01
4.548015380326951296e-01 -5.757421038609071839e-01 1.248442101178530855e-01
-5.118411062552934432e-01 3.870088550038375264e-01 -7.571032065091625185e-01
-3.804497243782093419e-01 -2.688182049747022129e-01 -7.949875676039560579e-01
2.879109742996434074e-01 -6.544220995710808841e-01 2.308876508001518058e-01
2.298056894175146136e-01 -5.526532060853198702e-01 -5.711639578581372279e-01
2.302562816312820893e-01 -6.709653476933145066e-01 -3.937064255146142250e-02
1.558259683256422445e-01 -9.069831842400167821e-01 -2.869111769167539405e-01
-6.082210192287194062e-01 4.546560897720657857e-01 -5.756798635268528530e-01
5.429607136514266186e-01 -4.314463888711304040e-01 3.951872071635764150e-01
-2.483581032637174613e-01 1.578020126695497127e-01 -8.517858838611003236e-01
5.353235068126371843e-01 -7.757000107989653337e-01 -7.653710868707473691e-02
-2.866042516418718100e-01 -2.822513843133215850e-01 -9.079716429687048063e-01
-4.061873544208988163e-01 5.086853555191233056e-01 -1.846415038750225390e-01
-1.378164565336415792e-01 -3.039790230629732439e-03 -7.201123479306061892e-01
6.394980477450756817e-01 -4.053262815447230549e-01 6.171957359907382923e-01
4.400486601289408384e-01 -1.698634721522319091e-01 9.476426128690098594e-01
4.901015550821170574e-01 -9.134472606162635788e-01 1.164300312205165527e-01
-3.004424689141672600e-01 5.464812415796853617e-01 -5.618746957872137182e-01
-4.825120146992858405e-01 7.455796364844073931e-01 1.888977144022097598e-01
1.839742657525480218e-01 -4.972225335480343761e-02 8.622851177299948322e-01
6.286562270662923169e-01 -5.188520642241297720e-01 4.090588999774174006e-01
5.284126128245903997e-01 -8.089653722448362019e-03 7.712975637206541668e-01
3.104552740104282171e-01 3.216486416201346232e-01 9.473803862346077409e-01
-3.778814520475003436e-01 2.007596053324674501e-01 -8.781185693900005473e-01
2.869100871426341626e-01 -6.019903353307191063e-01 -2.402331145063961171e-01
-3.323477085760374039e-01 9.273186747842171451e-01 2.737180624769260939e-01
1.467373446417086780e-01 -4.545032148713417652e-01 -6.080053626851876780e-01
-1.638556361317137500e-01 -4.658778435588697420e-01 -5.494958322011730401e-01
9.203402561362353587e-03 6.805442244506318961e-01 3.998421235972599019e-01
1.567695073116588400e-01 5.582329185212251549e-02 7.433066164415198518e-01
1.766861103890780826e-01 -7.582413676455831419e-01 -5.723230832866402912e-02
2.599701264157283989e-02 3.812733690021395949e-01 5.974958276524706680e-01
2.297156417706529286e-01 -9.364920665920525300e-01 -1.713936361746356551e-01
3.394983287815275808e-01 -3.596105920233585995e-03 6.458762584000848905e-01
-1.806322832795152766e-01 7.660387036802792649e-01 6.572949989993077669e-01
5.678160899187245647e-01 -8.403688320940005951e-01 2.376720314577070170e-01
3.390223053135477116e-01 9.045011009287864251e-03 6.479571126611746168e-01
2.291320656987345938e-01 -1.700928102643505246e-01 8.239149408609215408e-01
-3.826455244776819642e-01 -2.610587531190133315e-01 -7.324222290982855821e-01
-3.680642678707126136e-01 -2.524808066169805798e-01 -6.865798445421484875e-01
-6.055185547465963269e-01 6.391285114877240936e-01 -4.113239703781054191e-01
-2.454725080476744814e-01 -2.263958012123566677e-01 -5.964104430656581579e-01
-1.842052849139580728e-01 6.145993126333675338e-01 2.355422761677309629e-01
-5.472748972625789410e-01 7.407432569699142766e-01 -3.891868949571166136e-01
-1.998497579510899180e-01 -2.848140567227149811e-01 -5.831650688406635474e-01
-1.108534814109320699e-01 -2.326570954563490778e-01 -6.052164341828784044e-01
2.791838444522958818e-01 -6.642673436873127724e-01 1.735811991868012050e-01
-5.292180215289338241e-01 2.858747825199837722e-01 -4.797784251856709870e-01
-1.695090654071843561e-01 -9.091331328526161548e-02 -9.094010904582486843e-01
4.341716505608763654e-01 -8.285235972782937219e-01 -2.935576109569927872e-01
5.337370602193790559e-01 -8.624261118604154008e-01 2.628554749974826854e-01
-6.892355694575383329e-02 -2.153885582136972066e-01 -6.417158839367961276e-01
-1.067654048842194558e-01 -7.947753839059931713e-02 -7.093064223367022691e-01
3.191903826018816503e-01 -7.543871919414991689e-01 -5.047784511999403589e-01
-2.844404166563024861e-01 4.935614844106763210e-01 -5.786296091210466619e-01
-1.571033698103257714e-01 7.061557839164749328e-01 1.185553068804601901e-01
4.575279857401385319e-01 -5.830879369906316265e-03 9.509991750283893763e-01
3.168630704941358817e-02 -7.959466071989482749e-01 -3.648679190685473195e-01
-6.646467896184600488e-02 6.987287857458218676e-01 2.869525983123831780e-01
-2.625594548597073308e-01 1.898518786642694189e-01 -8.440854816949485695e-01
-2.980151969399340572e-01 7.632446734876849881e-01 -2.993553382764519433e-01
-4.401068205298862557e-01 9.061632457101247429e-01 1.071034779862912317e-01
2.269645544844220431e-01 -5.861306113280622121e-01 -6.204472140138556080e-01
-2.716087647868895005e-01 3.729044448875564188e-01 -5.286009466520220634e-01
5.156583966034024025e-01 -5.776930850758166258e-01 1.590396546551816892e-01
-1.990812165203685244e-02 6.702821026606869959e-01 3.638296888695471965e-01
-4.112304599907917052e-02 -3.591776465560424514e-01 -5.539167122195859383e-01
5.324992432231441253e-01 -5.543258718327732648e-01 2.162187174370232834e-01
-1.701254231364034142e-01 -2.869390508192073280e-02 -8.846967258928077893e-01
-7.101259091660643008e-02 4.827890735448492898e-01 8.310704235073538282e-01
6.281759128802544279e-01 -5.698237822270566522e-01 3.506436042611152382e-01
-5.406177730539950543e-01 6.837391873065874481e-01 -5.284971878233344841e-03
-3.472348632502590404e-01 2.843704153116114255e-02 -5.741453403435758940e-01
4.282067156678582842e-01 -1.969794942208826505e-01 9.429949497336904685e-01
-5.453029477306627903e-01 7.941107542817794629e-01 -2.708450960968351584e-01
2.926812947800949694e-01 -6.269373158188457085e-01 -5.334321274209064684e-02
-2.762467327621804802e-01 -1.524210471496316444e-02 -9.307203121408769153e-01
1.536131116288448270e-02 7.363470705758609069e-01 4.191519181246844972e-01
-3.880540006123877617e-01 8.999133852975716996e-01 -1.271924179028774693e-01
2.546602433173131286e-01 -9.434756810074804712e-01 -1.378220742487704376e-01
4.556101552022039924e-01 -5.492846590272091323e-01 1.882791976488066010e-01
-6.428155766505383450e-02 -2.214679807535707978e-01 -6.412150974020747185e-01
-1.966842553136523009e-01 5.249646229431056410e-01 5.692997695633115196e-01
1.984320938558439829e-02 2.810234304201994493e-01 8.606488689036528861e-01
-2.163187294764691848e-01 1.264992579274147877e-01 -6.376922729146548008e-01
-2.548556412948853600e-01 -1.545062053687745185e-01 -9.408197091287264779e-01
-5.354028667096148997e-01 7.858446698989863810e-01 3.586499084459353337e-02
-2.771763940499804013e-01 -2.216990413178321628e-01 -9.298014949555852837e-01
1.297527313078229994e-01 -5.738058522617899282e-01 -3.353709997274829102e-01
2.342746190052648059e-01 -6.029935141689896083e-01 -2.342400795642763101e-01
-4.077582910536254324e-01 -6.267073064778663771e-02 -6.240738839964664608e-01
3.263847279975298221e-01 -2.297521099058945360e-01 6.019624693336140808e-01
-5.815064785921807838e-02 8.246743868041577219e-01 3.411358211375467020e-01
1.200493282151294527e-01 8.229125022949353163e-02 7.994566494942287882e-01
-1.565855845444577288e-01 9.063902384974938942e-01 2.903807425259226083e-01
3.015542762738640525e-01 2.866908227488101923e-01 6.715148253172031900e-01
1.684373118873046249e-01 2.151593141120340322e-02 7.497547332135010567e-01
5.141935691408558995e-01 3.653958761774889902e-02 8.229479882524376455e-01
-1.078190879434917648e-01 -2.615771435775033904e-01 -5.927341938776440333e-01
-2.715659014141917904e-01 1.624519686997095425e-01 -5.739072142303607293e-01
5.169608527955451560e-01 -8.959983739817177772e-01 1.340761661178258013e-01
5.992036809618205007e-02 2.254563447157910405e-01 7.260961998514116056e-01
8.796663777108626459e-02 7.052835451178833814e-01 5.476306479322722298e-01
3.606033706437824504e-01 -6.455498705509361557e-01 -3.562905825356542655e-01
2.130857969674422314e-01 -6.722394017009001299e-01 -6.507282294099220321e-01
6.247892590435345506e-01 -3.302800110881395912e-01 6.996582731694349633e-01
5.411139860988170014e-01 -6.844596171992787248e-01 5.899111127434311097e-01
-4.419288693111167454e-01 7.289782991698105785e-02 -8.827807617309928467e-01
1.965108895154968893e-01 -5.123399414419973485e-01 -5.895851312106324960e-01
-4.701210351106164254e-01 8.923394394574267752e-01 -6.185414760148335439e-02
2.606764542101090432e-01 3.678472161648856376e-01 9.506945695515691686e-01
-2.798230914560984606e-01 9.080984560328168032e-01 3.891757902893698273e-01
-5.643422123738403018e-01 7.053919641849795141e-01 -4.207295249731428655e-01
-1.556007928904575288e-01 4.662345039019940435e-02 -7.289126905138857415e-01
4.046269483542166978e-01 -9.486863680966025614e-01 -9.075539720177386305e-02
-1.619201907538718177e-01 -1.357019992854230084e-01 -6.203022124864313591e-01
-3.901277507725458560e-01 -1.639679748943776716e-01 -6.587514351686406533e-01
-4.632113660844033309e-01 5.428501965623081515e-01 -1.222005925463080511e-01
1.665004605212537861e-02 4.488660159363919711e-01 9.033105854195078166e-01
5.236596832777657973e-01 -1.028405136534773640e-01 8.973098398998925473e-01
4.979974185290237526e-02 -8.360852766731272645e-01 -4.788824423912771966e-01
1.531603252297630280e-01 2.212387355563577573e-01 6.606954501831486803e-01
1.615281755328402680e-01 4.242232869174710763e-01 9.487707235855334931e-01
-5.389859011711494174e-01 6.841772634820324495e-01 -6.655162132736719459e-04
-3.061425976871112176e-01 3.223179621975192921e-01 -4.862956344804768016e-01
-4.193437879603371665e-01 8.732620426316924922e-01 -2.053860467244812138e-01
-2.857157419355330075e-02 4.106959178122222553e-01 5.880403944568733943e-01
-2.893802715719818175e-01 1.166127831707780560e-01 -5.690681925065603775e-01
5.999707370403239981e-01 -7.958437127369460962e-01 2.366091192194541837e-01
2.614679442860737280e-01 -6.924617626594796738e-01 1.414103494418054718e-01
2.180714136051174201e-01 -5.804523301581140382e-01 -3.045938798719820539e-01
-3.065655486901870397e-01 4.330898995636127680e-01 -4.075327692701688487e-01
-1.017682934300071784e-01 5.701503039090248803e-01 3.790840498199989361e-01
3.200217090640463669e-01 -2.994446479608421363e-01 8.632870017404618013e-01
-3.458126185640277295e-01 6.305279503780633066e-01 3.591063854238252806e-01
-3.642412597612942338e-01 5.581978785630363760e-01 -8.725923340936361794e-02
4.184329599165771962e-01 2.072710126941316455e-01 7.550126756567748787e-01
5.731560565027926657e-01 -7.323238021160611844e-01 4.415601156390186466e-02
-3.662915215583072981e-01 9.036080777881533299e-01 -1.093332487208952680e-01
-3.269440555744909105e-01 4.791721126048513746e-01 -3.153064971272943606e-01
-4.089478932432674685e-01 9.151142364164662757e-01 1.693753086958120491e-01
-2.210800666220169297e-01 -4.296142662532228540e-01 -8.659493479817682582e-01
-4.416576404144093582e-01 6.109145201514010193e-01 5.912093870496446663e-02
-2.386045559156321216e-01 6.939448257026232803e-01 -1.520892080237923882e-01
4.909767145407014644e-01 2.912887212846606080e-02 7.253538435894880676e-01
-2.521350814993240097e-01 -1.754769170753907592e-01 -5.978842932146902767e-01
-1.625235476650732924e-01 5.573404701723134319e-02 -7.138860408352042386e-01
-2.376800583833633684e-01 -3.308569300778193001e-01 -9.098234624775620727e-01
5.244933402338789463e-01 -4.895953317219749468e-01 3.106372480003521397e-01
3.182595041912409939e-01 -4.320833733721308190e-01 7.402490601614277743e-01
5.928600628181239784e-01 -4.545390323972391400e-01 7.432740985479738827e-01
5.535796870864952979e-01 -7.873483882701625136e-01 -2.394030827790029695e-02
-2.410302576321100843e-01 6.037181923093214442e-01 2.101545607597700704e-01
2.956550781662590777e-01 -7.479512879257350644e-01 -5.370803250436126941e-01
1.647828483703100422e-01 -6.416497553356259598e-01 -2.070348498747905386e-01
1.391174650636282928e-01 6.234393040910213291e-01 8.031305075046160091e-01
1.028716021009875789e-02 -2.724825236508036097e-01 -6.986844131521618984e-01
-5.396035292719416621e-01 1.226243585003640585e-01 -6.577539534470616678e-01
5.728904118086352443e-02 5.115932550444071136e-01 5.095957098899001059e-01
-1.847000960427511440e-01 -3.090466674910630762e-01 -5.765216435627674718e-01
-5.572604961932142720e-01 1.931899000949679757e-01 -6.152396729539770792e-01
-7.559208183702839645e-02 3.997552610674384721e-01 7.665382852037471162e-01
3.408467192913735011e-01 -8.951238019931794243e-01 -3.562500980963840269e-01
-2.127209896375508455e-04 -2.838402737002627685e-01 -6.513988262809702334e-01
3.622101621115035308e-01 1.753561046058038642e-01 6.841086124379076594e-01
2.436809143591977533e-01 -8.231958926727690473e-01 -5.352199767541007125e-01
-1.771621503181358970e-01 1.019780773754474512e-01 -7.741864364291152212e-01
-2.692875200199570940e-01 4.071259532594999619e-01 -6.404757579085512686e-01
4.024348584150377189e-02 -3.127967586096799257e-01 -7.235257763922617880e-01
-2.915682999456428726e-01 6.066697730341857886e-01 -4.653615788860772651e-01
-5.253170668499894669e-01 4.743668513281180110e-01 -6.971231221650699972e-01
-2.613862818149712552e-01 -2.574606860322989355e-01 -6.018417356636915905e-01
-1.603798388940158026e-01 5.006968145680882332e-01 6.816283399689598843e-01
3.275349478636096490e-01 -5.066679713486157421e-01 4.281209453580636093e-01
-4.406526437962833831e-01 6.280796965345268879e-01 1.083519998576956411e-01
4.186632462300600710e-01 2.394825361931103291e-01 7.990703484033671034e-01
2.776423136793765289e-01 -8.200779135398528208e-01 -5.108935711022577486e-01
4.049113995925088805e-01 -9.024300768913187110e-01 2.195163550146370934e-01
-2.111705303627935681e-01 -5.472749007097071905e-01 -7.277509962084168782e-01
-5.351952534794686134e-01 1.741384742074536807e-01 -5.881811928930240629e-01
6.212684038015937604e-01 -3.420729315816870009e-01 7.227267518939042290e-01
5.724154143180680832e-01 -6.302946784070890818e-01 1.509994068840988246e-01
-5.476575287768101763e-01 7.992034850404923230e-01 -3.399699474275330591e-02
-3.376388763586300745e-02 -4.690512014223937043e-01 -4.837779008873175357e-01
6.224665320743471425e-02 -3.651029917810213465e-01 -6.218704795589428125e-01
-2.369586193260239115e-01 6.769018727041165029e-01 -1.178065286980992943e-01
-3.982882914287212001e-02 3.699148161888069497e-01 6.599981296003417652e-01
1.357920871615056202e-01 -4.415103767943744373e-01 -6.392203322378088304e-01
5.953418624294330996e-01 -1.998965096610996750e-01 7.307032592955059469e-01
-4.612211825858398839e-01 3.592522118396012654e-01 -3.790560866982814470e-01
1.263609924629352510e-01 4.026649507626897107e-01 5.864782144188015467e-01
-1.281924164980559888e-01 8.955538414849588680e-01 3.721011585123401022e-01
-3.381974765314177400e-01 5.122482601080544651e-01 -2.401094922707392443e-01
2.534507972984135216e-01 -5.739057248068170081e-01 -3.556694297756519685e-01
-2.613414476318858329e-02 3.283828661939380833e-01 7.269149362762425959e-01
2.806469291901545482e-01 -3.369478573821680922e-01 6.716729126134241001e-01
3.048980980144459507e-01 -7.918903811687706684e-02 6.458182745073332010e-01
3.313585580372478967e-01 -6.213334245321734395e-01 5.514095678478465601e-01
8.145434886319347090e-02 3.733295924078780526e-01 5.952924350010055932e-01
-3.504768556480671871e-01 6.592468188828543019e-01 -5.126029525543552845e-01
-4.407070704300179442e-01 5.742053501132627913e-01 -3.891581956088292771e-02
-6.086836253530231514e-03 3.097473272181741621e-01 7.143517791411475581e-01
4.136561599362337249e-01 6.826958984973639268e-03 6.560181861140280679e-01
4.404595619832161746e-01 2.005487233901892541e-02 6.731099047549898851e-01
6.426462757871172216e-02 2.838183422108730980e-01 6.637347392316309547e-01
-5.362158207641529728e-01 7.008738881131404419e-01 2.141504388783935578e-02
-1.169587353819429888e-02 5.858517817470488831e-01 4.201298165569269383e-01
3.240660566333408710e-01 -6.005423878247508895e-01 5.543908773996990558e-01
2.467265269816816819e-01 -1.774019962377945125e-01 7.105565701287859248e-01
2.541718338386429465e-01 -5.897926303690775862e-01 -2.826819607244255295e-01
-3.714126450808043489e-01 9.317194044911937256e-01 1.732541599436714791e-02
-3.399603697794832402e-01 -2.329898138159184340e-01 -8.940452086205643578e-01
-2.196226811401624790e-01 5.949280791199991203e-01 6.515696795926136931e-01
1.593758572638319937e-01 1.598291949575518234e-01 9.671894781312195821e-01
3.317004683942975651e-01 -6.159491747612773072e-01 -8.090197629345020902e-02
-7.965944472037323268e-03 -6.082282544411019565e-01 -3.971651562392708446e-01
-5.253096207863949818e-01 4.840348682895481147e-01 -6.906189542123547520e-01
-8.644803872639659700e-03 3.593425185977713321e-01 6.395099549008488315e-01
4.070368534752847323e-01 -6.234865982772634929e-01 -8.782258518434847561e-02
2.497748999884712162e-01 -5.735354275759051434e-01 -5.501506344227082845e-01
1.092685118242626985e-01 -4.184249015919646042e-01 -5.985761909037272677e-01
2.415263801001708566e-01 -1.815457952128831653e-01 7.255535446822363177e-01
-2.110285901778493345e-01 5.767316118794731938e-01 6.547901069727980472e-01
2.225340610278125908e-01 -6.674128752699689526e-01 -6.697830814914974840e-02
5.528680745251660089e-02 -7.222843310607325318e-01 -2.873681438263138155e-01
-4.372819861596053403e-01 -1.430606338965196289e-01 -8.116323679626188392e-01
2.787433227280229908e-01 -6.244575880533199674e-01 -1.056378085879386003e-01
4.462826121754217557e-01 1.179355143361085767e-01 9.254572785544527003e-01
2.212831545940090877e-02 -3.750170131583100419e-01 -8.292073644241122476e-01
8.161213682718405915e-02 4.939944449377466906e-01 5.307061430083898079e-01
1.946857222144078026e-01 -6.450849857756402184e-02 8.742609068323542454e-01
6.158060247836278922e-01 -5.286685906195420781e-01 3.665975728523708788e-01
-5.739827408964989219e-01 7.385440736358049874e-01 -3.313798303895983399e-01
6.449082446842722138e-01 -4.782144360262768346e-01 5.225339169793018490e-01
2.790623154076782853e-01 -7.834543265533983059e-01 2.322891785876921578e-01
-3.890257248481887031e-01 -1.578740727869926419e-01 -6.543716430517416693e-01
4.006642486907220913e-01 -7.259765032317471167e-01 -3.648724676702142511e-01
-5.392797984728692207e-01 5.445876389803341322e-01 -1.906358008152884698e-01
6.541540413822774513e-02 3.072159031935125517e-01 6.442368210784386040e-01
-2.352889685355502858e-01 7.283626644655726290e-01 -1.496503597518588080e-01
2.523315439684483685e-01 -1.275057651734426145e-01 9.144184415996199355e-01
5.053641861584372563e-01 -6.922467809283432416e-01 -8.279840770985569254e-02
4.956302395435060459e-01 -2.744956589216983045e-01 5.267526550501813176e-01
1.725122618066562974e-01 6.274426186215439349e-01 7.262279428978246631e-01
-5.475614322834502223e-01 5.314508866580630597e-01 -2.205033487053130459e-01
-4.214227544886358645e-01 2.740511799505861851e-02 -5.901177295319852689e-01
-1.027899408096901862e-01 8.226484249889450817e-01 2.303777328892042675e-01
3.581774565269366661e-01 -8.050911914486529319e-01 3.681429695093311749e-01
2.747180834229701052e-01 -2.797230692172057998e-01 8.145987539887222795e-01
-3.746891993773655005e-01 -2.650293366688417918e-02 -5.945915986871278536e-01
-1.361997160259625916e-01 -1.297688490317342458e-01 -8.987264959876344328e-01
5.535540318758805922e-01 -6.039396001254480062e-01 6.681170748587067498e-01
3.041970045291312874e-01 -6.252062517672651865e-01 2.050195666969836517e-01
1.103351916699434332e-01 -4.383165356860701523e-01 -5.508998828422655425e-01
1.835401260493814066e-02 4.718029308729881355e-01 5.216727662543347854e-01
3.304864162682450424e-01 -8.333184858507433068e-01 2.825474990938227626e-01
3.144298244542896303e-01 -6.043825739470198855e-01 -3.077302432371558094e-01
7.065278217969536007e-03 2.800527640244799832e-01 7.489005494894742654e-01
8.966095909778665218e-02 4.244276618837050097e-01 5.674589957770789228e-01
1.546803200274651513e-01 -8.837110086999819814e-01 -4.601203151697032534e-01
-3.801014290542397700e-01 4.693379792572860976e-01 -2.674717520872659793e-01
-1.804277870242974036e-01 9.235962206450549702e-03 -8.744485719678106728e-01
-2.512495890141656085e-01 2.305080215536720600e-01 -5.917664906960801163e-01
-1.073047306358035358e-02 3.186253919475633412e-01 7.063217220072860458e-01
-4.846660527287173226e-01 5.491084578351173029e-01 -6.621407809265626998e-01
-4.775551245763898223e-01 8.579514557844580835e-01 1.371070627965975675e-01
-2.589563595383138628e-01 2.624847092018249839e-01 -7.856119563937431494e-01
3.856797378450588787e-01 -5.918033607631019155e-01 8.274655334616078106e-02
1.261442086204294100e-01 -6.286933840272224128e-01 -7.371159955076441728e-01
2.204429739621145412e-01 4.876592042948181827e-01 8.907222556388314505e-01
-1.395592492805695084e-01 -4.350851198339588666e-01 -8.888310455099246443e-01
1.038442001452911240e-01 -7.247607045390709324e-01 -6.941528328441772810e-01
3.167693362830439896e-01 -6.183168282322792919e-01 5.067735554964101219e-01
1.330591439212237548e-01 1.288644838660109038e-01 7.222535243540488814e-01
3.225341404816458035e-01 -5.646777959400017810e-01 3.441419742188401854e-01
4.306692947585131215e-01 -4.756000087621338190e-01 3.287989768498245091e-01
-2.377395151629081715e-01 6.648063032729322197e-01 -9.016099946468722481e-02
-1.355674598418484256e-01 -9.719298945979689894e-03 -8.156587433844769697e-01
2.562440759615214336e-01 4.829010296568815308e-01 8.584913105822867818e-01
1.689762130383684613e-01 -9.148143611453217749e-01 -2.936757070631461075e-01
-2.187634825643643421e-01 -4.599097237851185183e-01 -8.444353948384991648e-01
-3.244983485955702518e-01 9.362438785424468390e-01 5.503152015132495994e-02
-1.354718202743299127e-01 -3.339358573087754523e-01 -5.625783037494985761e-01
-2.294885258522794680e-01 2.109148605558159584e-01 -7.833997315818411744e-01
-7.404406060556392721e-02 -1.606822203037371055e-01 -8.431175355123198267e-01
2.552533190778468741e-01 4.829133339139307646e-01 6.881907693450328711e-01
3.504737197301099894e-01 -5.434116989199192505e-01 6.781969006857834215e-01
9.231495450167667705e-02 -6.365019668875896430e-01 -2.877625088795492392e-01
-1.028238004526367405e-01 -5.701299327792217486e-01 -4.941091787640721766e-01
1.919617906034821325e-02 7.892846880575957735e-01 5.157098514161212455e-01
4.957743749553743251e-02 3.601273543861931992e-01 6.087494288415589150e-01
3.217677694166855562e-01 -6.937690048345369620e-01 4.429190066157038252e-01
4.458157160082533155e-01 1.275126677701259315e-01 7.355506878989837016e-01
3.123755830673528022e-01 -6.584423004601459573e-01 4.475972404764165247e-01
-2.073567505132818400e-01 -5.530864463466618197e-01 -6.629383851390561189e-01
-3.025812281368940315e-01 1.077516571723388522e-01 -9.030658350426274961e-01
1.798880638634227369e-01 -5.780332079867865902e-01 -3.127638391504974358e-01
4.278782042755675530e-01 3.440355356657512353e-02 9.667629368425296743e-01
6.113985292181929321e-01 -6.574547625121975880e-01 2.127811755546171746e-01
4.519965164654515810e-01 1.667239978632669151e-01 8.704606928969410573e-01
-5.674463719992770550e-01 2.254637129301751419e-01 -7.154212345738159007e-01
-5.271946096727210263e-01 3.521249581094309522e-01 -7.607356467291698232e-01
-4.122537414438483538e-01 8.273912805588778951e-01 -3.084536527054622113e-01
-1.701837776660846124e-01 6.189338227808391935e-01 2.413883026574028257e-01
-3.503466897830974647e-01 9.344914529016471461e-01 3.221051228404817751e-02
-1.112805152620537502e-01 -6.303827449041941033e-01 -5.195438963125159626e-01
-3.626176923974086530e-01 9.388157208979529544e-01 1.139748130814967342e-01
-2.464750836805009171e-01 5.832318757817179788e-01 3.199364974749723811e-01
3.483894252608770170e-01 -1.468579329840261072e-01 6.123530694285631570e-01
-1.480292562754379447e-02 -2.495946103989531983e-01 -6.764758746316332783e-01
5.388234209968024713e-01 -8.777579374433217563e-01 9.237086937242144913e-02
5.149341511109390979e-01 -1.893028495952376045e-01 5.967896145882765069e-01
-2.963876206252388790e-02 -5.282031050328823696e-01 -8.436233083456105009e-01
-1.215398267745187444e-01 4.667837705750015331e-01 5.746450186462175314e-01
-3.137893248893687259e-01 9.361956630262898704e-01 6.404932459819955015e-02
-3.781311731658253961e-01 5.860666255753086418e-01 2.776500119054996565e-02
-1.747655136825506106e-01 -8.825764077276165853e-02 -6.271950136349641047e-01
6.324841903158028300e-01 -5.754808182959706420e-01 3.582900842820156417e-01
-5.515055004768728564e-01 7.571675669994601954e-01 -3.489668534319187443e-01
-3.431020379176608626e-01 6.276274868241513705e-01 3.570520293149490598e-01
-5.900237803945074244e-02 7.260051499652901974e-01 2.896833239089975920e-01
-5.844504420438981739e-03 3.073093887427053583e-01 7.191524432055843574e-01
3.598613132442388118e-01 -4.006959800200963762e-01 4.761977407611948654e-01
2.667498905197684400e-01 -8.938319482504228919e-01 -4.218420283133617055e-01
6.344355837868554948e-01 -4.631366801852992432e-01 4.916925100706804885e-01
-4.271094522697740925e-01 3.108803572730395870e-01 -8.279226766703478013e-01
-4.528561058467908129e-01 8.144997349532172581e-01 -3.324347072409085113e-01
-5.872883302171548747e-01 6.756687440772174424e-01 -4.169762798514440871e-01
4.832139280424976313e-01 -9.169732656312524766e-01 1.141118227323894979e-01
1.970736163755491821e-01 1.998929005357024183e-02 7.126182069127775520e-01
-3.189339876978375954e-01 -1.659807922915835232e-01 -6.122615479173274533e-01
-8.572775326870471502e-02 4.060682203055095973e-01 6.816538643207538106e-01
-2.916615372135995532e-01 6.039949185918132013e-01 4.461697909885613267e-02
-2.814014564288083720e-01 6.005720523253921250e-01 -1.376719347075110733e-01
-6.057220782260873682e-01 4.672425680302815243e-01 -5.797976837206473277e-01
-7.523368995523266323e-02 4.000532148953599987e-01 7.684934617711784988e-01
-1.111302605506879065e-01 8.709711965359054897e-01 2.921093796294834677e-01
-3.902703521811167198e-01 8.113985600664060938e-01 3.789800297211965985e-01
-2.326293373003427978e-01 -2.245971063501250951e-03 -6.081037046987698425e-01
-4.293951745885819515e-01 8.901056840776641055e-01 -1.504473903685468739e-01
1.614375742080125797e-01 6.410889711453501283e-01 7.165504268171367652e-01
-6.107854617227521932e-02 -7.140286601395910981e-01 -4.899210303628218632e-01
-2.752522873090484934e-01 4.698786877504122494e-01 -4.841825408074181825e-01
5.853000529677030439e-01 -3.608421764259988618e-01 7.942480771703077647e-01
2.123714416175703501e-01 -7.675063122158229945e-01 -6.061986460746789929e-01
1.547374136503401609e-01 -6.369493913346614411e-01 -7.131420880741302648e-01
-1.810510606138032164e-01 -4.538285061147908639e-01 -8.701535357616206889e-01
5.722466269103909653e-02 2.035038364057374372e-01 7.663549005856219454e-01
2.513648855306468421e-01 -8.470452397252612453e-01 9.891263284651648224e-02
-1.573408551410673817e-01 5.414253858754270593e-02 -7.810540835375829882e-01
1.949581727366835882e-01 -9.265069727013386380e-01 -2.866678843788002529e-01
1.964378425828164076e-01 1.324582109932754756e-02 9.402060974967777485e-01
-5.878390593866938962e-02 8.335191558773826781e-01 5.755386545145821930e-01
5.513168930737093465e-01 -3.606107373358398704e-01 4.763643195721373735e-01
4.881889198772988991e-01 -4.183198794572322021e-01 3.919237589226093887e-01
-5.049299316501523194e-01 8.311471627467996726e-01 9.394279061109941931e-02
5.998448435962712155e-01 -2.601474953671165102e-01 7.791809949510766220e-01
-3.764495498915992888e-01 8.137883558683337570e-01 4.010630528822026752e-01
1.357856935014995770e-01 -8.896736889180351104e-01 -4.187428425664416198e-01
-3.719684820340191100e-01 -2.063672303123055274e-01 -6.620049492865563989e-01
3.779556263120831816e-01 -1.519328649446611557e-01 9.601646304373325780e-01
-3.521105812967488813e-01 5.471613249586715355e-01 -1.353314903692154347e-01
4.019765883479184398e-01 -8.943029272931025675e-01 -2.755189488608911219e-01
-1.137805833980919390e-01 -5.243214626804604261e-01 -8.465644200591231350e-01
1.666673783640840178e-01 3.911174864459726064e-01 6.031010579832153384e-01
3.165503201525420029e-02 -3.846399499951992373e-01 -5.594951713678525396e-01
6.258288592344219969e-01 -5.889051935819071826e-01 3.232919303405757394e-01
2.774113120758233131e-01 -4.879996999675109692e-02 6.623326766690347256e-01
-1.619460330360232292e-01 -5.418121613379996981e-01 -5.568987917511679653e-01
5.531783110056008868e-01 -2.219117480563203570e-01 6.022160380885976938e-01
7.091229799497861253e-02 3.887437778274175915e-01 5.858404156544648744e-01
-2.160116479818933177e-01 -3.266990564374994133e-01 -5.845995964301083925e-01
-2.592753480962789112e-02 -2.377190958880807392e-01 -6.728619989909214727e-01
-2.530216776249472055e-01 6.801691920568332383e-01 6.224848309205099905e-01
2.875820807019348058e-01 3.183071215806157483e-01 6.671668186454916549e-01
4.407524637869830175e-01 -3.426586016479709618e-01 4.719890126277664910e-01
-1.651213221923080732e-01 5.143060004367584481e-01 6.916355126400720588e-01
-1.947602542610619991e-02 -6.613018600888175280e-01 -3.966000727973210127e-01
-3.104804874247605317e-01 6.403831264892112518e-01 -4.752905258356051044e-01
3.430758559515489359e-01 -3.533807518951850302e-01 5.306577428242866823e-01
2.197487858849263287e-01 8.225725326828269013e-02 9.822533013870757834e-01
1.805585942152063139e-01 -5.154953374216401096e-01 -4.604331466235236370e-01
4.740661277584832245e-01 -6.590373962402372721e-01 6.365783233461353996e-01
-2.771108889785008356e-01 7.064681789386704214e-01 5.871014790939595995e-01
-2.571948125570537869e-01 -3.061476192971528398e-01 -6.036721394025400533e-01
-5.365533544006900746e-01 8.199311171155955202e-01 -2.079399516993644115e-01
4.319791981916696888e-01 -1.960840027730164914e-01 5.718884796698882056e-01
3.295219882139545642e-01 -3.227116242696252413e-01 5.639159025576030437e-01
1.623855220970006064e-01 -7.854864636254784704e-01 -8.380714658143748053e-02
-1.920255918926538907e-01 1.380373680980530038e-01 -7.043394236435619460e-01
7.074884510691545336e-02 6.551742133982917382e-01 4.845082644648553427e-01
-1.390827948004925707e-01 6.180717208212507252e-01 2.767816374228202481e-01
-9.989991364268822893e-02 -4.176780523494831310e-01 -5.267805936963849689e-01
-1.991104444712273047e-01 6.005804110140060548e-01 2.598366757755092848e-01
-5.095195025898756613e-01 4.753779608683678659e-01 -2.592980059326147613e-01
-2.562797376728719878e-01 6.901454699374590662e-01 -2.428223744432136955e-01
-3.042867212092313367e-01 4.697118840276632845e-01 -3.737795145872618852e-01
-2.832464919848695084e-01 1.830867730930380022e-01 -5.598598341243955501e-01
2.705978075822723650e-01 -8.067663645869069811e-01 1.888055359591744586e-01
6.056857254153782399e-01 -3.068264828118893450e-01 7.685863428345608428e-01
2.749851918008973661e-01 -8.154337125879064230e-01 1.913526025464676317e-01
4.543526694850910097e-01 -5.037194904497189762e-01 2.761552765836337575e-01
-4.021779818423053543e-01 -1.074690051798697504e-01 -6.410691689174246033e-01
4.214687507900547470e-01 -8.361775936085339422e-01 3.725265698399899406e-01
-2.715691737161393671e-01 2.568971205433079677e-02 -5.895449457958640282e-01
3.572692507367750819e-02 -7.821611381081038372e-01 -6.228176751951572943e-01
7.441270664348821617e-02 -7.760361307288687893e-01 -2.588130166999475512e-01
-5.268146929007294643e-01 8.432412234556799779e-01 -6.742841390881171293e-02
-1.605815344709601855e-01 -1.763102781349000503e-01 -6.085194394628304915e-01
5.681418073125521495e-01 -1.630749682970508985e-01 8.347008150120547310e-01
4.663942709529971253e-01 -5.798300999788457144e-01 1.189190558546336235e-01
-5.834619439170501964e-01 5.493896264669380081e-01 -2.615012167116925745e-01
2.577799931110260623e-01 -2.368448067395656498e-01 7.076377499998428577e-01
-4.263536195637612769e-01 4.295605176665034386e-01 -7.609633901755757934e-01
6.799337277424302717e-02 -8.116379241120387222e-01 -2.959389431661801906e-01
-1.059035102196920763e-01 8.815337261084641440e-01 3.647311241476099974e-01
2.939439277059358591e-01 -3.913788216857014279e-01 7.202681737191153344e-01
-2.225196187938167092e-01 9.002925427732676456e-01 4.423941264588802658e-01
-2.195613382552301374e-01 6.950997802192261377e-01 -6.007929867931512125e-02
2.558578057409484074e-01 -5.638364675180101981e-01 -4.557967186919464897e-01
3.055598224427162890e-01 -3.588481264119943170e-01 5.901289874015256398e-01
6.039542024667313713e-01 -3.749600477368593698e-01 5.208499287489888330e-01
-2.274728557807058904e-01 6.609521550444938942e-01 -1.503336629800413639e-02
5.526481612568778790e-01 -1.532069096332868141e-01 6.607849835826989926e-01
5.627892541549415206e-01 -6.405616148805538534e-01 1.175096489218242918e-01
1.072685659095696104e-01 2.047412148917202579e-01 6.936295262653732197e-01
5.579371135148887273e-01 -6.393797560283994708e-01 1.099644437291964760e-01
1.191935839574398415e-01 -4.399526036468539569e-01 -5.618214495695194044e-01
-4.054850844117321440e-01 4.009438526825165328e-01 -7.788504384212281417e-01
-3.685750139731943514e-02 3.441765346872775466e-01 7.155752075022501213e-01
-2.533630267188785035e-01 -3.498289762270957448e-01 -8.948352795292556783e-01
3.203044395845593972e-01 1.752706269993716537e-01 6.664813087549413817e-01
-5.053212008100401720e-01 7.617985520584589221e-01 -4.011397604506092840e-01
2.368649969500960240e-01 -1.980506253653360471e-01 7.666529426773831535e-01
3.166389966902437569e-01 -6.209517031852130886e-01 1.102865703462132261e-03
-3.728531907303726523e-01 8.926126593785912444e-01 3.092347334929802516e-01
3.817248078575025683e-01 -4.205808979695339067e-01 8.193082133485312113e-01
2.977410031576772087e-01 -3.547326792342589963e-01 7.820591350090334570e-01
6.172120904874999203e-01 -2.910779630540145102e-01 6.688163228214284439e-01
-4.387008320278105167e-01 6.115578200564085742e-01 6.512108077384005933e-02
3.553756689782111566e-01 -6.674033881131671286e-01 -4.144538569960883878e-01
4.626453842408341233e-01 -7.082817935292077260e-01 -2.068189600853350685e-01
-1.847673369984964564e-01 -1.131825062334717441e-01 -6.157256999066348380e-01
-5.985558547463325496e-01 6.147089776157945717e-01 -2.374329796743147591e-01
1.921690989750209633e-01 -5.570800665066030222e-01 -6.653448964818649003e-01
4.180998804455401952e-01 -5.993128513875350949e-01 4.006157770473291191e-02
-4.511236466672512990e-01 2.739047191395828085e-01 -4.525966557851915928e-01
-1.869627517590974064e-01 6.743120382260522350e-01 9.205874772126036720e-02
-4.625848284966503909e-01 7.451776876818849704e-01 -4.474121021527214803e-01
2.761541802408346361e-02 4.366976075431960314e-01 5.506766915831374787e-01
-4.058918922854876099e-01 -1.926898783028563877e-01 -7.029236441981491224e-01
5.710606405854130596e-01 -6.003008248764706289e-01 1.920034277429521485e-01
2.647156844713992596e-01 1.132909059545998826e-01 6.608948761592441379e-01
3.855213447542570893e-01 -7.771303304618493168e-01 4.420007307600212765e-01
5.278130910949325738e-01 -9.366543285823464293e-02 8.901832912135241305e-01
1.869300777033729988e-01 6.832848273368970216e-02 7.033063060887966289e-01
-2.544354113269854389e-01 6.201546081871323057e-01 7.606894355324615720e-02
4.725420585907284809e-02 2.130003294175257245e-01 8.360593382459367007e-01
2.948798631487407063e-01 3.984734094802864224e-01 9.050224205182082482e-01
3.242270853087467208e-01 -7.522652171437385071e-01 -4.984981805384605114e-01
-3.475165772157899902e-01 3.799882744201596996e-01 -7.760048982382280469e-01
-3.541062151228712152e-01 3.323953078585471788e-02 -5.728040300051834288e-01
-3.440711066205834889e-01 -2.970726390883105528e-01 -8.472812612489114548e-01
2.196248448728465863e-01 5.682845248543427763e-01 7.466929865405873556e-01
3.455008681078883259e-01 -8.888817694440239725e-01 2.012131351118314204e-01
2.071112558594514486e-01 -7.179556840945582330e-01 -1.471430645884609818e-02
4.819748562578799467e-01 -2.689613587749174473e-01 5.280501271871947955e-01
-2.267027888035621219e-01 8.693093727696302730e-01 2.001510256840343012e-03
2.379835960633202019e-01 -8.941071594950572576e-02 9.235589046434202753e-01
2.430031157894644300e-01 -6.966856974992527984e-01 6.448928983511824364e-02
3.993196702430321099e-01 -9.493534819541696868e-01 -1.012868204427021801e-01
5.909419935884800967e-01 -7.868116654347708794e-01 3.504700679212151004e-01
6.088132634099975293e-01 -7.704929074204840411e-01 3.179679502153557880e-01
5.717708973925507143e-01 -3.050810246976786710e-01 5.476219375736232076e-01
-2.927394732468062144e-01 8.717741734678172705e-01 -1.159955658009094032e-01
-2.585356796622306219e-01 6.891118717908757407e-01 -2.539756270989184106e-01
4.142157795619255678e-01 -2.132710714065493562e-01 9.393775826290285957e-01
5.069313001612451020e-01 -9.003849712008534789e-01 1.516543792599928941e-01
7.575951406039778402e-02 -3.803053073388151795e-01 -7.449024094414996577e-01
-4.814333520854541942e-02 -2.364587929738794503e-01 -8.547869112629309374e-01
3.385170608603071951e-01 -6.104525778365933464e-01 5.349378257778919510e-02
-2.573330421286585401e-01 7.019574745730947640e-01 -2.446457857677732939e-01
6.186772099028475802e-01 -4.105778102765172966e-01 5.102027119936829447e-01
-9.351128146319182682e-03 -6.778245689952498987e-01 -7.447995355119420013e-01
2.298581789188464675e-01 -8.858982513494120248e-01 -7.187132671741644670e-03
2.662313778054272717e-01 4.011326896459561087e-01 9.274693521571653054e-01
-1.991192347561564213e-01 9.229772116958060435e-01 3.402593459534298259e-01
-5.818537162672248186e-01 7.392251779885853358e-01 -2.943680846745927449e-01
3.306743221803654653e-01 -9.163221666508227781e-01 1.145895905482511024e-01
1.837984748045243533e-01 -7.393205527549048250e-01 -5.162968704699228556e-02
1.392587158604769448e-01 -5.563527246518181757e-01 -7.365930006688922171e-01
5.368972799199022150e-01 -6.391232052591353519e-01 6.431307104989656409e-01
9.908234006453200959e-03 3.223312072646719040e-01 6.691378686919631225e-01
3.979878591823003964e-01 1.372358229104106986e-01 9.651724392238700823e-01
1.947386375731048613e-01 -5.071662643643128909e-01 -5.527997969549814927e-01
-1.231811966999288820e-02 3.840478472251204756e-01 8.732004642230031255e-01
5.467403733713999125e-01 -7.519558600778494806e-02 7.300169087706170901e-01
-6.193120846738470880e-02 -3.860099602034722244e-01 -5.354819385058137149e-01
-3.006418838233805291e-01 6.007090171680088408e-01 3.917032955594152432e-01
-3.879467604645446821e-01 -2.305280463171699989e-01 -7.041446779468528705e-01
-5.317977503622521862e-01 5.386562311291358540e-01 -1.896163990191026827e-01
-6.004292129551828117e-01 3.440964487735869715e-01 -6.048521306596076341e-01
-3.190127011512199351e-01 -2.706497555509191355e-01 -8.924846020166501415e-01
-1.479416278127848039e-01 8.525354844684824851e-01 5.633310564767438633e-01
-2.004982310740333618e-01 5.379980964899032658e-01 4.774990111864549358e-01
-3.162720560029228523e-01 6.020081928080692757e-01 2.277932103377369177e-01
-1.892521371041795686e-01 -3.671842474331394324e-01 -9.085492399651552420e-01
5.706365829237564080e-01 -3.570004790362407143e-01 8.131599409793877076e-01
2.094639599738016278e-01 -6.657235357953796839e-01 -9.801582620762150366e-02
-8.425165904112617843e-02 -1.184536526612723489e-01 -8.210090520931675462e-01
-3.137083670916251399e-01 3.969991268851557065e-01 -4.267016958605031607e-01
-4.116915827484325940e-01 1.734259739035417525e-01 -8.814772776019507150e-01
-2.953401532663791906e-01 9.433295832336260345e-01 1.912888994782064034e-01
-5.271285243249811403e-01 8.013295551041682563e-01 5.265732226599358079e-02
3.035126726543692088e-01 -6.289477617308456558e-01 5.458316302715414403e-02
-3.552974230992820420e-02 -4.303347218031273735e-01 -5.076432749059995864e-01
-3.427663842012839135e-01 6.260509031392610391e-01 -5.425750122286612243e-01
-3.766661003326524648e-01 -2.749429628149253624e-01 -7.370567725422788596e-01
-4.581768384825430362e-01 4.955370711296513964e-01 -2.056555590419362756e-01
-5.058050709657735400e-01 4.864685738839443219e-01 -2.412846050426642741e-01
-1.525933487257219168e-01 -5.838353994267373448e-01 -5.621473133644528941e-01
-3.173632039394143067e-01 9.348009187055293934e-01 5.175321849713208217e-02
4.366609167031472172e-01 -2.199441455504575760e-01 5.583390679675712676e-01
2.951492710020142130e-01 3.521968830258803140e-01 9.398532342756589220e-01
3.445713459467494300e-01 -5.058325137565499174e-01 7.086760953272251973e-01
1.702006694835963285e-01 7.523102771714987314e-02 9.454556773867660580e-01
3.825435813232728188e-01 -8.013976385062754337e-01 4.024008502145854371e-01
3.304579389383853205e-01 -8.300264705742135263e-01 2.876911519232975278e-01
3.604939322633462506e-01 3.189905681217127809e-01 7.465400825139392182e-01
-5.102873033161979821e-01 6.158332106269639450e-01 -3.438972817807763732e-02
2.677960383223957908e-01 -2.992869182107880666e-01 7.208000467776243259e-01
-2.967254036910176307e-01 4.679112980298131760e-03 -5.844368483825749250e-01
4.111295399351168611e-01 -6.964685605307847638e-01 -3.158182006633763472e-01
4.061278543286031550e-01 -5.402678289281120927e-01 2.272770940703766340e-01
-5.865330174258865936e-01 5.569653488539429986e-01 -5.623749428667562666e-01
-3.000911884704126065e-01 -3.566539722146034874e-01 -6.553026991984196581e-01
4.420355095164859027e-01 -9.160460376957089146e-01 1.791152951680444749e-01
-4.896225998819820902e-01 6.066122561837609117e-01 -6.077217874702275369e-01
4.727787128030104813e-01 -5.767428800135856459e-01 1.296658304778563753e-01
3.926981838598866091e-03 -3.678515337786300576e-01 -5.618074780366657528e-01
