1.665374942659093027e-01 -9.077734389050232666e-01 -4.960971287461504176e-01
2.879456967533299272e-01 4.920827792568144288e-01 8.773406425228887917e-01
5.214900431677171877e-01 -8.895693163757161237e-01 7.010661190546151056e-02
2.730516817355760351e-01 -8.966442343158725903e-01 -4.455356105711661407e-01
6.870135342948179291e-01 -4.449187210595824116e-01 6.478924476284918521e-01
4.063676611770349889e-01 3.467969873765552324e-01 9.128540528575554980e-01
5.528516482753781380e-01 -2.093540477743122043e-03 8.779323435874610837e-01
5.693511145630023584e-01 -1.020408712086061098e-01 9.015393561715552284e-01
-2.664526234637423774e-01 -4.689677347787380435e-01 -8.677820115951270230e-01
7.080651062074878599e-01 -4.103980170908784753e-01 7.336126651087835349e-01
-4.199582678868474805e-01 9.336432743914311327e-01 1.708474121939108359e-01
-5.181565932062499602e-01 9.640102319668090169e-01 -5.013210026434044772e-03
-6.621201782922194745e-01 7.942975337711566386e-01 -2.651769998791168592e-01
-4.256938995775496060e-01 -3.312381983800610774e-01 -9.272386514344992392e-01
3.357224953671094081e-01 -9.702066420137427372e-01 -2.778703640542342646e-01
4.959380894008321161e-01 -8.980243872361525215e-01 -9.192923606516396548e-03
-5.933404426046259283e-01 8.446302045551338233e-01 -2.537728420178040900e-01
3.716617751135936620e-01 3.293047920065360068e-01 9.128460244146991975e-01
5.429497945933620118e-01 -4.282128948489495601e-02 9.079255001821338045e-01
6.519895590886307657e-01 -6.323436351905992181e-01 4.877499949529413015e-01
2.297365138427672482e-01 -8.801712470191709325e-01 -5.030526746781868175e-01
6.401317249494739015e-01 -4.008217806624116419e-01 7.275271075429092793e-01
-6.170063353643505666e-01 2.889105267468649596e-01 -7.800761507295738140e-01
-3.637569951174762228e-01 9.750715197696266934e-01 2.378823161985078871e-01
-5.980661013773801438e-01 2.001882327076850987e-01 -8.136240210601601852e-01
2.254737391576908112e-01 5.104335696920153653e-01 9.055329983473713318e-01
6.349848348725529723e-01 -1.674799016613736646e-01 8.882570925142430074e-01
7.069979284257594809e-01 -6.009692655021744434e-01 5.170463510042487831e-01
7.103182609569737016e-01 -4.124324995841470165e-01 6.990495971830285038e-01
-6.609567334918048376e-01 2.212376871267209555e-01 -7.928625817182205493e-01
-2.764378010078361037e-01 -4.777346091252556715e-01 -8.623458687189291538e-01
6.712712812302169541e-01 -4.978044294058470154e-01 6.075377716760430591e-01
2.275882750532153276e-01 6.085937516923650703e-01 8.559873962404075387e-01
-1.180742887082867620e-01 -6.220930459076570163e-01 -8.119520780520183001e-01
3.304150631329415000e-01 4.275452388688126271e-01 9.641348309390010973e-01
6.234234007430743407e-01 -6.209749305527266505e-02 8.988447130760366388e-01
5.760287856061907519e-01 -4.779646924406808634e-02 9.346236586665191970e-01
-5.622750547164550028e-01 -7.389625430406758511e-02 -9.074865009929654613e-01
5.067313310645631813e-02 7.305346210040669641e-01 8.155806737384336813e-01
-5.284134666948250292e-01 -1.154272723459854599e-01 -9.500342284905695101e-01
-6.780192676773069138e-01 7.978929940175066848e-01 -3.032999727886506180e-01
-6.379831653356222709e-01 7.015441710937654340e-01 -4.483838526055619056e-01
3.455679958948109642e-01 -9.791838913058804605e-01 -3.399428973701120738e-01
4.442808993735475886e-01 -9.833265285346179940e-01 -1.759091353773927224e-01
6.869597350190890239e-01 -6.030854101316103222e-01 5.010191231514551369e-01
-7.179693155682355110e-01 5.103308325859811090e-01 -6.449248452957485611e-01
-5.249049154502977155e-01 -2.032096303648338667e-02 -9.359933310855914623e-01
-5.394089619903938981e-01 9.368954874047890069e-01 6.131913568753159793e-02
-2.392296072419459740e-01 9.467557072056085321e-01 5.188313232063618274e-01
-3.042185764755567928e-02 8.058464903284316971e-01 6.624260919780845525e-01
6.990804410180988526e-01 -5.369124760616206249e-01 6.584008362633764211e-01
4.227850299890331121e-01 -9.473636407063468212e-01 -1.221635520760883525e-01
1.755914243015289089e-01 6.642833667418698296e-01 8.234603172315178021e-01
-5.213047292667744026e-01 -2.745419901765592738e-02 -8.819914427581418970e-01
6.786482450579628400e-01 -7.796978849303721759e-01 3.708890924784744025e-01
9.982913238841446824e-02 7.223295115720517190e-01 8.366499094855034402e-01
4.709884309844550310e-01 1.304807978891027176e-01 9.567142933723278286e-01
4.104126500443173731e-01 2.377217511413451667e-01 9.562782317752100969e-01
6.105352333513235363e-01 -8.021437384870812037e-01 3.217952221612129238e-01
1.705985131396323407e-01 -9.134768634988511549e-01 -4.929157874373514270e-01
3.992434934744888420e-01 -9.342450596736341373e-01 -1.720365411267171241e-01
-5.800045143920933288e-01 1.200910041933132694e-01 -8.375890727963568594e-01
1.331673797767028156e-01 -8.284736373990549962e-01 -6.048238675276490506e-01
-6.718309612834384437e-01 7.787532297298422890e-01 -3.921163432058875076e-01
2.263424829462205301e-01 5.496954367303092948e-01 9.254157627365708905e-01
5.425414171729300294e-01 -8.665559843864312217e-01 9.417428945123984541e-02
6.724378349126182430e-02 7.180629851420993193e-01 8.278159567195962909e-01
-3.359794071786280090e-01 9.363559989507633796e-01 3.930748369012613819e-01
5.334571317280084601e-01 9.833724584724158613e-02 8.987083340041422952e-01
-6.031276953286734965e-01 2.071986969825238833e-02 -8.925151881569221013e-01
-9.857165457951444498e-02 -6.511452013274898754e-01 -8.327238294881770253e-01
-2.719758005233824383e-01 -5.481015725838457309e-01 -8.750153236863177364e-01
6.304325597315576513e-01 -7.158626737501643245e-01 4.065151712409069695e-01
6.344305307582005504e-01 -1.026157378430005429e-01 8.587081103567414386e-01
6.275224097131091305e-01 -8.551079688063738526e-01 2.636762102633225524e-01
-3.795171775531225311e-02 8.140478996762889885e-01 7.400478723851915408e-01
5.784517831633558815e-01 -9.019861216157276651e-01 1.621706857388392486e-01
-2.614294857211684753e-01 9.737685951551257046e-01 4.603933331644948779e-01
1.176438022948515932e-01 7.157867293687066867e-01 8.397566734187801307e-01
1.018760035662081426e-01 7.257673830598034836e-01 7.672739559053193270e-01
5.233153693349262836e-01 1.829018534092085105e-02 9.004379223363158102e-01
6.654435948107081389e-01 -5.121041003708257655e-01 5.995977889614342304e-01
-1.595718082223681056e-01 -5.885572548761918155e-01 -8.726336417379512156e-01
-5.456947085570070799e-01 4.922669266299299629e-02 -9.111121775471177076e-01
6.676581959973088010e-01 -7.291416292672160404e-01 3.442398863190663794e-01
-5.975806674084405135e-01 9.211664863958632932e-01 -8.203648727478429770e-02
5.046685496868444920e-01 1.163826173262376001e-01 9.705387579302949819e-01
-1.985896652413558228e-01 9.424417217158150839e-01 5.506533444807476529e-01
4.426041448375941378e-01 3.028657063607059219e-01 9.233189055519340771e-01
-5.346235880023000320e-01 9.299304237640428905e-01 6.609387460150127624e-02
6.224525786986531140e-01 -2.538424865944049480e-01 8.448007351400488307e-01
-8.385163441351642377e-02 -6.596250344207644778e-01 -7.818546163472428479e-01
2.827220527371470671e-01 -9.404106781386738501e-01 -3.449024145387232232e-01
-3.195580740981547319e-01 -3.721885258645387107e-01 -9.052212874212572924e-01
2.409306152797618394e-01 -8.855634651865897933e-01 -4.918638500497372612e-01
6.515419424372900226e-01 -5.276579044971356769e-01 6.336456563777703721e-01
3.660833710747011249e-01 3.231949045946665988e-01 9.205018788863875701e-01
-6.332095174456257025e-01 2.106251934709985341e-01 -8.646043193527079840e-01
4.753854827648107961e-01 -9.339245342752642287e-01 -2.217126296426594895e-02
3.249573156229210169e-01 4.570887144201749575e-01 8.907205903867173591e-01
4.370862073382617702e-02 7.978199899164992726e-01 7.589887947001212609e-01
2.479985129698590585e-02 8.046783834692888826e-01 7.088352002622863024e-01
-3.097382242960001753e-01 -4.485146857399948117e-01 -8.720583384238395075e-01
-6.066739629245466725e-01 8.969861957045338618e-02 -8.397028852311144709e-01
-5.566792839751876221e-01 8.671761719750786801e-01 -9.937878068474031990e-02
2.091443477445003307e-01 -9.001982457108533842e-01 -5.523474622009626467e-01
5.123077382696118454e-01 7.054131716489926707e-02 9.591181774028166851e-01
5.323947203106504933e-01 -9.055580774991850435e-01 9.966636126710702592e-02
-6.900069160270715096e-02 8.394640752698460107e-01 7.104439011299692464e-01
-3.324244622242628622e-01 9.890258944819441123e-01 3.745488557884084080e-01
-2.855232327968060257e-01 -5.292814357045098062e-01 -9.003144616359934904e-01
5.671299034956422958e-01 6.798096314419070640e-02 9.070519132510800331e-01
6.210465598682440858e-01 -8.694162928301788495e-01 2.346843581810504342e-01
-5.379540423640080116e-01 8.829407744281759784e-01 -6.032793073821474811e-02
-6.945312080473527994e-01 4.248959480082052376e-01 -6.639128631930623081e-01
3.903582608646762320e-01 -9.727322712137570493e-01 -1.922991159867153688e-01
6.396519529121903469e-01 -8.168862678604222882e-01 3.316900169677332588e-01
-6.554141366275693104e-01 6.498620850246573655e-01 -4.603601093296739721e-01
-4.788791990588998626e-01 9.591149076919358585e-01 1.774262871151269239e-01
-5.691590225459889352e-01 8.543460696819332734e-01 -1.773326229328875125e-01
6.560485874607796530e-01 -8.340830665733035554e-01 2.768686579300412842e-01
1.227009610636326242e-01 -8.423367383818635146e-01 -6.468860177918429599e-01
-6.581318666500818315e-01 5.136501026321850238e-01 -6.649143244808662923e-01
-2.919898422787509662e-01 -4.147027204763586994e-01 -8.932604900939580261e-01
-1.274651531664171000e-01 8.472822393220630355e-01 5.906847833455307617e-01
6.646492998795636709e-01 -3.581902418630037443e-01 7.115735179176451153e-01
-6.785556918511937985e-01 6.658443863548533237e-01 -5.355935829723795782e-01
5.339769744896230019e-01 1.115190613133891506e-02 9.439937276185803583e-01
1.066177223723970141e-01 -8.915490887795657349e-01 -6.121952204309164536e-01
5.905443053346464133e-01 -1.275393162629236410e-01 8.412732430767405623e-01
-6.388686177139969447e-01 7.374497161904618459e-01 -4.273969881702456286e-01
-1.060405321953484387e-01 9.002482875225611414e-01 6.378996200594456711e-01
8.894586798547070294e-02 6.640792788959178905e-01 8.257080150377749117e-01
-6.446183416037591929e-01 3.431182365839018922e-01 -7.231766211032186753e-01
6.537561370854353404e-01 -5.345104679921114377e-01 6.364240031808756637e-01
-6.500781025513664435e-01 6.326887811068985235e-01 -4.952602820229581315e-01
5.313533586710095236e-01 -9.174511334594432910e-01 8.798693771701410204e-02
7.107140346139408926e-01 -4.042444007369732639e-01 7.245830538336708315e-01
-4.653003493973382199e-01 -1.539549084436588056e-01 -9.583932523282274740e-01
-6.512870085233207762e-01 6.012561180913268410e-01 -5.339817993674988994e-01
3.060959993856217087e-01 -9.538865130284250871e-01 -4.224216958051149051e-01
5.670681359424770696e-01 6.060635071347029307e-02 9.012542670534218203e-01
-3.588050914369333988e-01 9.525555698242321734e-01 3.693895018903902150e-01
5.230390040496438742e-01 7.188280894808288246e-02 9.630552421172586808e-01
2.105861780051715704e-01 6.280747246258079342e-01 8.464265649299193006e-01
-6.692000668656774565e-01 5.849219890289574231e-01 -6.115938376034933954e-01
7.172153142863531006e-01 -5.278850606659727385e-01 6.025890862682041771e-01
1.084405763529675687e-01 6.582581087194097069e-01 7.992660948901559870e-01
1.285124156113260918e-01 -8.670269127872548554e-01 -5.421735132520009159e-01
-6.471085338569487755e-01 8.622033807022740914e-01 -2.313655641865341450e-01
5.892664048137411306e-03 7.604669465389408689e-01 7.097084058786898852e-01
-3.295534729473810764e-01 9.392716417282818142e-01 4.067985764790030268e-01
6.529036917181580968e-01 -5.944761072941699975e-01 5.794046880533744170e-01
-6.456080591501270893e-01 6.865445889873367236e-01 -4.836135751072205835e-01
3.246860512244657132e-02 -8.349166174055695500e-01 -7.003048249821582916e-01
-6.408295635362053488e-01 1.326828181077275293e-01 -8.700235589457343544e-01
2.473934581280035350e-01 -8.866565918492047560e-01 -4.755646669804005633e-01
5.693804764076245695e-01 7.428048846957398255e-02 9.235085083040226461e-01
-4.421500645028524600e-03 7.489879200720224173e-01 7.396090853196720660e-01
-6.503497425758379968e-01 6.217391502064545383e-01 -5.100343914667052614e-01
-2.400010257403918379e-01 9.039066818909118339e-01 5.181291988110937607e-01
-6.753180604513898677e-01 7.430368781495212405e-01 -4.434140745280459872e-01
1.978017584434082210e-01 5.457920639065143575e-01 8.954630214013996614e-01
6.679231996950172334e-01 -6.011655081298798997e-01 5.071121624139011130e-01
3.823904229577292924e-01 2.894358739918457823e-01 9.598658789437510830e-01
2.800382326593990889e-01 4.931550873418083514e-01 9.475622798023261018e-01
1.327770378494631809e-01 -8.591180737573625992e-01 -5.438300934213817772e-01
-6.169552167639735796e-01 7.718086810948022736e-01 -3.066935229358817017e-01
6.240567165722797904e-01 -7.381228801648594962e-01 3.632142954295952686e-01
-6.471671019872001773e-01 6.321739213099404342e-01 -5.226829973842946897e-01
2.636578777203885116e-01 5.264553100151277976e-01 8.665054445610600453e-01
3.415658317340354300e-01 3.535286830857827800e-01 9.527436742363557531e-01
6.324753448897486585e-01 -3.359300840271707278e-01 7.529958847760560570e-01
6.456918914257439024e-01 -6.610371729247508377e-01 4.583933410542193054e-01
-4.389504576370634736e-01 9.414574649622730051e-01 2.289670992272427041e-01
1.727098858245801893e-01 6.764101447736180495e-01 8.480449756251394744e-01
-7.038652712548909562e-01 3.751314596081857244e-01 -7.369115587090329100e-01
5.495994415002930511e-01 -9.366656057199631569e-01 -2.315142507577393552e-02
-2.098081550503558268e-01 9.127133545871165543e-01 5.647440651241178999e-01
-3.628286567376172167e-01 -4.271076646819557121e-01 -9.128485410612930950e-01
-7.237627958402752248e-02 -7.469879823323997137e-01 -7.909420859519757929e-01
-5.348579731433661388e-01 3.784931272069397973e-02 -8.973889180008682853e-01
6.527418256667877339e-01 -3.254951477861456333e-01 8.127504683858000067e-01
-3.453535726523579985e-01 -3.286602869919995062e-01 -9.316025576527229290e-01
1.785081894782613587e-01 6.170340567352337047e-01 8.234157241954324080e-01
3.088205559505392550e-01 -9.707530587985730985e-01 -3.942681806605987660e-01
-6.934411336591611574e-01 5.523712264442292019e-01 -5.530361672476976631e-01
-6.612307568332552732e-01 6.980553997590970283e-01 -3.888325823946804372e-01
-3.453227442342762243e-01 -3.279547816302123553e-01 -9.234532137015577513e-01
6.022664685313015021e-01 -1.934529090541592736e-02 8.835739174382875039e-01
-2.285134649655996553e-01 8.995420555721732603e-01 4.684093051463793511e-01
-3.653583131599428269e-01 -3.390761213874368685e-01 -9.589358380140224902e-01
-2.642087383324012717e-01 -4.454105009068307641e-01 -8.983809736423126191e-01
2.226831571026433032e-02 7.889775688760746197e-01 7.794726453380700359e-01
6.347726670068087884e-01 -1.915203902019769755e-01 8.806178835985709608e-01
-6.409218184505027782e-01 1.917698563940303524e-01 -8.678172918183113538e-01
-3.053077099152178842e-01 9.611577250663516647e-01 3.251510485819346652e-01
-7.130681085663650443e-01 4.548099373253891020e-01 -6.646047392850507052e-01
-1.341558609154276382e-01 9.188305074667943995e-01 6.032653328199990561e-01
6.486564657102864562e-01 -8.463117149196781597e-01 2.568170064567832367e-01
-4.463915880639974382e-02 -7.643446673320692941e-01 -7.085346849865893359e-01
-1.298081103929726587e-01 -6.594188624725537684e-01 -7.768726206716787264e-01
3.006297869896177311e-01 -9.244573809563646494e-01 -3.308904597798240643e-01
-4.683593806297904893e-01 -1.314441663828002094e-01 -9.504423121224120363e-01
5.646121719553662821e-01 2.103555875044729045e-02 8.816849946179476927e-01
1.191313407478874903e-01 -8.496925265428262319e-01 -5.601579263593196023e-01
-5.415871832448494461e-01 -1.183504725042496541e-01 -9.282365170265975962e-01
-3.904997968954271315e-01 -3.823429985507234008e-01 -9.111059616020545926e-01
-5.337656953327234444e-01 -1.260727906939097531e-01 -9.060056791853904334e-01
-2.118029010417865898e-01 -5.452384323713058700e-01 -9.048050753634478971e-01
-4.542352519763372815e-02 8.332163307636580862e-01 6.403691190325884186e-01
-3.645929007872634187e-01 -3.581421006437472410e-01 -9.592865672350766593e-01
-6.058846071264222255e-01 2.855277722261125722e-02 -8.949308009182458390e-01
9.857049204382138663e-02 7.120450129167407161e-01 7.655045019466604206e-01
-5.739800057460313631e-01 9.164303147003197703e-01 -1.297327874501206547e-02
-6.610749836128999579e-01 4.073851975422851934e-01 -6.759618327927300330e-01
-2.275822990770556553e-01 -5.114348576970344507e-01 -8.554925513653242053e-01
6.907277528393231947e-01 -6.968718966378614210e-01 4.942367138836715190e-01
-7.116147210424769165e-01 6.671643920680293549e-01 -4.712878553487232502e-01
-6.191046537118548576e-01 8.339552132256002892e-01 -3.016304990241231998e-01
3.030060149089432997e-01 -9.486535188976403798e-01 -4.300658776860756816e-01
-1.100359210758304201e-01 8.691593177904959333e-01 6.693974647324304472e-01
1.895950243249152345e-01 -8.636914408431493051e-01 -5.172793422304137190e-01
-6.405942818316220366e-01 6.805145930349234540e-01 -4.630228834341686417e-01
-5.752233179726788936e-01 1.109432226793999748e-01 -8.424344031316024495e-01
-6.450993369039629277e-01 6.614343588740579927e-01 -4.670799328944332807e-01
-3.500214210278732030e-01 -4.158255459682215771e-01 -8.861312443077032919e-01
6.314021045175605140e-01 -3.284395425416383740e-01 7.567008709339542172e-01
5.633209839905917171e-01 2.468951009493852364e-02 9.514294175796345066e-01
6.036935837051153886e-01 -2.049162592819497308e-01 8.197488930085237158e-01
-2.608764648814749232e-01 -5.593682706208269462e-01 -8.647653028054071989e-01
-5.600302473181133500e-01 9.764126709234244306e-02 -8.631158116591777230e-01
7.992550023864147812e-02 6.760640075660192538e-01 7.948584944886913917e-01
3.093733404655345590e-02 -8.156684605886511674e-01 -6.401471588621694409e-01
-6.144686242901044038e-01 5.933067256904916986e-02 -8.659046649636860105e-01
2.173930689141421457e-01 -8.802495072108500462e-01 -4.726784410422499860e-01
-4.013297588439904140e-01 9.307440261593210584e-01 2.485064946419998644e-01
1.359265756578760254e-01 -8.352994423643694821e-01 -6.225272564867799785e-01
-4.316303286917768101e-01 9.284688119155777297e-01 1.709412185173318499e-01
-7.083453122555964931e-01 6.949944910317373825e-01 -4.468626719833733718e-01
4.389851286365908933e-01 -9.672933835718358075e-01 -2.267135919496271190e-01
-2.852889730732459661e-01 9.852692025533595910e-01 4.046443392389555971e-01
-2.019939634711886423e-01 -5.454223693333407619e-01 -8.400906966986616542e-01
-1.066749068482282237e-01 -6.973512326008478590e-01 -7.572189702053754301e-01
5.555138072842910058e-01 -1.890000757714837068e-02 9.410616928013664229e-01
-4.327688318519573030e-01 -1.816694232289738919e-01 -9.391383630905637547e-01
2.641789412469043863e-01 -9.540015279120306335e-01 -4.604584647837556832e-01
-4.654023564589622186e-01 9.853781804299660552e-01 1.827240691832426600e-01
-6.212631821743270777e-01 7.757456246990835913e-01 -2.836532572966221633e-01
-1.811328786139385361e-01 -5.570743021192301470e-01 -8.421422390053608931e-01
-1.363927588988229078e-01 -6.437120427692261115e-01 -7.847983774758173769e-01
-6.449933904692043418e-01 3.724037837802816608e-01 -7.714865078577448632e-01
-5.414295908077810804e-01 5.453182873820146964e-02 -8.921386361828291811e-01
4.028819238929062796e-01 -9.860302718604068151e-01 -2.098248746753813010e-01
-2.454397136983745009e-01 -5.222645621823646112e-01 -8.470708766149197544e-01
-3.702189138996669904e-01 -3.449830660209536881e-01 -9.605164778267845094e-01
-1.037547004617389718e-01 -7.248039301204073359e-01 -7.621010930298373065e-01
-6.378742783065204369e-01 7.910104140612895796e-01 -3.708497754291727455e-01
5.936867057584682694e-01 -8.071806046236090770e-01 2.285607144866703133e-01
-6.673417667539524034e-01 2.528502889974417189e-01 -8.315596045513324874e-01
-4.708309995561683059e-01 9.192454318727072415e-01 9.593155190367423646e-02
6.938093361998770581e-01 -3.729649005062008471e-01 7.082288993177315861e-01
-5.868802814666335133e-01 5.705536121780358655e-02 -8.490298207442458223e-01
-6.026020338944252375e-01 8.558435423153597510e-01 -1.209517013321598777e-01
-4.982106902144645133e-01 -1.986728202891373807e-01 -9.155661009415175799e-01
6.295051970145297826e-01 -7.192599037521136829e-01 3.990473067896995185e-01
1.248884465264814420e-01 6.976267991076235964e-01 7.836458579050501472e-01
-5.862882226579502198e-01 8.340545012501745514e-01 -1.758854278530488369e-01
4.614590322667347921e-01 2.744803081705269876e-01 9.649293465718155050e-01
1.677746894739946537e-01 -9.226606910676701245e-01 -5.076329273613284787e-01
4.487342960797250924e-01 -9.285877439886679463e-01 -7.875820961663972108e-02
1.814653680180271789e-01 6.470870272639779319e-01 8.831308286979239197e-01
5.665018142872427775e-01 -1.069502698805429586e-01 8.794594313031819377e-01
7.421922314505945140e-02 -8.023150361043436263e-01 -6.279894285659205488e-01
5.113526888891669619e-01 7.612477939153101947e-02 8.993534951803789923e-01
4.826098065075163368e-01 -9.640516474393494573e-01 -1.484376962556591129e-01
-7.068918230749167142e-01 4.481960214934139208e-01 -7.090619625033314222e-01
4.167467319491455768e-01 -9.224509502352269408e-01 -2.376830542437131100e-01
5.568617732315953583e-01 -9.126831845020757505e-01 1.266089657126545087e-01
-9.706244540722000491e-02 8.848328933551101727e-01 6.628296320490461024e-01
-6.069175117568841316e-01 1.755737705858105013e-01 -8.090027126204708541e-01
-6.854710774397183570e-01 7.423605702463001998e-01 -4.381330952452892613e-01
7.052902971093328865e-01 -6.861002637154567374e-01 4.880295146048840293e-01
7.182820207141044078e-01 -5.050229876382276162e-01 6.279777861291756524e-01
-5.619886673884771922e-01 9.399239824511015362e-01 1.140637507952595858e-02
-6.561398353617495793e-01 8.381899056387948077e-01 -2.905289914395915440e-01
9.761998749138312004e-02 7.254830590969493231e-01 8.342922954725885409e-01
2.245953437352174731e-01 5.260622018682377110e-01 8.702675938621603491e-01
-2.390803485152388497e-01 -5.320614454106441515e-01 -8.434377396811665317e-01
-6.791135943222617044e-01 2.855746732638759777e-01 -7.619264851990419363e-01
6.217686182738316747e-01 -2.546485050710840525e-01 8.435874176365157906e-01
4.450909369418201700e-01 -9.413069089328283123e-01 -8.100725167093122958e-02
-2.582073954572682295e-01 9.625547316512446105e-01 3.962089662816096758e-01
-3.225612159858974870e-01 9.253208553984508811e-01 3.467428317760192225e-01
7.584847035824383854e-02 -8.334975509655082604e-01 -5.991965102179842573e-01
-1.239929267769731142e-01 9.087545509564678436e-01 5.637505753172775691e-01
6.565250376013018752e-01 -2.111679615008612010e-01 8.003260451418079402e-01
5.202441238258154188e-01 6.234046099413303316e-02 8.952503727075985518e-01
4.703018734775377685e-01 -9.403799686610062603e-01 -1.779573785012631970e-01
6.532157992195525287e-01 -1.892806149387633030e-01 8.127402168044167707e-01
3.875510773676223986e-01 -9.575495236190275650e-01 -1.844611540125853377e-01
-1.397590015358372850e-01 -6.693478414001905463e-01 -8.500321015899485744e-01
-1.588237528541875387e-01 9.361506877216426714e-01 5.567496860748475385e-01
3.734923736384998527e-01 -9.376707060890415724e-01 -3.330283489000872010e-01
5.696262041808507481e-01 -9.078577274739189074e-01 1.456671467881806015e-01
1.099661122767972739e-02 7.740225738119986820e-01 7.000456674571784443e-01
4.034788461880147725e-01 3.807615803001034305e-01 9.386240093320797895e-01
-5.469456337481024555e-01 -9.663717159156369474e-02 -9.369275699353403208e-01
6.638485099258151223e-01 -6.165434815256631840e-01 5.779641826377037717e-01
-6.690976646699646757e-01 2.880454539412283799e-01 -7.514318911312132254e-01
-6.245012681880440786e-01 2.325884218767556022e-01 -8.540029914120336185e-01
-5.065418086755629767e-01 -5.659836584898875200e-02 -8.894551747824374077e-01
-4.555399569670271487e-01 9.751758796559876208e-01 2.145440795838516879e-01
-5.303640473636557218e-01 8.912081562735720830e-01 -6.936489124748521085e-02
-4.121460999764289812e-01 -3.011368367647594968e-01 -9.644295273237917243e-01
6.360060354151639839e-01 -6.954248515981150680e-01 4.442159510395954358e-01
-3.587491741704003645e-01 -3.208319098170481221e-01 -9.488750468654997272e-01
1.952960964332602634e-01 5.615465839111499768e-01 9.059426531214529454e-01
5.202796326930240189e-01 6.775284832585574957e-02 9.612668346922182971e-01
-5.223921551044446998e-01 8.962706961586399679e-01 -4.659323351507934502e-02
6.600662998809010418e-01 -2.043832071755144753e-01 8.079351418551200537e-01
-3.518414405328204042e-01 9.848072481590649518e-01 3.622894086557104099e-01
-3.022055168638050349e-01 9.689356598000687937e-01 3.319497773976022303e-01
-6.856511126879794027e-01 5.573333928501723600e-01 -5.468825146927792646e-01
6.537676264910142754e-01 -5.162966957224069953e-01 6.149882419145416002e-01
6.687037408092084689e-01 -5.347830453343465074e-01 6.582555891686608929e-01
6.059102559727511661e-01 -7.819057811598872920e-01 2.998520522533029142e-01
5.721053492492682579e-01 -8.948511173091561188e-01 1.691817567025447611e-01
6.257042852451450976e-01 -8.240193373512793018e-01 1.835510302230236312e-01
6.751653635210392856e-01 -6.633427385336879700e-01 4.301540462372666629e-01
-7.174773776358560617e-01 6.079299651926880488e-01 -5.612974284027593130e-01
3.226003616806661367e-01 -9.124312526994016181e-01 -3.835523185662983447e-01
-5.055505574884116005e-01 9.502579506852624203e-01 -1.486905459093804290e-02
-6.177382771017849716e-01 1.261125913065987980e-01 -8.258405700762740942e-01
-6.568674779278929066e-01 1.756369197668904147e-01 -8.330834602789759513e-01
-4.118052660096880868e-01 -2.341102055761357381e-01 -9.543650020085678864e-01
6.462402117852706906e-01 -7.144440534225551254e-01 4.610443205605851968e-01
4.091246080484586822e-01 2.687433558569761738e-01 9.161923603445311093e-01
-6.813162219441281087e-01 3.762922413497136187e-01 -6.949404508900318689e-01
-3.603109913063338721e-01 9.352160566070321090e-01 3.479048598027075223e-01
-6.105240353812584342e-01 8.821966646840050386e-01 -2.229385159722206966e-01
-3.699551976776034867e-01 9.933018203608980912e-01 3.233080213133972536e-01
6.077794903436526397e-01 -7.875828968553677534e-01 2.574841973423720454e-01
6.015184351203723967e-01 -8.448606440042860655e-02 8.492375380473282664e-01
-3.747926867425989683e-01 9.967061796460969791e-01 2.544344196751177622e-01
5.296468358690427092e-01 -9.180950664342523160e-01 -6.278707468407934700e-02
1.809207205476856539e-01 6.154154831726746933e-01 8.995068677903510501e-01
-1.855538158586336750e-02 7.617375810018266469e-01 7.418214451708807777e-01
2.437546296355869724e-01 5.658072581246044175e-01 8.563812839805515775e-01
-5.954692680568162144e-01 4.806487224953374243e-02 -9.173951680642224993e-01
-6.356568878829342850e-01 7.049102462536810387e-01 -4.273023491226615733e-01
-6.487600242268708461e-01 7.270734466273383045e-01 -3.503934503705160575e-01
5.370157456464605961e-01 -8.853422590506654366e-01 1.582251725439831700e-03
5.576499411032554976e-01 -8.770936780297358126e-01 1.651359947141635420e-01
6.329050284880498589e-01 -7.067270785374057951e-01 4.170446991095143052e-01
5.833707606981022309e-01 -9.220740457394381862e-01 1.004775457148943535e-01
6.717894746357243596e-01 -5.987439929790238091e-01 6.013477859049098928e-01
6.768689760263711941e-01 -5.657192196569724718e-01 5.409594025080547430e-01
6.422019848443001333e-01 -8.138464467775351485e-01 3.367862963254267816e-01
-6.907069975051112198e-01 7.401789717594872142e-01 -4.350337127925335556e-01
-6.043656733901640044e-01 2.445411326680109187e-01 -8.188212553481911682e-01
-1.309353945532458485e-01 -6.682455977207872877e-01 -8.504033299748974262e-01
4.271382401963690345e-01 3.249556790774594806e-01 9.200021787832421971e-01
-1.612913263613008352e-01 8.893527699565473288e-01 5.230596039299578726e-01
-5.420449333395305214e-01 9.073938622967137047e-01 -1.122754183084928303e-01
4.722434756212887663e-01 2.666986484735618390e-01 9.492563719906031983e-01
-5.201807006275923628e-01 -9.308637277131727450e-02 -9.548134330216189181e-01
2.924438510037719596e-01 -9.474086100752372452e-01 -3.311852302421901539e-01
-5.676448518984344993e-01 -3.417593261718694653e-02 -9.338456999767277278e-01
-3.569692142216879249e-01 9.853357256155156341e-01 2.582317315376099764e-01
2.962267133674622022e-01 -9.703910769089797439e-01 -3.479199895223384909e-01
1.255141987259176528e-01 6.603192926806981111e-01 8.683830417792437473e-01
5.761169067123017573e-01 -8.835713651699548254e-01 1.891110075612349173e-01
5.701343944045632606e-01 -9.336184172810025883e-01 5.316597317517364474e-02
2.277152304411112493e-01 -9.441887443484356934e-01 -4.283622867317968819e-01
-6.516170910386978044e-01 5.463726707915828040e-01 -6.185980053585715677e-01
1.434581962832796043e-01 -8.462917064922556021e-01 -6.214583169771056292e-01
6.570889322666257915e-01 -1.650534152201915405e-01 8.620924995926707579e-01
-4.893248526627381190e-01 -8.929565036818033763e-02 -9.453683127640397643e-01
-3.103047311750971038e-01 9.715748340547706308e-01 3.208043627005622289e-01
-2.436273826380147833e-01 -4.785614007831647809e-01 -9.090654538501823367e-01
-6.239543337940531287e-02 8.782801197068037524e-01 6.641028294745981997e-01
-6.821979823624424455e-01 5.411454693760632262e-01 -6.556642146286201234e-01
6.518777983588180946e-01 -7.777424005152687725e-01 3.919897348281364269e-01
1.843550337379972204e-01 -9.339595721834420550e-01 -4.984250027303114838e-01
-4.253208177642330834e-01 -1.992288890637344267e-01 -9.176289154248186142e-01
-4.006269055968730286e-01 -3.117339773248908874e-01 -8.945704164884640264e-01
-5.939632149907826397e-01 7.339725331907729668e-03 -8.805324724869981745e-01
-9.305933737951105345e-02 -6.865325036568262762e-01 -7.541733601963904743e-01
-2.895649224520535081e-01 -4.454375768210539488e-01 -8.729561407387823602e-01
6.543457033833377512e-01 -4.129921163062925116e-01 6.843515537177145003e-01
3.628078695563211609e-01 4.267209762383677996e-01 9.087562226951501065e-01
-2.288582536871836548e-01 9.610246425271625759e-01 4.444245414551980522e-01
-6.590451519861738605e-01 5.419716722280421006e-01 -5.775053008740154148e-01
-3.052950152873129541e-01 9.217884833947779244e-01 3.713244168199253958e-01
5.119298249523158706e-01 -9.649773247905497620e-01 -3.804051451907534270e-02
5.274796816637108282e-02 6.981547697457565205e-01 7.895572770818667374e-01
-1.178681936074147535e-01 8.931445731202409810e-01 5.640071322443350743e-01
6.055136286271731727e-01 -2.018913671139549171e-01 8.171186788962867542e-01
-3.279788164733234979e-01 -4.627385701201055523e-01 -9.300358196579454617e-01
5.973428488500268640e-01 -8.391307595671583242e-01 1.371702154067403201e-01
1.507321222778318370e-01 6.127654481085699212e-01 8.810526897598508489e-01
6.464426545509430744e-01 -1.548731753417544599e-01 8.312144332423799797e-01
5.526148531612108394e-01 8.899543683486220436e-02 9.051609352671966535e-01
-5.528092579212521285e-01 9.487324067151553519e-01 2.734703867832282559e-02
2.001102852661230114e-01 6.160837413409766539e-01 9.009404704610387560e-01
4.975372287240951708e-01 -9.630862247444045288e-01 -2.952517077083831668e-02
2.911380832922058071e-01 4.734406977452266241e-01 9.523389703249627303e-01
-4.444156684603915997e-01 9.309175784722008018e-01 1.948802316970262016e-01
-7.854898205345847706e-02 8.857917888398891826e-01 6.588151888085005403e-01
-6.498101824799348281e-01 7.148815200678372284e-01 -4.653165046227542012e-01
-4.598898494044705854e-01 9.682713892511167764e-01 2.101765704045076288e-01
6.504898297514964955e-01 -5.805383323621962077e-01 5.770903702523905165e-01
-4.802989183439380083e-01 -8.621205859784841774e-02 -9.236622638768854365e-01
5.915398729791765398e-01 -8.377902834797417153e-01 2.581985731805170325e-01
-5.655361363424913357e-01 -5.388796012660496126e-02 -8.911309354958341089e-01
6.823695866335373061e-01 -5.024622651383722216e-01 6.909115808280823501e-01
-4.352534178801653088e-03 -7.357059970919919145e-01 -7.116227239732386689e-01
-3.531281635062501478e-01 -4.147041671735113288e-01 -9.461556494115882510e-01
1.702976270204591691e-01 6.781937992033529872e-01 8.494175414150861858e-01
1.133002453783284874e-01 -8.161475780459155338e-01 -6.309694009965324257e-01
3.888999102766300120e-01 -9.470638551518597570e-01 -1.817875097524700723e-01
5.392989001458687870e-01 -9.176396594312978827e-01 9.909101957944617400e-02
-4.348289421055686055e-01 -2.004920363654407178e-01 -9.052028842092806338e-01
5.885993059732137489e-01 2.704077200260148611e-02 9.063959982474095733e-01
6.313448679908519878e-01 -2.509533469164770270e-01 8.519303093408934213e-01
6.091496040173761672e-01 -1.696797218404280938e-01 8.201490746339475946e-01
2.789656691605115202e-01 4.534025101326424889e-01 8.955791692221534150e-01
-3.095416470139232268e-01 9.230863780133241603e-01 4.168185832132622615e-01
6.681924327762939209e-01 -2.502461321357314361e-01 7.814605008364421401e-01
6.836374709935321148e-01 -6.062481601349473115e-01 5.978261107342867087e-01
3.904279639319925277e-01 -9.507621699947450544e-01 -3.107757902781823067e-01
-6.171992306365875480e-01 2.878016591771166977e-01 -7.791001881459461709e-01
-4.749228423249670650e-01 -2.476338865390159960e-01 -9.346344138364471865e-01
2.841732929436658894e-01 4.354147664192211109e-01 9.346426684181488032e-01
-9.147455666261883334e-02 -6.721584130817638281e-01 -7.633642951955420530e-01
5.996294816261159566e-01 -8.280514728131500579e-01 2.808766478985733062e-01
-4.573187916191484015e-01 -2.471817606007904733e-01 -9.027760845619707819e-01
3.013879181300595511e-01 -9.313374184412360757e-01 -4.377152185846385768e-01
5.548170094533914076e-01 -9.277109004942926118e-01 -1.669509571083964070e-02
-5.293539201632897484e-01 2.318283563020697921e-02 -9.047641563905871598e-01
3.987675444868715724e-01 -9.269077173658334390e-01 -1.842982317394621372e-01
5.277307089674962981e-01 -8.843021974885194592e-01 3.168878011639784161e-03
-2.774418009420550058e-01 9.299642411964328392e-01 3.792348448369897707e-01
9.902239045571388509e-02 -8.101742921693713129e-01 -6.208699380432730619e-01
-3.218211936257763250e-01 9.351492776878465030e-01 4.154458451742972236e-01
6.007547898314933299e-01 -1.675385010676558040e-01 8.267483737710112912e-01
-3.892464731494628682e-01 9.818438523333509194e-01 3.164023014295994085e-01
5.704719933701541956e-01 3.903766087614162633e-02 8.913750895149596953e-01
-6.629270874519496148e-01 4.175733608226950277e-01 -7.482458365320276972e-01
-3.646277879217615370e-01 9.305145121007531994e-01 2.849582243784025137e-01
5.672504986682942729e-02 -7.992780374733353677e-01 -7.115535773323555802e-01
-5.114015059369495519e-01 -2.008406338747534964e-02 -9.012547715615304433e-01
-6.501522045808463268e-01 5.418630321261926897e-01 -6.118827843097590646e-01
-5.304873641563272457e-01 9.379197599864435020e-01 7.826355503997242669e-02
-4.467059069607082211e-01 -2.487725793666955287e-01 -9.651399292388043172e-01
4.151183090433531175e-01 -9.520481021401414612e-01 -2.723038895996726660e-01
-7.053816971295813198e-01 7.046702816887602250e-01 -4.281492633100686396e-01
-2.506946135233358297e-01 9.691339224859814028e-01 4.766694752719815575e-01
1.150913357296880074e-01 6.566032461208327620e-01 8.605585113903416739e-01
5.526859671948026742e-01 -8.932418332935589955e-01 1.449739608762800891e-01
5.788076236451552559e-01 -8.274731867989325584e-01 1.933660086750056128e-01
6.989598129023050221e-01 -3.376672175290346689e-01 7.739443652047105493e-01
-6.465076031291346892e-01 4.635642406654187919e-01 -6.872678077045210054e-01
-9.989637554099921324e-02 -6.541635143625608162e-01 -8.357184342064772897e-01
6.812412985559153089e-01 -5.471156850834182350e-01 5.583971841672636938e-01
-7.108331284666344896e-01 4.237392793639730426e-01 -7.057490131102496234e-01
4.818664780369638079e-01 -9.752113156810038319e-01 -1.177051710146137797e-01
4.409323715813159850e-01 -9.819476388113184129e-01 -1.443432384108989386e-01
2.303215989349080839e-01 -8.807692839760942194e-01 -4.732954821078462770e-01
3.337216238458410311e-01 -9.145817826433900732e-01 -3.665533070121819170e-01
-3.408219296621859407e-01 9.851187313144280644e-01 3.744212093633376703e-01
-4.134530798317386791e-01 -2.776318714985159808e-01 -9.659785175446924388e-01
-4.863469310709419430e-02 -7.798906864878423217e-01 -7.498479613144848344e-01
-6.043557205506799868e-01 8.206420441537417565e-01 -2.926993518481221801e-01
-1.430573926730893952e-01 8.481785874099073697e-01 6.119505739349272444e-01
-6.554586215174608155e-01 5.690056379185045587e-01 -6.089453991392652643e-01
-5.211363993412573281e-01 9.518854242294877421e-01 9.844139357873844809e-02
6.423744080628249753e-01 -3.615851068265890644e-01 7.799422052199033173e-01
-5.258818064503543166e-01 -4.962321822718616243e-02 -9.473620080545589461e-01
5.122065764969708779e-01 1.850735636619828539e-01 9.577228977644152152e-01
-5.708273943342910828e-01 1.348715539150093234e-01 -8.654571027306005027e-01
-4.251120993816074889e-01 -2.145373595133578115e-01 -9.072023440837255759e-01
5.717746694328482149e-02 7.869621435390491415e-01 7.497994956541597089e-01
-4.993169825194194722e-01 9.592406982321309838e-01 5.675972721779327761e-03
-1.700720193277200920e-01 -5.895838375514077523e-01 -8.164257597863587845e-01
-3.070039730939179146e-01 -4.783348933894035482e-01 -9.318748251411937966e-01
-2.645061852073780084e-01 -4.501864984831725480e-01 -8.861877104006962158e-01
-1.644774461817322397e-01 9.283623952757069642e-01 5.162565683189337395e-01
2.467102946662746710e-01 5.276487297336326376e-01 9.346435906318286690e-01
6.652228338869522473e-01 -2.979162016559409043e-01 7.489408181582037916e-01
6.602664439518335371e-01 -1.738637725859786265e-01 8.380906205471726489e-01
-5.878987677828964031e-01 1.638341272279236760e-01 -8.278874281070001118e-01
6.768903302280036005e-01 -5.060980963533693311e-01 5.976889535471199277e-01
6.177838851475753179e-01 -4.888059598779063986e-02 9.057682281367673838e-01
-1.882194668431382001e-01 9.267133817716584065e-01 5.762313469909956520e-01
-7.114646142689379227e-01 4.406561717350980234e-01 -6.746822459449643983e-01
2.780954920374490991e-01 5.124560124907094893e-01 8.725334001609281742e-01
-7.177846394880904590e-01 6.231400102285071796e-01 -5.356408593760796366e-01
7.156165923174556687e-01 -5.730764156686470878e-01 5.575723672432260081e-01
6.628524970118964132e-01 -6.238363580010959364e-01 5.699293910965798071e-01
-5.869226100858299794e-02 -7.054690870897950550e-01 -7.363053532844361371e-01
-2.300447594148436747e-01 9.275319246525824957e-01 5.394905910630114487e-01
2.688567484130404694e-01 -9.636566343331948170e-01 -3.859558407946706571e-01
-7.080462250622799880e-01 6.994909458323336215e-01 -4.498205897928396757e-01
-4.923577436251149742e-01 9.701360259242144402e-01 3.290454182532809302e-02
5.639911111082532846e-01 -4.271358207680357039e-02 8.685818004371633760e-01
4.892220719156128439e-01 9.193831736563620738e-02 9.168343093092268248e-01
-6.790207903023735836e-02 8.121228523217521866e-01 7.118039152923526514e-01
-3.574444321591053741e-01 -3.625562937126945995e-01 -8.886294690270620800e-01
2.102716718139210350e-01 5.654113094599994005e-01 8.479382824014246589e-01
6.757763189743731802e-01 -6.875276674420035539e-01 5.103532784476474404e-01
-1.834944004478561985e-01 9.481577054601069143e-01 5.218601405109671854e-01
-3.446604055206766160e-01 9.880578222517268916e-01 3.645769381064440373e-01
6.747818742035680550e-01 -7.769251201846258947e-01 3.839699075879834389e-01
4.013245552895433610e-01 -9.423898916392462466e-01 -2.916947446260965138e-01
4.949584936627567378e-01 7.064726676377637571e-02 9.245440840129737214e-01
2.027941936591529104e-01 6.445988598591904095e-01 8.595469920615504966e-01
-2.617025901247386210e-01 -4.490479473895577778e-01 -9.063764208238166420e-01
-5.836084977773610127e-01 -2.486573005263296651e-02 -8.965020232508358333e-01
5.077614559492706903e-01 8.308972927867748492e-02 9.008422356542434839e-01
6.178252689751898563e-01 -7.892287120124392708e-01 3.460133443554046506e-01
-1.991110095409933112e-01 -5.976351693308886714e-01 -8.899371082568772184e-01
-4.521754663365845084e-01 -2.763153290315608079e-01 -9.127348914996117335e-01
-5.910754114986138674e-01 8.864017855549686242e-01 -6.557207280614819889e-02
6.519283416292416256e-01 -3.991656271913525122e-01 7.590394668266999822e-01
-3.280105209208590833e-01 -3.548513312460200853e-01 -9.268381089902741898e-01
-6.509956567278435413e-01 6.189969522042849670e-01 -5.116054148749292763e-01
-4.790589039899454948e-01 -2.402746114658469989e-01 -9.291898408529477571e-01
5.446677826226972163e-01 -4.527391172680552550e-02 8.941190913812984142e-01
-2.436616878967061417e-02 -7.785926689779296694e-01 -7.636782899792773360e-01
-2.491280199401281203e-01 -4.658573459427480246e-01 -8.903322889755405090e-01
2.689415484510941368e-01 5.328385073404190431e-01 8.684282088482506712e-01
7.032852244799726593e-01 -4.096820558869730955e-01 7.429296282763903081e-01
-2.506380387703405210e-01 9.011075072846125300e-01 4.680759383512228533e-01
-6.664194413757245083e-01 8.058817844772392380e-01 -3.485552048289169980e-01
-4.067814649501451663e-01 9.558368278957933839e-01 1.644303415030394511e-01
-2.849492728608855052e-01 9.655023873060383233e-01 4.586546812184504329e-01
6.924816709756538291e-01 -7.506524944790969878e-01 3.948286919504969683e-01
7.117358651729577268e-01 -4.200166566787052469e-01 7.190496087868875064e-01
5.725469361741087893e-01 4.250552819567009200e-02 9.446561939639499528e-01
-6.930117231231284203e-01 5.986026775444170944e-01 -5.075586912074006030e-01
6.081692128236620976e-01 -7.972967676337830989e-01 3.195255869974285012e-01
-6.486082272710658181e-01 5.038878852026072996e-01 -6.452013437075789781e-01
5.891896099921858226e-02 -8.333377129999239852e-01 -6.985304933749817424e-01
-6.617754938749381699e-01 2.347992958003405073e-01 -8.412674621872540115e-01
7.065786254005811118e-02 -8.398666854821291716e-01 -6.886916066571686645e-01
-5.820390247149495044e-01 1.458674299306662592e-01 -8.804830962334325717e-01
1.388055582358735107e-01 -8.411921975662738360e-01 -6.245196009079523325e-01
-2.057339238346813093e-01 8.921403243896566249e-01 5.637686147879138465e-01
6.750721872925368183e-01 -7.975347648355842756e-01 3.288617883739957115e-01
6.500048705404952720e-01 -4.929087524831272105e-01 6.472505592011879028e-01
-5.683974981950711269e-01 1.141517628519091339e-02 -8.623284752800125519e-01
1.477612822751512289e-01 -8.568856520085857964e-01 -6.205029390955250079e-01
5.542028702813338592e-01 -9.408697578790048421e-01 5.522884610311470238e-02
-6.214982721036539370e-01 7.892865702274983741e-01 -3.511134889679130566e-01
1.995504890750649796e-01 -9.066943251836604434e-01 -4.565515524700274885e-01
-4.066114399322868778e-01 1.000000000000000000e+00 2.409566825838208859e-01
-7.160990717599838851e-01 6.075369189860587715e-01 -5.289691972544076082e-01
6.839440215394091416e-01 -7.321587919647485343e-01 4.498004476283281594e-01
6.955353471748754179e-01 -4.638330778372339314e-01 7.170709132745275438e-01
-6.263652608663500265e-01 8.826600290947276273e-01 -1.412633905676176915e-01
2.594408607539239742e-01 5.604404205637741887e-01 8.668560618310999777e-01
5.419032781294641499e-01 -9.119374489700500241e-01 1.095927153553113986e-01
-3.016834026025951299e-01 -4.880862751030702884e-01 -8.707042048145242630e-01
-6.447964660226784828e-01 8.344217961759297086e-01 -3.096510253955409020e-01
-9.393730780548923548e-03 -7.535595118260091096e-01 -6.908739487696879955e-01
-6.643939686887756491e-02 8.061912589920585681e-01 6.558695416920763410e-01
-5.653663947126680300e-01 8.488223735003742887e-02 -9.064583419762793914e-01
-4.745413813069281894e-01 9.832864805831076360e-01 8.300378491655838187e-02
6.806579978329940772e-01 -2.670866184115646691e-01 7.818392663146356281e-01
-2.401048473423106691e-02 8.155011544713388627e-01 6.616347142390444080e-01
-3.527476281679576275e-01 -3.805921122717955130e-01 -9.563117500569739970e-01
3.096930004662573621e-01 3.978061393746230023e-01 9.213880988005649364e-01
-5.568969420087895861e-01 -3.170457726085838118e-02 -8.741580044130780047e-01
1.460830584748275263e-01 6.033914071742224605e-01 8.528232976134335619e-01
-6.996678370257096713e-01 7.334029065059325392e-01 -4.233901277984905565e-01
-4.938581344320036592e-01 9.125274707255462969e-01 2.162295791122865671e-02
7.834786737957641356e-02 7.528014805995478786e-01 7.503983005844188092e-01
6.447386638104112278e-01 -3.417755021778894342e-01 7.980208377990321011e-01
-6.143814330107684185e-01 8.944824840375484865e-01 -1.941753496809345836e-01
-1.564037204252100577e-01 -6.733149968558058696e-01 -8.390663640853021077e-01
-6.727377920220364294e-01 7.144037106647915802e-01 -3.685522187918758852e-01
-2.634897462493259734e-01 -5.348213805577629598e-01 -8.534754775076619504e-01
-5.685012811528658005e-01 9.282500213405331380e-01 -1.169530914818182887e-01
3.796849418201864168e-01 -9.541643798674980248e-01 -1.967483865481895466e-01
-1.421810850936104827e-02 7.573781050441671381e-01 7.422872245235959676e-01
-4.592611376140588453e-01 -1.370185574794375027e-01 -9.431665034486232946e-01
-1.999605267999004232e-01 8.880870192743244296e-01 5.693062318674585454e-01
-3.783282091414116866e-02 -7.277207541966593807e-01 -7.165009822457899524e-01
-6.097777134223151263e-01 8.318638814161315453e-01 -2.931335020313612927e-01
-4.291725514949104037e-01 -1.916086708390631332e-01 -9.444198281903061210e-01
3.214416510401550409e-01 -9.446086291237616450e-01 -2.890616740183966638e-01
6.339121483669314383e-01 -1.124268902412583343e-01 8.496096528907096657e-01
-6.455175071685271826e-01 3.886899741403833097e-01 -7.588075217514258508e-01
4.537498688242785350e-01 2.295747876398250842e-01 9.104947429347132193e-01
-6.638072167963006143e-01 5.729231620509159795e-01 -6.179783052971236090e-01
-6.968014905569571704e-01 6.292598352819185337e-01 -4.785256371802415476e-01
6.482358991426468986e-01 -6.545575079291717779e-01 5.171284712046907428e-01
-2.175937456543359239e-01 9.623015987201830601e-01 4.761948944990525567e-01
6.334852022371644242e-01 -3.370915784207361154e-01 7.503285942324481317e-01
3.103891758991584870e-01 -9.435274549912441300e-01 -3.053710062934055780e-01
-2.728506200407888604e-01 -4.593473324355878962e-01 -9.305894152516064333e-01
6.200270439896057306e-01 -8.585940432082562745e-01 2.577405783710194354e-01
2.744618203028683645e-01 -9.673513567558358339e-01 -3.859060076887017021e-01
-3.624791199337066283e-01 -3.058606692764497814e-01 -9.147781670661407905e-01
-6.101769732891806353e-01 1.081880878179102834e-01 -9.022206673648290876e-01
3.740428807244197684e-01 3.193611123706517341e-01 9.161151064820467482e-01
6.383769959888080381e-01 -3.282148290938238233e-01 8.029870007474423366e-01
-4.898769462111789430e-01 -1.762482128684713378e-01 -8.969682911409921910e-01
2.436888050318991306e-01 -9.163522496985081478e-01 -4.033408754780489769e-01
-7.125609590314827546e-01 6.689044532580262770e-01 -4.935103328592543304e-01
5.747764086437677777e-01 -8.331609510999805623e-01 1.976703507049621944e-01
6.215387305704901388e-01 -8.831547107377784034e-01 1.495492090706816157e-01
-3.730759174506466658e-01 -3.855052442256809431e-01 -8.930715156198132387e-01
-3.088006305169219701e-01 9.226362353113541914e-01 4.170713978728163851e-01
-1.934139222768661015e-01 -5.351503525265086658e-01 -8.662805090533360897e-01
-6.661808977593669523e-01 8.237683329388142406e-01 -2.614836887910612639e-01
-1.884169987919566414e-01 8.780806344832756682e-01 5.269946024878964241e-01
3.333050956690362110e-01 -9.117927181105552892e-01 -3.522162174528060130e-01
-5.943137262992804759e-01 9.219637847888136895e-01 -6.867468603914861358e-02
-6.214312523052245574e-01 1.497962258286402448e-01 -8.880580389168416522e-01
1.800629795441937783e-02 -8.346044684633867616e-01 -6.835520407833851619e-01
3.693978543838650208e-01 3.043973421381984124e-01 9.389244059767415385e-01
-2.930674499149002465e-01 9.212560726899762242e-01 4.463006716111718175e-01
-6.484157679359900950e-01 7.602542631972971643e-01 -2.980602529717066851e-01
6.194889977435426021e-01 -8.833384980809757536e-01 1.398849040204829530e-01
