-3.943951653034544202e-01 3.435809793909126025e-02 3.500392661116469295e-02
1.364309279920489781e-01 -2.004359713527198092e-02 6.038331545661516919e-02
-4.657539171043435094e-02 7.935084110997295825e-01 -3.322875229844817757e-01
-2.166647400183051853e-01 7.508116071225477695e-02 9.319217819546135595e-02
-8.790603187053831757e-02 9.683579812915196761e-02 5.637168644095472830e-02
-4.241550809502394048e-01 -1.348302277333943318e-02 -9.357705673508602828e-01
7.453487805132339439e-01 -3.929823364774105432e-01 5.917561724486789659e-02
-2.766652812957877683e-01 -6.549784437768889633e-01 1.046923302112302487e-02
-7.010359755804359549e-01 -2.151349823646141191e-01 -3.961229841657835649e-01
4.638701740374388122e-02 -1.651718356758634099e-01 8.738329100023612961e-01
-6.806811034652798797e-01 6.364642108283928845e-01 1.561025854575517346e-01
2.826419662425990187e-01 -9.405201211465986921e-02 -1.692877903636120784e-01
-1.936372662494362795e-01 -2.947614873073297129e-02 -4.023269557084421799e-02
-7.205304151823868630e-02 -1.587856492817349141e-01 9.170841896711015226e-03
-2.952993876288444453e-01 -7.490981811167850557e-01 -1.143630621002498515e-01
9.407336361185272833e-02 3.150307026752354744e-01 -4.619302949448099160e-01
6.642998964266977335e-01 2.804610036121639172e-01 5.804391630536990254e-01
-7.781110539976933416e-02 8.124421484376384561e-02 1.106486952633710386e-01
-1.599149322603451162e-01 9.872322621567050094e-01 -2.405703109520561378e-03
1.711604006117904697e-01 -5.806628106038161929e-01 -7.607162171720291965e-01
4.542061165246514820e-01 -3.682905677282753976e-01 8.506009874909952195e-01
3.183175521962921389e-02 1.738209581723804131e-01 -7.026662194102006875e-02
-2.910338724598212079e-01 -6.546578831975985446e-02 -3.183790556107451292e-02
1.227153962211385363e-03 -1.077973513571084396e-01 -3.799877550633231488e-02
-2.010162396445468735e-01 7.096453937178849314e-01 -5.535836858060648735e-01
1.166528696318327729e-01 -4.737121029873135880e-01 -8.248554453167040723e-01
7.643939540525398479e-01 -4.823995613087324608e-01 4.264458399281341738e-01
5.030989584459523156e-01 -1.947131590811567725e-01 8.946842342795232605e-01
1.164705919158242620e-01 4.055960802636258689e-01 -2.888840513368622909e-01
1.159905249733359928e-01 -9.688226860907220850e-01 -3.272956389203475203e-01
-3.947596652615639745e-03 1.367048431713432932e-01 -7.607156534103078072e-02
-5.145916038673116200e-01 4.820229938568712513e-01 4.783337580739988604e-01
-1.164040461210745919e-01 -2.722960191482914349e-01 5.235032179904618443e-01
3.528737733820525024e-02 -8.770802223662678421e-02 -6.874606094948755575e-02
3.170954742343298771e-01 6.882027301475472925e-01 6.839750059656972692e-01
-7.792319094967700144e-01 5.574107287473881733e-01 -1.973304765413971540e-01
-1.320909407805675728e-01 -1.501415564585218965e-01 -2.274463103090254915e-02
4.641318986471592578e-01 6.190857513022534064e-01 4.305302056246586018e-01
-2.636773617729740171e-01 8.503947127355254709e-02 2.313891142168678361e-01
1.248677213721220008e-01 1.588062377782956669e-01 4.604338611758217875e-02
-8.495163121868205824e-02 9.901390898449598243e-02 4.328132146551402770e-02
5.032176844450654274e-01 -8.429983906568689900e-01 3.390397597361490267e-01
6.158840962474121383e-01 -7.583080720003007036e-01 3.503797895754788283e-01
1.118532583554521578e-02 4.122022731696769332e-02 -1.533745388351306083e-01
-2.298106468061915653e-01 5.317048770477453279e-02 3.065869085273321692e-01
-5.652991941883335203e-01 -4.990104344324488572e-01 -5.310359741170860293e-01
-8.007914914307748822e-01 4.743530344667371557e-01 -2.714274103830170426e-01
1.879287132700319940e-01 -7.680787172623579351e-02 -1.086609914118698839e-01
2.992969014994756316e-01 7.940270781101770314e-01 3.354796912649531948e-01
-2.112751778781495893e-01 -8.715852330319968644e-01 -3.603160701169285107e-01
-4.844342198944067146e-01 7.071729424424072485e-01 -5.628581544303861151e-01
-1.438775612617990141e-01 -8.807576951123015363e-02 3.599033063530189258e-01
2.580778488523547409e-01 3.092738235657575552e-01 2.934345287809623365e-02
1.118909241980976105e-01 1.070787657012435418e-01 7.283015876397760935e-02
-1.750284002551306395e-01 -4.692699636978032995e-02 3.906728309562794155e-01
-2.486883248336318186e-01 3.834417103977309088e-02 5.241256600809343080e-01
-6.309600060691809009e-01 -3.803703841977297273e-01 -5.691234614787161750e-01
-5.524276378805933474e-01 -3.449775072266780124e-02 -7.149391042123287576e-02
-6.868665660111170634e-01 -2.299444865571727975e-02 -1.864241332535216400e-01
-7.642037131879353407e-01 3.379075809347533710e-01 -5.817629121138515741e-02
-3.602926347611605240e-01 -6.055181255884263258e-01 -9.329467341097069655e-02
-2.444388522711103406e-01 -6.822553536793597440e-01 4.667151084387717586e-02
2.363825381054711627e-01 3.885815314356036998e-01 -1.977109719948375033e-02
-8.698261162177389760e-02 -1.813763892973485892e-01 2.355869771426945536e-01
4.878593170868504303e-01 1.847416572556102865e-01 1.424557539947768070e-01
-2.015766072767093964e-01 7.524296281468859093e-02 1.703336900040993973e-01
2.362955473625821257e-01 -7.821006834402133290e-02 -2.197140513619188495e-01
-5.514847376841591764e-01 2.828843832406607306e-01 2.763022571561886132e-01
1.377106629210897715e-01 2.901926552354305300e-01 -7.214766563222617390e-02
-1.239781084928884697e-01 -9.038965076095245577e-01 -8.155087715190741104e-02
4.989947206356167286e-01 -4.232165579324672078e-01 -4.309509945591850633e-01
2.185615526666473407e-01 6.646317111195888527e-01 -4.566425637391834103e-02
-1.324742566576901648e-01 8.302939875568916828e-02 9.998421844113945800e-02
-6.349610869872489294e-02 5.919058437242998849e-01 8.357118069533312488e-01
1.914025848828102561e-01 -6.337942333121152072e-02 -2.990024310042117134e-02
2.623560748332697812e-01 -8.495658367945593259e-01 -5.009828002925866830e-01
-5.783459726307841470e-02 -6.637665593225969829e-01 3.816012380187302488e-01
-7.390814233811986433e-01 3.683693185480179655e-01 -6.089310019258105111e-01
1.821627632103448025e-01 -6.988776389798828995e-03 -3.288886459345395363e-01
-1.528009896738063240e-03 -3.801632930571315072e-02 -1.142330896018051434e-01
2.084086685330662492e-01 5.984149311666557836e-01 -8.932077216575129430e-02
1.460737348044519046e-01 3.838176597339235108e-01 9.495928385374901026e-01
-1.307259175227644954e-01 3.989129268132665662e-02 2.053974398343378915e-01
-4.783094650069467102e-01 -4.676085253823168975e-01 -1.895545260719914693e-01
6.240391707967276602e-01 1.630944031568962449e-01 7.884619180007642614e-01
3.386765356637229663e-01 6.323260733501293585e-01 7.371817902293578140e-01
-1.937458875152578419e-01 -1.172473608779002648e-02 6.554377587340093347e-01
9.543338875921041076e-02 2.577712088493234188e-01 -2.546181216797708258e-01
-3.115836458820956945e-01 -5.423335485387361654e-01 -1.976278890643601120e-03
-6.323060825831730569e-02 4.328082694411477388e-02 -8.846596578134521827e-02
-5.116077096087702225e-01 -4.810822649094264047e-01 -7.065887612455299394e-01
7.156432569021268231e-01 -1.814421585612746857e-01 7.053384538202663867e-01
-6.461114420645047707e-01 3.227839506162325511e-01 -7.457590988214631844e-01
-2.584977899255382350e-01 5.175153014266842266e-01 -7.446066391846266619e-01
-1.016361824268793290e-01 1.074764823376371178e-02 -7.119831343813171065e-02
1.638124982180386435e-01 6.078971423813281927e-01 -1.651700038846778962e-01
-1.051423210266822922e-01 -2.371634866862551150e-01 6.230933447030737593e-01
4.851282582822771805e-01 -4.212031339815922037e-01 -4.520619428074189039e-01
6.058495622622287469e-01 -4.787840850865285880e-01 -2.708649276206869794e-01
1.685359569128929216e-02 3.058366301416990621e-03 -1.472098217738455339e-01
8.936186292819138510e-02 2.138900151787357096e-01 -2.656790089563975665e-01
1.166187081574378837e-01 3.767084092365026449e-02 -2.715905181205777730e-01
7.480664769405680481e-01 5.008345765064513289e-02 4.478198180146150675e-01
-4.498349705644440477e-01 9.432468723013689438e-01 6.893420551586210143e-02
-7.400223773347166523e-01 -1.373064234148263507e-01 -4.490544307630414123e-01
3.563340449529507903e-01 5.085610414387110589e-01 8.387150313519970979e-01
3.313484289149694340e-02 -9.786052170956103247e-01 -2.326485931281241093e-01
-3.928516845494852139e-01 8.478271465449227495e-01 4.325657988586523728e-01
4.415395883914233766e-01 7.029663088422606620e-02 9.479363570083582102e-01
-1.475467266804597333e-01 -7.559813722174326678e-01 1.487080936798313435e-01
1.688845649074570410e-01 -1.464508144666885545e-02 -2.862965950787273450e-01
-2.269614823828222105e-01 7.859249721791937426e-02 1.200732388062974998e-01
1.003888010993011642e-01 1.163057301923573900e-01 6.883899138036887744e-02
-2.667265311233528793e-02 -6.319923379287025744e-01 -8.018894382054996273e-01
-3.385917228299248904e-01 1.029527428210946921e-01 1.782982111389304347e-01
-4.564838961320096256e-01 5.952134343112825965e-01 -6.840412128130350933e-01
1.296025938949657286e-01 -8.439391714372291853e-01 3.735671095216667736e-01
-2.955471960364142170e-01 9.384276194510644820e-02 4.621596756914161941e-01
7.644249996260790159e-01 -5.432702378274416599e-01 2.689365556580435301e-01
-3.651891404314419054e-01 -7.383675258594158963e-01 -4.917547609031330258e-01
3.062972105299240425e-02 1.714033787954359900e-01 -8.945346148045092705e-02
-5.791509820846457712e-01 -4.571903545684311565e-01 -3.793992540279141901e-01
2.588477766612058417e-01 -9.549670442238007428e-01 -3.035702675646192450e-01
-6.124068867063291871e-02 6.142108546082741816e-03 -9.622660025445264886e-02
1.566313445920132219e-01 7.503097006419983117e-01 7.104930001911023973e-01
-1.959372132513825110e-02 4.606592988145558065e-01 -6.176882767595535118e-01
3.440811555252771825e-01 -8.777257897799221054e-01 3.704244906534960302e-01
-1.395905432695389026e-01 -1.072079524980003723e-01 3.655323247465454561e-01
5.833984089149532037e-01 3.732432180404568478e-01 3.459548767761390642e-01
3.542409981419527565e-01 2.835791845557575908e-01 8.900775055348758569e-02
-3.534376284590408646e-01 -6.967988234831689054e-01 -1.638619122973124231e-01
6.982804056925726033e-02 -7.602091871103743015e-02 -9.290509218517886691e-02
-2.103202339712794133e-01 7.226844681479444032e-01 6.956003145177085401e-01
5.597440937508473269e-01 -4.394299714789146050e-01 -3.379524818520205365e-01
-7.758734869478023377e-01 9.777019093656512394e-02 -2.643914714759346696e-01
-1.510299720082770858e-01 -3.015837920281282392e-01 1.262760031707187702e-01
-1.543362285803823730e-01 -5.760999062992786524e-01 2.548938391861098607e-01
1.908270376513827166e-02 1.593917808937193870e-01 -2.985691955723997551e-02
-4.820461396587268910e-01 -3.705489276468383331e-01 -8.262058821159068422e-01
8.359081467861845249e-02 2.423972010860712956e-01 -1.518985518974833304e-01
1.710141705975955218e-01 -8.657381862151538598e-01 -5.307419191722081431e-01
-2.592824830006116854e-01 3.594911715769063543e-01 7.731389438517729529e-01
1.530658311339804512e-01 -2.494640811954629556e-01 8.923421518324035073e-01
4.143189027973285254e-01 5.705720202168491906e-02 6.205666385765803289e-02
5.852831206212969484e-01 -2.652326811610152824e-01 -1.514187139193881038e-01
8.210302572617747541e-02 8.849795504000673718e-01 5.223516953778944982e-01
-2.444258134895792023e-01 4.793462495993527916e-02 3.702626173674509746e-01
1.391339604119045392e-01 9.041957117484151762e-01 2.103816641614696947e-01
-1.471122543971726815e-01 -7.224097792631158921e-01 -7.233115922407983289e-01
-1.414703399623921387e-01 -6.648479546486836533e-02 3.352094167904512423e-01
-2.685893353238014702e-01 -3.491158236470131571e-01 1.730705551125050548e-02
-3.279608885570073906e-01 1.177635058788870787e-01 3.519682557914963206e-01
4.384191657444664325e-01 -8.739917542923465454e-01 -2.769883699093899643e-01
5.012655723798752350e-01 3.935669548113253091e-01 2.302321297615557982e-01
-2.583393158851099436e-01 6.122419187521106754e-02 5.629577214996914769e-01
2.307426999792455691e-01 7.917264595672445227e-01 5.958788155370570161e-01
-5.329587753459764654e-01 -4.350067534358924570e-01 -7.249105754408032842e-01
-4.659162315906474339e-01 -5.026861515088487664e-01 -1.917436082723782964e-01
2.834864285638959425e-01 5.892904465070916142e-01 2.450602665077707826e-02
-4.852049923895389583e-01 -3.782275872532575578e-01 -1.605993116443997226e-01
-1.422793046749140089e-01 -3.078575891907018858e-01 1.605142747253530955e-01
-4.912126972611061682e-01 9.137077444239986024e-01 1.133536107833924694e-01
6.940641623464698373e-01 1.942247296128301881e-01 6.096792630628483645e-01
8.921978311233709491e-03 -3.147160282486876071e-01 7.586417336503794573e-01
4.579891048047756708e-01 -9.139176555685919467e-01 -1.244194374199725089e-01
2.257660615443538576e-01 -2.866401473601224922e-02 -4.833770021810975259e-01
5.393782418311934279e-01 -2.148520829393645304e-01 -1.523341561043392300e-01
1.691273004950108738e-01 4.167879810465422996e-01 -1.335935944374438133e-01
6.092319830801139480e-01 -4.036464428033810226e-01 7.471708319757287553e-01
-5.701802738672854254e-01 -2.727768767340159051e-01 -7.977410752005987815e-01
-7.066451779448048587e-01 3.203510030448007417e-01 5.722861552270538943e-02
-2.613264859436398857e-01 1.324170514551662459e-01 -9.299018159413366957e-01
6.644356270852340429e-02 2.146964178002798984e-01 -1.214956125346995791e-01
-5.582884523813789190e-01 2.392296016127205271e-01 2.078771083758823579e-01
-5.935372449976435982e-01 -4.572254507497406917e-01 -4.701449021931962680e-01
-8.884926457047362391e-02 -1.603993195932712501e-01 2.534069308551983868e-01
5.845490970077065196e-01 -4.832136225062639845e-01 -3.099088448519989325e-01
4.366325142499704604e-01 -9.457966014377001962e-02 -6.870072425168066710e-02
-5.966356738405715898e-01 2.906462238757557270e-01 -7.976999227076161381e-01
-3.860093422047234379e-01 2.311185679367779022e-02 2.477392523814083217e-02
4.697235531647933615e-01 2.052038938374867172e-01 9.141620181367391407e-01
-2.510910327913834506e-01 -7.392522803431108569e-01 -6.553773958632580499e-01
2.816142429845869821e-01 -8.445543523799488306e-02 -1.151188078999282605e-01
-8.882786142431223220e-02 -6.799916299715894619e-01 3.166599074280617154e-01
1.324560182238260497e-01 9.843224093919555884e-02 7.404673448097383315e-02
5.094061354125418717e-01 -3.701570946663438333e-01 -3.826673970677744729e-01
-3.436299628979746501e-01 9.511463240759339133e-01 -1.674521514423939206e-01
-7.726765336278458296e-01 5.321422357740182019e-01 -3.712683606716173923e-01
-7.301725401134225857e-01 4.075187007838196873e-01 5.694777571869094612e-02
6.237114446360919606e-01 -6.476484938437780947e-01 5.260943542850705645e-01
1.191792397722677005e-01 -6.687877568830183361e-02 -1.278640614095684913e-01
-7.260612268872114194e-01 3.705601660249598917e-01 -6.289125850685368668e-01
9.655983257591252422e-02 4.704519097046171161e-02 -2.500338772358487449e-01
1.324537719979991535e-01 1.350452517498948179e-01 6.028346500516930384e-02
-7.450370868186245721e-01 6.243101130571037105e-01 -2.989064583578560086e-01
-1.323834239685651448e-01 -1.989328418245696617e-01 4.182146605850439181e-01
-6.604125463551157038e-01 4.545856960727610169e-02 -7.856846163065815958e-01
2.445880471634302444e-01 1.825276760641684481e-01 9.847267688616534453e-01
5.498039230947016076e-01 4.639559794705443441e-01 3.778187691043638496e-01
3.120074330485259617e-01 2.577339510757959418e-01 7.002263015495192866e-02
7.872715587731653475e-01 -2.185162409045593446e-01 2.985428998877207585e-01
-1.222026193661056859e-01 -2.579910312017656415e-01 3.675234871306122253e-01
1.460234082479544004e-01 2.762425499403687017e-03 6.713671363121870295e-02
5.902680260955783798e-02 3.201505027803629999e-01 -5.905179825848975161e-01
3.408609205980672185e-01 7.546614267958681177e-01 3.498206883931575528e-01
7.602846821814027711e-01 -3.009656372634126331e-01 5.838693403924085645e-01
3.283480829366458575e-01 -7.306956333963234851e-01 -5.681068474936702417e-01
-4.111842590495706773e-01 1.524480888133437628e-01 -9.170121163467435110e-01
-3.932988066948220340e-01 -5.991267373085582687e-02 -3.215655980790725621e-02
5.777031874496066921e-01 -2.866518003386061553e-01 -1.866351739530840992e-01
-1.031666545408859020e-01 3.522491518586073345e-01 -7.777051280122414534e-01
6.388093212074150151e-02 1.805569934887948369e-01 -1.989247881881922309e-01
-3.741918747441160265e-01 2.076673623272922709e-01 -9.083338696265030876e-01
-7.911415601213342974e-01 8.108454239382055506e-02 -3.459634578206333688e-01
7.028331155969689270e-01 -5.769648848280154452e-01 -5.320508812353675482e-02
-1.103824622840420128e-01 -1.517686071315612131e-03 2.356536543400535033e-01
-2.181958531109875754e-01 5.464003332936396423e-02 2.771578709013330366e-01
6.015626692730445813e-01 -1.701934059963808588e-01 -2.657282673957602967e-02
-1.570091780943439486e-01 6.537055405910154049e-02 1.735644315127910231e-01
1.950880479114877053e-01 1.916424251683293556e-02 -4.768556112582971185e-01
8.303336614469511434e-02 1.054447822239507615e-01 -2.563504503095784814e-01
-2.594094513470455721e-01 7.353521553015428258e-02 9.854947458560603391e-02
-1.483856920990340722e-01 4.380964224417485675e-01 -7.526298687022220379e-01
-4.822350976532667199e-01 4.115895656190566299e-01 -8.012760425968044053e-01
-6.883232581205305234e-01 5.238021526535419081e-01 -5.743101469070998055e-01
4.129459797287799439e-01 -1.267328200933512672e-01 -1.401180180071090742e-01
-8.443630101521866493e-02 4.971025929281632123e-03 -8.233708481070557694e-02
-9.534999943400934708e-02 8.671904527713337751e-01 -2.716525094376730509e-01
3.637375846837878623e-01 1.296458694593579514e-02 2.818143975877003896e-02
-8.059256304162026874e-01 1.357983980377187594e-01 -3.785483236805552432e-01
1.374537702683085727e-01 -8.923222827850915695e-02 -7.772410468368716741e-01
-1.214547468988765450e-01 2.794871059444318240e-01 8.773835276527257587e-01
1.102073722162583286e-01 3.970047565308203463e-01 -3.164498694617088326e-01
4.058954929360165664e-01 6.621690673557782958e-01 3.060144468386125083e-01
1.869760736538841062e-01 6.638952674918641161e-01 -9.946238635156204322e-02
-1.031657311656706683e-01 8.977458440897893854e-02 8.053363641469750422e-02
-6.408029841659846904e-01 -3.719161956906269495e-01 -4.755613316349914244e-01
-3.755349830135803479e-01 9.172015359636996878e-01 3.292434360602589094e-01
-4.725052117907617422e-02 -1.647078760898175454e-01 5.783779386985154342e-02
-1.065999247544456019e-01 6.088857692782951442e-02 1.563543028093943299e-01
2.101853691456423423e-01 -7.910807327715914106e-01 4.922451794449200779e-01
6.089492922587961266e-01 -8.212604467680184595e-02 6.359029283168894653e-02
4.949576235142841285e-01 -5.568007867159141533e-01 7.178015730752418389e-01
-1.918150786224254167e-01 -8.414575957441368104e-01 -5.975842187775336906e-02
-1.865811631285858030e-01 -4.954311137390014080e-02 6.130813542916272452e-01
1.720702763697832260e-01 8.428397718844130582e-01 8.120193645174227093e-02
1.605373307151257553e-03 -9.515869778400785906e-02 -5.874433330538125081e-02
7.495887921036082924e-01 5.103098288847395664e-02 4.717881947437649881e-01
4.211880745188510411e-01 -2.281056532482360621e-01 -3.731911589674763441e-01
5.658861073093653937e-01 2.887029241818279968e-02 1.125980476787962203e-01
-3.205319202307458926e-01 -3.384318140245871215e-02 -9.569474678878160390e-01
5.975401132343477473e-01 -5.624544803778430690e-01 -2.918699934182813482e-01
-2.233226469484893839e-01 2.066885612084741128e-02 3.898118457645372570e-01
5.939797960037461466e-02 1.961172861159812819e-01 -5.105567700582074042e-02
2.849715405307878258e-01 -1.073090079642392836e-01 -4.743630053520440648e-01
-5.351084458458530424e-01 3.226149100640565703e-01 3.509752654225996027e-01
-1.162882018969342013e-01 -1.660486377443370909e-01 3.287575893139900174e-01
-7.424285199647878176e-03 -9.451214852475085804e-02 -6.009208083116217292e-02
-7.894592430868444533e-01 2.535932081492738854e-01 -1.807588561398268956e-01
-5.668829042318956901e-01 1.472393318021360809e-01 7.901619794446594625e-02
-7.306024370461049466e-01 5.980349124285522233e-01 -4.078309571059106076e-01
-6.261800160737863719e-01 2.556667804074176931e-01 1.319607224368874177e-01
-2.601648476193517134e-01 -4.752052233776233869e-01 -8.786601430749225727e-01
-5.257942499372644241e-01 -5.447512081963400421e-01 -3.705535938387669592e-01
3.753730098824146766e-01 -1.133653640766812548e-01 -1.413158930100170962e-01
-2.027658464679050199e-01 7.504808191099567038e-02 8.483389330970714237e-02
1.356956334228836270e-01 1.335004701133592764e-01 6.117861829103153626e-02
2.695480270526439681e-01 2.312291850888783806e-01 5.715624455886395006e-02
7.720630004316472172e-01 -4.938430040552966860e-01 3.636151638186922996e-01
7.281996118584721511e-01 4.820032227308265749e-02 3.498689383822821686e-01
5.848461235818736004e-01 -8.389811044923546346e-01 5.930100149855111608e-02
7.075601694097214400e-01 -4.571831962205347155e-01 -5.620920147410820439e-02
5.852539602984802025e-01 -8.324537604070503249e-01 1.813080185446040715e-01
-6.919179073924778267e-01 -7.794173864434426890e-02 -2.352602638903576737e-01
3.678649134345076538e-02 1.571239912851732645e-01 -1.486850250722363820e-01
-1.102530594330865393e-01 -4.463522622679452767e-01 4.082185720790766914e-01
4.080211252520223875e-01 -4.263620628470142504e-02 -1.442437809385288018e-02
-5.311099339158475985e-01 -5.209202169326518916e-01 -6.096389199715580576e-01
-4.258933874741824277e-01 5.984974945689700565e-01 5.854234176952259894e-01
-5.621062513970946917e-01 -1.979958926551992487e-02 -6.773494710768343530e-02
2.091758195941484100e-01 -7.024634313619224080e-02 -6.049098150486386521e-02
-5.930363401247522592e-01 1.009301629571867226e-01 7.735422271491769648e-03
6.379030466089073981e-01 3.420332583668851401e-01 4.962826767961721064e-01
1.364337513820031156e-01 1.415078856431840615e-01 5.750521985774915273e-02
-7.103339332565040687e-01 6.529608050299481325e-01 5.130128738524061816e-02
1.833985018107307241e-01 -4.868150435863573267e-02 9.656695603459894972e-01
3.218938573784989043e-01 5.555954617312788141e-02 5.107975516133816257e-02
3.379553326958905091e-01 -1.225996583587504740e-01 -2.287021039280941193e-01
2.283964564335856928e-01 4.593459690142764201e-02 5.633889180105013800e-02
-5.205485344043876000e-02 8.860670274331008400e-01 -1.942467895751263107e-01
1.422357784457263519e-01 -7.572785680087626425e-02 -3.087448893591085777e-02
-1.074476943981142185e-01 -2.743144614755279043e-01 -9.388495590187820872e-01
8.587460999565486863e-02 4.698183070988894428e-01 -3.910217426412959663e-01
5.957300941832116559e-02 7.711430924654519847e-01 -2.201331728707868474e-01
2.165579304947662931e-01 -3.116425151054960652e-01 -7.648947773056533617e-01
3.872713197310714284e-01 6.498166340228282989e-01 2.377322638872777227e-01
-2.616178291265175981e-01 7.575895128154983005e-02 1.065999460652967690e-01
-1.288108572230586002e-01 1.336673334282403591e-01 8.465750328504790811e-01
6.100927319140296845e-01 -4.248223221731159405e-01 -2.428749806926105981e-01
3.322957885845748138e-01 6.086131500763842794e-01 7.685065418778300739e-01
-3.010992325592551921e-01 8.866335828782067052e-01 4.606959192055021801e-01
-9.309221635768872780e-03 4.378438839007087885e-02 -1.348034961581825453e-01
-3.227199537443459221e-02 -1.313499864610824519e-01 -1.032239179460187235e-02
-1.223009710310305476e-01 -2.899087786741618156e-01 2.387447699742359097e-01
-4.375697201853216978e-01 -4.643848706199143472e-01 -8.004847420147435111e-01
2.980660818542925639e-01 2.350746026829036439e-01 6.703480933010581844e-02
-7.831360661812218904e-01 2.793551052125706202e-02 -3.810948737676406739e-01
-7.936387020114500368e-01 4.949344298463482783e-01 -1.876685192719730055e-01
7.364728945924997605e-01 -1.805152267866571084e-02 6.511945604436241153e-01
5.807419977175155845e-02 -4.562780703764891532e-01 7.097335982120742681e-01
2.534480911819401716e-01 2.390360032405204338e-01 4.912056561104829328e-02
1.116608045752850997e-01 2.294905830697858418e-01 -4.591002154942949720e-01
1.492359113951985949e-01 1.172556396501502618e-01 6.738895365232892842e-02
-7.077592501400313818e-01 1.796167076620879821e-01 -5.614979975234869053e-02
1.476461739021553143e-01 5.032582024790514807e-02 7.670862901832131708e-02
5.059767281277123274e-01 5.517072123962947217e-01 4.043151692648467299e-01
-9.494287786580646316e-02 -1.112074617998690673e-01 2.710569347015163166e-01
-6.549472203593209585e-01 -3.454122085649156682e-01 -5.024340689805585347e-01
-9.948198031766669613e-02 6.384847081319154904e-01 7.989773548884300247e-01
4.507356565044086105e-01 3.051469878550270298e-01 1.517663600063795803e-01
1.638311472849306172e-01 7.289686569066619604e-02 -5.501936371486229049e-01
-5.400559909928598357e-02 -6.274976539016913213e-01 4.186633872349991292e-01
6.486158229416342236e-01 -1.960806711091211407e-01 6.591339114391500491e-03
5.346183860614905220e-02 -3.407731405011320547e-01 7.847630611375214782e-01
-3.820007249036816432e-01 7.802544944177004504e-01 5.213582784695315331e-01
3.866382034720582811e-02 1.640633736886198957e-01 -7.542103367018351268e-01
-2.780191828981737889e-01 4.407908123562946923e-01 7.576340028498247392e-01
4.884447524449079814e-01 3.845101554038890534e-01 2.109499988594823738e-01
-1.756916272216443031e-01 -3.304512326225812757e-02 3.703366463973843392e-01
6.455125267518600773e-02 -8.122094842706715223e-01 3.671692646824697426e-01
-7.143549220239288344e-02 9.877730362717980217e-01 1.977102822996350817e-01
-1.792711428855120470e-01 -8.235510023554711845e-01 -5.680675451493004680e-01
1.663117292245195056e-01 8.963033163666307701e-02 7.159808754784713347e-02
5.825009291033526881e-02 1.836990960318881164e-02 1.117625343258548259e-01
-5.800230627834958019e-01 7.806809255417367366e-01 -3.770947765874266278e-01
1.309608297449506853e-01 -6.033700345250178065e-01 6.501144442645170329e-01
-1.647416227215899864e-01 -1.117313487622135504e-01 4.793262420249992939e-01
-7.776320781113826852e-01 2.640547785655513180e-01 -1.375538788315062710e-01
4.273627315424063933e-01 3.623917678180215152e-01 1.449961357220176383e-01
-3.649156497112956421e-01 1.045052654050581398e-01 1.603124694708447651e-01
-5.195643543860224423e-01 2.098799428928997957e-01 2.179952985838061186e-01
6.451073777366910234e-01 -1.055636916031474359e-01 8.209430874401212053e-02
5.010817742153377274e-01 -7.592962785064329978e-01 -3.444677893356293819e-01
-6.158280765662236256e-01 -8.183979237494891368e-02 -1.467941009519146411e-01
3.979366544161828667e-01 -1.068012594977374580e-01 -1.106099475914025937e-01
-1.385745037755840847e-01 -6.740387505226080878e-02 7.227569503560319353e-01
-7.029924056252802034e-01 6.402631429842817745e-01 -4.089838289812884886e-01
-5.961583195214518321e-02 -7.832181827060890056e-01 2.561065655582014933e-01
8.217758436331409899e-02 9.341558474919127164e-01 1.868371652953902951e-01
6.094693616774633504e-01 -2.053025112298350052e-01 -5.343317326308352766e-02
8.027085502253682170e-02 1.925770380016349204e-01 -9.734310946886108942e-03
-2.733246085381806356e-01 4.637388002295827483e-01 -7.845748443391240556e-01
7.754447867649802983e-01 -1.274481271248984193e-01 3.270158781091125344e-01
-6.013165995622297977e-02 6.771941865206770883e-01 -4.789554611955140206e-01
-3.088184481498038592e-01 -1.672611983131820079e-01 -9.563697646828868137e-01
3.710806174875898589e-01 6.395218895088856659e-01 1.930124135870557867e-01
-5.835824094139012708e-01 -6.275224334171551621e-02 -1.091018239589437722e-01
-1.763103281739167305e-01 -5.784055179478493347e-01 2.101447293829026286e-01
-6.121800548668739905e-01 -3.911239240928863770e-01 -3.728869706863577882e-01
-1.017302607528400848e-01 -1.160922187817642892e-01 -4.227301090526734695e-02
-2.619886153667015938e-01 8.513390642068048575e-02 1.642618750925483317e-01
-4.358169122248999883e-01 -3.647630828814176635e-02 -2.700289830037045855e-02
3.280213200810399576e-01 7.528183602767232752e-02 9.801678530398667544e-01
-7.921789727824654626e-02 -7.444125460522446613e-02 -6.839940871540083067e-02
-2.226750693026764982e-01 -2.512641293055451475e-01 4.794732139655880077e-03
7.420252257958462883e-01 -5.954773203647066859e-01 1.382086969301589696e-01
-3.308609518778989900e-01 1.302270916493926678e-01 4.440012993080054149e-01
-2.924340398737256819e-01 8.057379406761764340e-01 5.717917253671063182e-01
-2.854201062549102108e-01 -4.589859339683188266e-01 3.076638840711178047e-02
6.796115107414466561e-01 1.502746648974569730e-03 7.581582343404683622e-01
5.629227498173101640e-01 -8.551545201056558465e-01 7.029023159114398435e-03
-6.160734766883011471e-01 8.258169070333072348e-01 -1.392313702138378295e-01
7.440607767123280647e-01 -5.580217714161080922e-01 3.894402489452096217e-01
-1.520706380173479644e-01 -1.494339113335261815e-01 5.377973912528284384e-01
-1.515525113893257669e-01 7.869848381850885755e-02 1.218067355817215869e-01
-2.978861167082629824e-01 -1.514927300871671875e-03 2.326294807088066211e-04
9.599525459038697750e-02 -2.020760137836099812e-01 8.870872189721757950e-01
-2.425621747525833483e-01 -3.546720562994420956e-01 4.395014635149202542e-02
6.111296350846853742e-02 -9.852816343482354577e-01 -2.100723424300393327e-01
5.584774680030798466e-01 -6.451030596856330845e-01 5.969885744544186634e-01
6.238818417257683269e-01 -7.526961057808075894e-01 3.453991432881082790e-01
6.710662656784170677e-02 -9.694544815123085080e-02 -7.838110934516889132e-04
-1.333926255908402525e-01 -1.830340898363952973e-01 2.727546441558120326e-03
-5.602972373441602594e-01 1.090764568988756983e-01 4.224425573705169190e-02
-8.451985207238338349e-02 -5.356752592454377265e-02 8.115161878054866218e-01
9.018879254860205641e-02 1.675567822361423154e-01 2.821876648914409605e-02
-1.617515531053929090e-01 6.373357319046528413e-02 1.814535259560150215e-01
1.532692805708516515e-01 7.748012694686758906e-01 6.801269707847572565e-01
1.624144771205310311e-01 -9.277964090622303761e-02 -7.481090968757351245e-01
1.279198751899311426e-01 3.750910624970317520e-02 8.223781489596120042e-02
-3.005255640159615327e-01 1.664363623164749062e-01 -9.232690331354379554e-01
-7.941584100160514748e-01 6.016181544341887150e-02 -4.605282159190839941e-01
-2.852010484947460900e-01 -4.467423645778259567e-01 2.896479745067436981e-02
-2.420331594036397305e-01 -1.187303188987209324e-01 -4.015427766237452539e-02
-3.341327781212503623e-01 9.698187287766418807e-01 -9.427730760387617592e-02
-4.664907477614593789e-01 1.055935892343958134e-02 -2.342957160045277491e-03
-3.632391116872465964e-01 1.341899665563112964e-01 2.899024293372770011e-01
4.532267693262322095e-03 4.146732982538794271e-02 -8.502818411736348114e-01
6.068674264508632232e-01 3.362626249776022314e-01 3.586413055555218166e-01
1.088827054262217348e-01 4.100561086171752856e-01 -3.241982678641739946e-01
-1.394418307475225327e-01 8.996457555858433305e-03 -5.036907913256596231e-02
1.608936324391890826e-01 -1.622295603611399462e-01 -7.816764416116652736e-01
2.535061499421054662e-04 -2.932263818152353041e-01 -9.052880498735377257e-01
-2.963009932208200345e-02 -6.289261794140632578e-01 4.562836493683855577e-01
5.946000751427792386e-01 4.229056277983704315e-01 4.818928573743216370e-01
7.934886960180627113e-01 -3.880284508684147537e-01 2.889007208523583503e-01
-1.454474750574157316e-01 -1.569420954755450792e-01 4.464013035778623961e-01
-3.171357006174824189e-02 5.113751582314631783e-01 -5.931739672841535027e-01
1.619583003595543858e-01 -7.730742098223848391e-01 -6.410432081617355449e-01
7.798377549642662165e-01 -4.768923872071744730e-01 2.399317774858647223e-01
5.024118531320510561e-01 5.706109125072550414e-01 5.037742303562062762e-01
-1.276996865248842816e-01 6.529949932981629068e-01 7.800641412786473161e-01
4.292247075175009141e-01 -8.173774274924787420e-02 -5.440971338464319768e-02
7.081525319661902129e-01 -6.563931706484187334e-01 3.185552469956858812e-01
-6.283033586963243655e-01 5.877854265033961578e-01 2.907167785198827015e-01
-3.231618361977281711e-04 7.449826449546968765e-02 1.078645895769024116e-01
-4.005571342298294701e-01 4.290953622250653215e-02 4.325323452628442727e-02
6.145263044160974575e-01 3.614340218203188071e-01 4.155912742835303209e-01
-7.747740133851985789e-01 1.474619896642188899e-01 -5.994527647558581807e-01
-5.323541320959947198e-02 -1.301954513623768683e-01 8.040896341004718506e-01
7.880003029683838034e-02 -3.840783469867600775e-02 -1.558091532915105160e-01
-3.620750996202234395e-01 3.272842819081618893e-01 6.457152692476140210e-01
-5.583203952213611210e-01 -7.073453063899262649e-02 -9.673187361126482642e-02
-9.468791083304937961e-02 -7.546562714872696864e-02 -6.472737322284997930e-02
-1.794392022905190731e-01 -2.695055744849215174e-01 -9.487823329959220731e-01
-1.556478551078168682e-01 -3.385035860768048077e-01 1.661641561607074269e-01
3.954003077370180641e-01 -1.524897438097094216e-01 -2.285701042316966858e-01
-7.412102244571431298e-01 1.882816312865875225e-02 -6.593455618815535768e-01
-4.847998843602041585e-01 9.069061694023019538e-01 -1.777968816390990414e-01
-3.590420655297579255e-01 3.851680830733315020e-01 6.690854903758102212e-01
6.704555926803784649e-02 -1.382972490736620458e-02 1.052275823056785381e-01
-8.309872976607700357e-03 4.841571490105140430e-01 -5.828736199052243494e-01
5.870047291712184867e-01 4.219308351353797532e-02 1.373321736670157778e-01
-3.828548400797184281e-01 3.102148551058474604e-02 3.286695327815634254e-02
1.055701281482345211e-01 -5.152851254698824768e-01 -8.182277153212346166e-01
-1.150866490524535268e-01 8.757392505842917507e-02 8.314011303395300867e-02
-3.194437338037354746e-01 -4.901643693081105674e-02 -2.421768934248706012e-02
7.552052828402447959e-01 -9.969504972709819501e-02 6.223073764586221079e-01
6.889441471331841926e-01 -1.059702386117035849e-01 7.523478039509655657e-01
9.692148192616538427e-02 2.173534528650152287e-01 -3.002847134343240576e-01
-2.282706702978880564e-01 -4.565091588395021605e-01 1.068132950719816732e-01
-6.006495483609066710e-01 -4.455259051201882481e-01 -5.064930301867279772e-01
7.416668891882182146e-01 4.893365223295335908e-02 4.025795619682028259e-01
-3.605730846593374617e-01 -6.499953164521404814e-01 -6.840132673092357285e-01
1.834057741948066367e-01 8.639995772907902438e-01 4.658176041554895619e-01
5.180384812267573302e-01 -3.494460131170562533e-01 8.337330628532104715e-01
-5.670190548131079922e-01 4.198823329525556147e-01 -7.575454328764301692e-01
-6.824885770321664769e-01 1.265437910956157021e-02 -1.540402913860507983e-01
-8.151902157145649586e-01 3.690457023972045225e-01 -3.098041957489371945e-01
5.222353534529551311e-01 -8.836229802789685728e-01 -3.944005057150312687e-02
9.608690701068334228e-02 3.557080366564169815e-01 -4.082333558770598336e-01
-1.122283193435028303e-01 -2.853241221537282657e-01 5.289998913002152969e-01
-3.529558990698308807e-01 6.004087296783383598e-01 -6.938450825200437322e-01
7.007048009583273229e-01 2.667671105034967113e-02 2.649919685036968842e-01
3.965757549694439166e-01 -7.529061771381391488e-02 9.554037464558998716e-01
-9.414866307535361967e-02 -1.168369941789646343e-01 -9.370433524765240385e-01
-5.279372011296754597e-01 -4.900554038784802335e-01 -6.685109778722704288e-01
5.057940112751704298e-01 5.508775743851920259e-01 4.011070753144606038e-01
3.699842266125122903e-01 -3.700791734718134607e-01 -6.016721426316792298e-01
-2.939887770887471552e-01 1.564252497821052579e-01 6.296804428520147434e-01
-1.633962369527647840e-01 8.044414759590122477e-02 8.419997545253117555e-02
1.736952249710853324e-01 -5.720707803110312156e-02 -1.985000191296997230e-01
-6.041647297943970180e-02 -6.276921128629645574e-01 -8.080234665650175563e-01
-3.595616126069389740e-01 -1.727242667014449937e-02 -9.509714270371412148e-01
2.030816866709601876e-01 6.517615637322461408e-01 7.964467361439321325e-01
5.188377379711272067e-03 -6.455608592634412002e-01 4.900279306939181456e-01
1.809625892422336152e-02 2.298986607053631753e-02 -1.555249113835449892e-01
-7.247518601454734366e-01 6.842993225108487954e-01 -1.861115183789253946e-01
-3.758579575789258720e-01 -1.209927724223547330e-01 -5.102553352936671505e-02
-4.246164838282882048e-01 -3.082012806998678522e-01 -9.583207040479262140e-02
1.971045656419876391e-01 -5.511795904125332823e-01 -7.563535918991446394e-01
7.804133346045337427e-02 -1.818756015454602373e-02 9.702531601685873697e-02
-8.514833088561415964e-02 -1.941407162928950880e-01 6.045306317848936351e-02
-5.661665206101854086e-02 5.524020503012424532e-01 -5.890917307848133611e-01
-4.053776046909669112e-02 -1.489314982032988455e-01 1.434959735619142918e-01
3.287438636192616115e-01 3.749134159076809025e-01 6.663244145356832238e-02
-6.899248297941926733e-01 3.617552914019503407e-01 -6.824332950543675613e-01
-2.480295144003252517e-01 -8.105115178137261012e-01 -1.209404786502472073e-01
4.791230132005910858e-02 -1.032677907704279141e-01 2.922245168740215601e-02
-1.448891232026448816e-01 -9.141823732004403791e-01 -2.707134963996128962e-01
-5.923948694201465193e-01 -6.798868857695737622e-02 -8.415898352701021157e-01
-1.879489470225084724e-01 8.711788420156725277e-01 -3.311547354002636889e-01
5.531091553804778904e-01 3.595138093825141490e-01 7.657343847997128972e-01
-4.246562268988024469e-01 5.715215663222846659e-02 5.426779535977979685e-02
4.270845488059115125e-01 5.076400746284089049e-02 6.171617824936861257e-02
1.551061952689147538e-01 2.258221823444171994e-01 1.025756167251935108e-02
6.604801247921732177e-01 -7.019105405792077645e-01 -6.284612087501253996e-02
-3.071520761079396533e-01 -1.761930159365640014e-01 -4.401758650950182011e-02
-3.748922914356556113e-01 2.534804720936158304e-03 7.658412068806076146e-03
-9.692560104833809753e-02 -5.445999099533389565e-01 3.949262081361474830e-01
1.556821274351124496e-01 1.095640628214544637e-01 6.919245164532074333e-02
2.178608182383849970e-02 1.118884077982806036e-01 6.921039501270666305e-02
-2.462047068388290572e-01 -4.107150600745740343e-01 6.502824971622621353e-02
-8.685251844945683641e-02 -8.034981966473682402e-02 2.519383814862746207e-01
3.065920256680091938e-01 7.196949290500997964e-01 1.578116189055958629e-01
2.309960304714778895e-02 -3.983450238322473469e-01 7.161673646591942832e-01
-6.026892994136102688e-01 5.699076513604518501e-01 -6.264570449489388348e-01
-3.316279736832862812e-01 -6.974020967603121735e-01 -1.200054992221661204e-01
-6.988357353825274121e-01 1.302927174430712487e-01 -8.343046263183798161e-02
2.090159252330579254e-01 -1.978665530150470753e-01 -7.410522347642013452e-01
-4.471205039844331486e-01 1.123318088388210734e-01 -9.157618638242225328e-01
-7.180684600403305917e-02 -8.183928374560683894e-02 2.310100123178116527e-01
-5.653869857717617187e-01 6.734508258380407231e-01 3.668285003738070982e-01
-1.917770431368233663e-01 -3.261051870015136411e-01 8.367918993017624263e-02
1.189627002443379572e-01 -8.983630716633006497e-01 2.708758701526687851e-01
6.664975690907615213e-02 2.318170141246991139e-02 -1.997925170341429968e-01
-7.161256145094627712e-01 1.027026654349763729e-01 -1.318325420990466568e-01
-2.190686706072893508e-01 -5.647021012971980419e-02 -3.951492588630165642e-02
1.523130238217348387e-01 6.005015742192578720e-01 -1.893027063865025672e-01
5.522092759242738236e-01 -1.734861580507155998e-01 -8.355826742656490003e-02
-2.029601334151297232e-01 -6.574283161671873321e-01 1.318077753741989655e-01
-7.088850235005059730e-01 -2.248496923286735227e-01 -4.828192184815820465e-01
-2.497310030428159244e-01 -6.991067010700508302e-03 -1.382731616788864491e-02
6.248312535162413583e-01 3.192114665638599025e-01 6.694218254608631513e-01
9.717491771772528153e-02 9.292323828246314976e-01 3.154633649895326464e-01
-6.236448188471960252e-01 2.437678006211594917e-01 1.230208116250231520e-01
4.783347235269281295e-01 -4.618856798713096845e-01 7.912184683656303674e-01
-7.888455602983808213e-01 3.783436287664884157e-01 -1.195264553653783285e-01
-1.305952506293031334e-01 7.167219471131475172e-01 -5.020857470829069857e-01
-1.848866779635570112e-01 -3.213679449741237149e-02 6.515316769389971618e-01
-5.720547085466387571e-01 -3.065235713748686308e-01 -2.245005467030122548e-01
-7.691050661765542751e-01 5.853756914194396810e-01 -1.665995290759405278e-01
2.534219688436861739e-01 -1.185737876741426583e-01 -6.092283539592635577e-01
-7.472492978737124703e-02 -3.728686909660184901e-01 5.733691437543065872e-01
-4.394472449710594142e-01 -2.956909724120298510e-01 -1.040328132248555248e-01
-2.417257739514781234e-01 6.926430823914234147e-02 8.085234779343569711e-02
-1.768332351710499573e-01 -5.812519070974730973e-02 4.160317860444770477e-01
6.104950315153058193e-01 -2.301577435306552954e-01 -7.796970803426388208e-02
1.854604728084902066e-02 1.471573501603229694e-01 -1.159448781270923379e-01
-4.755261575799000218e-01 7.392200195003552077e-01 -5.278556695224929651e-01
-1.269775931073113817e-01 8.834688081465887910e-01 -2.696465547155730835e-01
4.794691320828290415e-01 8.583056434930502743e-02 9.759371494780003098e-02
-2.201137272376897380e-01 7.927528077710101206e-02 1.573108240425638016e-01
2.414332221490813127e-02 -4.506519946877350358e-01 6.784464273372563525e-01
-1.325553340015545312e-01 7.053591946467879792e-01 -5.158185706966741391e-01
-7.076070545580284143e-01 1.081667462127352264e-01 -1.142742200304138339e-01
5.297024773477301274e-01 -8.825576423003667070e-01 1.190860638783178549e-01
1.429963293936776236e-01 -2.928605715648162355e-02 -2.235610247875681467e-01
7.394004705164640701e-01 -5.743229193744195937e-01 3.774964672962178303e-01
5.198370183365065289e-01 3.181947634228753374e-01 2.166970970839115496e-01
2.249991441714475904e-01 -4.604057608729005685e-02 -5.683023869930090566e-01
1.083139908132071672e-01 5.524616782676845805e-02 -7.292842561305569182e-01
-7.861120938654421186e-01 5.346809020167810900e-01 -2.120878230310401791e-01
1.100977593061139986e-02 -8.453876582172056287e-01 2.611290976202337855e-01
2.298228448296633086e-01 5.252898356872298669e-01 -6.240130015361551596e-02
-2.381097113563621082e-02 -6.576816561748035639e-01 -7.843985781852784722e-01
7.531034815671048266e-01 -5.655837952138625946e-01 3.187045326361827025e-01
-1.007103122645571780e-01 2.725143277230516747e-01 -8.210267863949807232e-01
-1.907333422626830421e-01 -4.194668913356278117e-02 -4.379665324809805388e-02
-2.659633385327404564e-01 9.656519974288605423e-01 -1.342119722298580065e-01
-9.742325059026529788e-02 -6.094933850397799002e-01 -8.210944475431862788e-01
-5.058145506349773779e-01 9.149933483597655348e-01 1.510364535468705464e-02
1.925067147669386747e-01 3.422877237524608596e-01 -4.455435975211632232e-02
3.331257156872869940e-01 6.612648268018197495e-01 1.439397673821620760e-01
-7.094983231045981498e-01 6.121952973862201386e-01 -4.380340965823617538e-01
2.173404894188314118e-01 -7.844601165055181680e-02 -1.127097074077673539e-01
3.306023845257197169e-01 3.302504863490535736e-01 7.219233340452400893e-02
-1.834362327221925049e-01 -1.879812710251053676e-01 -1.256907741025220862e-02
-4.924327913333529372e-01 8.631477317472102673e-01 2.680386970202107144e-01
5.348909385633743296e-01 -8.674680481815022492e-01 -6.958849966896252237e-02
-1.207521954568275685e-01 -1.905018148769705155e-01 1.721287648949179974e-02
3.944035538333948154e-01 -1.470602186966591118e-01 -2.136088155772405128e-01
-3.834587356173415618e-01 -7.049326175142502926e-01 -5.500758880814226037e-01
-3.550518662670108100e-02 -6.432124844184868712e-03 1.748148194030294533e-01
-3.058816128071298879e-01 2.154532471402158533e-01 6.637279959067156065e-01
-7.747114572062721027e-01 1.842727044769571984e-02 -3.483157576760338436e-01
1.014449777984404999e-01 -7.044916286569839758e-02 -1.120733158263082924e-01
4.021704888140861245e-01 -6.070985489754320286e-01 -5.623483031022511458e-01
5.576592089325291962e-02 -1.543021404333382030e-01 8.845056098878393280e-01
-2.641183061654532871e-01 1.290899893352072669e-01 -9.310448813039988725e-01
-1.560379473272466289e-01 -2.881168745399166342e-01 9.799459216443733023e-02
1.179807810684987690e-01 -9.940596903101577286e-01 -1.746376773329896270e-01
1.426805767416803317e-01 1.613442577522123389e-01 4.813929711886982127e-02
5.134413190788313930e-01 5.680881222853986778e-02 9.798176802831878862e-02
-1.784822222041163309e-01 4.091922000484742028e-02 -5.275706542951573257e-03
2.955768540157355795e-01 -6.725018112734376663e-02 -6.442235120691203187e-02
4.180406096887065437e-01 5.384013353142316077e-02 6.120018836061999479e-02
5.779068466243725277e-01 -6.993951054191848149e-01 5.123011730626580995e-01
3.396264719836314394e-01 -3.295726670591643537e-02 -1.323185330808933878e-02
7.354189113136925249e-01 -3.747276487864457245e-02 6.604534374159563015e-01
-5.431745595508933322e-01 6.945648583418194688e-01 3.891103445071723566e-01
-3.585205043244011902e-01 -1.931245122120862912e-01 -5.711573408566689852e-02
-9.221649561826771035e-02 7.471074714426872987e-01 -4.355971969698370083e-01
-1.346431909308076214e-01 -2.234886000904966197e-01 4.437270131305785792e-02
5.913031602650776763e-01 2.782043304492494151e-01 2.814964307577318414e-01
-2.570552917095527690e-01 5.123534149548408800e-02 5.277740893753107843e-01
2.754731339211045626e-01 5.855791246284439699e-01 1.172431749441712676e-02
-7.124269047027508295e-01 -5.587180357996274216e-02 -2.528247266078913480e-01
-2.203762863326684807e-01 6.360452221465521250e-01 7.439230387511980291e-01
-1.105498261100408691e-01 4.961068834265630612e-02 1.766615882144015048e-01
-3.550300193432451290e-01 1.624169776169079038e-01 4.662031985861305738e-01
4.614028422003118440e-02 -8.617107952893043876e-01 -5.690506920973880112e-01
5.519123025361732937e-01 -6.757033148808142542e-01 -3.303339320482126529e-01
-3.315902076880870020e-01 -7.673000472419649887e-01 -4.859299642286971088e-01
6.261803619557073652e-01 -3.630465769496148964e-01 7.532948892166952959e-01
-4.457080840126596555e-01 -2.943693706365160812e-01 -8.850998071682985024e-01
-5.742919257710827896e-01 -4.020124117949157583e-01 -6.939370870841667926e-01
-6.711444404088786619e-01 7.851198417118589179e-02 -8.929635094138524409e-02
-2.308538641631871502e-01 -3.045422835085875302e-01 2.821524478456727963e-02
-5.301758879926762313e-01 5.600947487488342619e-02 -8.877975982627762663e-01
1.030822100194542790e-01 1.244201937028576177e-01 -3.043830160302820054e-01
-2.214329575587052068e-01 -4.155714010376386769e-01 -9.110545096432995926e-01
-1.690021603348140222e-01 5.110138925312904812e-01 -7.131634546731890900e-01
3.145795822235324946e-01 -9.970158304900381130e-02 9.637605760244936093e-01
4.973641584773690338e-01 -3.856778150921592596e-01 -4.136365426197323725e-01
-1.077978717031717604e-02 6.324109465298591859e-01 -4.612186600335917430e-01
3.289387783053473457e-01 2.062836525480539474e-01 7.937661462087051978e-02
4.975253267364710963e-01 -3.966137158302268095e-01 -4.199485588652686618e-01
6.177473515975699936e-01 3.568305281659123196e-01 4.191196160540454074e-01
-7.898514797239477581e-01 1.484986012344780004e-01 -5.526502692137768014e-01
2.384281187950263725e-01 1.230889850516409811e-01 6.560730573705193802e-02
-9.592182088646802884e-02 2.421636585315251750e-02 -9.141068050747309659e-01
-1.124234215838854772e-01 -5.439500190197219531e-01 3.597463858768895073e-01
4.044295087554874435e-01 -1.981222013333869825e-01 -3.445581595385063811e-01
2.149116495248657999e-01 -6.799502751470580530e-02 -2.247175396678884884e-01
-6.280429219807981411e-02 -1.197187920941681499e-01 -9.261810376019549151e-01
-1.069967416176135777e-01 5.727190850499195435e-02 1.626585002322663565e-01
-3.514825985180701495e-02 -3.872436569669574641e-02 -9.924940286190229999e-02
3.193302597940991250e-01 -1.111622087757398458e-01 -2.081710119359716227e-01
1.326338836857906232e-02 -9.712102046134551969e-01 -8.228990893693366449e-02
1.189805994587522786e-01 -7.970789342116170462e-02 -1.587460397043149660e-02
-1.183902479973909516e-01 -2.782348802425836931e-01 2.414479597149045698e-01
-1.172692576558326955e-01 7.972775123219874582e-02 3.462004298690552623e-03
1.646569916164037639e-01 -7.331499204627188460e-02 -1.274985151768355807e-01
-1.342412361504138896e-01 -2.090398727952836599e-01 5.075599266667043530e-01
-1.538095763619633793e-01 -4.448820359864475993e-01 2.608713456601132741e-01
6.652346767912743764e-02 2.120970959366570430e-01 -1.495183016832712097e-01
