-5.539178403778947102e-01 -3.460809786386211378e-03 1.023474318619144730e-01
5.517273624927542253e-01 7.582549907155725077e-02 -5.702046471011500833e-02
-8.953095227544912715e-01 -6.641545884527351451e-02 5.720640141940189771e-01
-4.397235845995293158e-01 5.974809936878124894e-01 7.900783685729070305e-01
-1.233894041226841071e-01 1.110528257472483543e-01 4.091924462585445621e-01
2.322281109679244226e-01 -6.576026807417746367e-01 -1.499079178492641606e-01
-2.677845901248794291e-01 -9.662777735435265081e-01 -4.104032107070572644e-01
2.886022736585965864e-01 -8.562187200435320555e-01 -4.585628782127693093e-01
4.250704395306350580e-01 9.563108705554659306e-01 -1.721412953057514100e-02
-3.226599424921022807e-01 -1.374005894541344419e-01 1.553932516900726757e-01
3.835656597834859183e-02 4.964552461926005078e-01 7.921600055305185739e-01
-2.459201394548290731e-01 8.549808206307371039e-01 3.532950329809564360e-01
-2.138227677688004646e-01 -9.860719616181271574e-01 -1.129431879846909959e-01
-5.441516843159666106e-01 -7.337107881952560362e-01 -4.031793211591938042e-01
-7.130014070620457334e-01 2.922298987423138095e-01 7.545103476562284861e-01
-4.376904723843572098e-01 5.345602803607137909e-01 8.323106227186226613e-01
3.126528717266679469e-01 2.793609695399544846e-01 9.197611092898734519e-02
-2.773339861958615815e-01 -9.301860965245756230e-02 2.538606230854018042e-01
3.041317958450451830e-01 2.939296441922077952e-01 -5.510446193852431840e-01
3.702223672949492839e-01 4.317202136075039554e-01 -5.494699800429718728e-01
-1.000203038982218073e-01 -5.905459347396982972e-01 -7.557529094749695364e-01
-4.335790104608055473e-01 7.037554991071143240e-01 6.726825086656238462e-01
2.674118196091512245e-01 7.357851287186684131e-01 6.470189020318092288e-01
-9.215742570061102867e-01 -1.178751871869712919e-01 3.424475876384547313e-01
8.309311413075436414e-01 2.758972227148474010e-01 -2.608126099243746054e-02
-3.546682497685821334e-01 6.809522704900908829e-01 2.630852242881429048e-01
-2.138125703275255141e-01 5.221328348991863266e-02 7.554686846914820952e-01
6.360839529143839099e-01 -1.478866020615182408e-01 -1.826980128288802074e-01
2.553340369480233685e-01 2.152958857760988443e-01 -3.307693066959902506e-01
-1.657645521322455989e-02 6.482053129552353132e-01 3.697693603578384915e-03
8.760323423015479172e-01 -1.421322983692533959e-01 -4.546159914130450397e-01
4.746882595370837121e-01 -4.491526530836877362e-01 -2.342501000845082226e-01
-3.319362637838135094e-02 -2.486525248503940744e-01 -5.918413639252229075e-01
-2.971406999337884991e-01 -8.990101894672209992e-01 1.148671699513612865e-01
8.253969358686272795e-01 1.126778039244789864e-01 -1.259043059965506417e-01
7.394859893612454327e-01 3.041883828634724951e-01 -6.977222241666138913e-01
-4.107090507621201092e-01 -8.035843531557949060e-01 2.872608365520468721e-01
-4.164821014885907724e-01 -1.733377452710840871e-01 1.272249569721762251e-02
-3.186112774260483893e-01 -9.804416263129064335e-01 -5.981724806929816091e-02
6.368695435277337280e-01 6.283911430550009891e-01 -4.946831129906885671e-01
1.722895366627856251e-01 3.256842732632734827e-01 1.536821031570592133e-01
3.934806310813606101e-01 3.503690812014964018e-01 3.357516292771609567e-01
2.961614066835944192e-01 -5.468980668049799876e-01 -1.727185516438456137e-01
-4.395941088596190816e-01 -5.996182018622359111e-01 -5.116263921470028952e-01
-4.554403400052346035e-02 5.000549314271256485e-01 6.980871564465274126e-02
2.301731592502024581e-01 -8.882160275897179602e-01 -4.736804473008345839e-01
-9.332733529369311443e-01 -2.200648949289454037e-01 4.139498270762729804e-01
-5.499903115858347791e-01 1.572035534696434589e-01 1.760353201703189763e-01
-4.805746670584331616e-03 2.337791658521032601e-01 3.639020956624233749e-01
2.987913979435989353e-01 -8.194955158763593817e-01 -6.189719423765823736e-01
-7.511438592575226947e-01 3.218539270687263976e-01 4.009368756607283868e-01
3.606815227620731590e-01 4.114694942313963377e-01 4.686741819852598967e-01
-3.485032586045039849e-01 -3.374290134665531293e-01 -3.282955681816367988e-01
-1.932989116812231234e-01 -3.355988748141036648e-01 7.673108899769449584e-03
-1.749376217069725445e-02 -2.224944648607613262e-01 -5.205291586049336505e-01
-3.683495976313092557e-01 7.748540799800247847e-02 1.963776177264562051e-01
1.871658952072858817e-01 -3.789519354550621166e-01 -1.774087863562160972e-01
-7.047286550796794113e-01 -4.896593216492130946e-03 1.256314853382816121e-01
9.187241553262276428e-02 3.628253076504990848e-01 1.221154703868749664e-01
-6.659282224437537701e-02 -3.103775983787330772e-01 -2.353409745829528332e-01
2.938492456500264582e-01 -8.142152091017560434e-01 -3.207824897939616782e-01
-4.969651796553594125e-01 3.569512734345156590e-01 2.249550150507670376e-01
-8.470974372839871203e-01 -4.662913028307977270e-01 3.415715623403490879e-03
-8.901593951463769860e-01 -1.908912983550950793e-01 1.904728274210898686e-01
3.989015472332091417e-01 6.185169255276201650e-02 -1.404575620985224760e-01
-4.553341852117231414e-01 2.462081499959261621e-01 1.970207183217180247e-01
-3.887357996018131479e-01 -9.187098545640075553e-01 1.097324844202232919e-01
-4.395902658461361967e-01 -8.719256682927164492e-01 -4.147220208701083988e-01
3.681859189586408898e-01 -8.023248268912090975e-01 -4.563854571059513532e-01
6.489957466131940356e-02 -2.425402320899544550e-01 -3.096228886658082824e-01
3.013029454507126781e-01 -1.567545970677521883e-01 -2.362050085163741042e-01
2.924233956028933767e-01 9.609321024647735632e-01 4.210830373462101095e-01
2.722512320474991254e-01 5.222623322439557542e-02 -7.181107857049833232e-01
-4.165436678717299723e-01 7.367974351296026070e-01 4.077604656686902307e-01
-3.687330254238956329e-01 7.408116652775448285e-01 3.352122445509571058e-01
8.946764339075594652e-01 5.375456865007193219e-01 -1.246082739444889509e-01
7.593823459608958215e-01 6.357497355562935493e-01 1.685376236895833879e-01
-2.833324545580936382e-01 -2.582610351437315543e-01 3.172240029726802746e-02
1.037519759489547166e-01 2.953857172627605276e-01 2.881648801506951907e-01
7.216449548985566231e-01 6.563808083180646680e-01 2.225570052138233501e-01
-6.934379284065427251e-01 -3.141102145893567843e-02 1.037476625337381692e-01
-3.086280232062767470e-01 8.346597275637722690e-01 4.557174160708523658e-01
-2.819591635456033529e-01 1.535110955765042196e-01 2.400400994638152707e-01
-3.012904396539461960e-01 2.118485727536859875e-01 8.795632110509310486e-01
8.640363191056269487e-01 -1.618943230595987770e-01 -4.325262636935039984e-01
2.283500825718590699e-01 3.490360124214332838e-01 -2.111549541158106169e-01
-5.495456128983018385e-01 -8.896214084389544308e-01 1.317598450671946531e-01
1.228655613443756095e-01 9.614541304391128751e-01 4.903840369664673737e-01
-7.552697668639045403e-02 5.721289965843383563e-01 6.103299854919595757e-02
-3.407663886837191680e-01 4.896106993902571425e-02 2.094433411535855660e-01
3.684691368832964109e-01 9.641522666849762224e-01 -3.483281856484652045e-04
3.306748233468450593e-01 8.415447650278059522e-01 -2.006555684605857703e-01
2.686415066658423001e-01 1.825529419081990679e-01 -2.778172335558927730e-01
3.912811475355655877e-01 3.878183280665088994e-01 4.060517005304496996e-01
9.375230007569461677e-01 2.758533295363269633e-01 -2.352202024388909407e-01
-2.921136920582416141e-01 -2.309457289422409965e-01 8.586392705679783688e-02
-2.072361986296368808e-01 5.243073227999084374e-01 8.686116686566276446e-01
-3.361885294187675899e-01 7.680411703063997342e-01 6.699762420824468823e-01
6.003174661933421419e-01 3.498286424278981288e-01 2.156672869865366715e-01
3.187848267677128589e-01 3.239985705464006327e-01 3.147527524139545618e-01
4.705796701970160201e-01 5.119992322962975129e-01 -5.679416632970233358e-01
-4.279991068596738502e-01 -2.013581589219416434e-01 -3.360237578205484132e-02
5.886602864951300251e-01 3.622752579687418817e-02 -8.053314232513282545e-02
8.977653599316667288e-01 4.442001992806049460e-02 -6.009916859090798091e-01
-2.424176997400083466e-01 8.683722651283194427e-01 3.925517798222954435e-01
8.529514858105203823e-01 6.462655750814952915e-01 -1.200371880502168337e-01
-5.577565933091905848e-01 4.844864906903449848e-03 1.068076831154101264e-01
6.434509873034405247e-02 7.809362599015212680e-01 -3.829521023347321612e-02
3.802207815840684124e-01 3.639403261300335202e-01 3.730876618954165336e-01
8.069694395850515733e-02 -1.398457255115622966e-01 -4.853760286444428473e-01
1.076866445550589760e-02 -6.972386016916973794e-01 1.309998033001773775e-02
-4.671198256012555616e-02 -8.456598196105191700e-01 -7.880055851355377214e-03
2.616574632579167226e-01 1.485720530285294938e-01 -3.149264310971216507e-01
-2.356880250782692754e-01 -2.738363654472512065e-01 3.225114323892971924e-01
9.178020477629940110e-01 3.482173572752231272e-01 -1.485273857102408779e-01
-1.410594876634772192e-04 9.738857333613817335e-01 3.340064511737476094e-01
-2.180346186025466926e-01 -9.249511521833563288e-01 3.062443571834126341e-02
-2.941668561417796202e-01 -2.716036761272778155e-01 5.800672566320745904e-01
4.590056013881738672e-01 -6.731262857698927515e-01 -3.497525641815030228e-01
1.523475305973283067e-01 -5.795809212688062262e-01 -9.688515480481968423e-02
-3.181745296399186018e-01 7.735047731036412966e-01 6.769108817728570759e-01
-7.177846639329187317e-01 -5.678593697674196861e-01 5.142183260580047710e-01
3.479242142526105530e-01 7.486504618325114935e-01 5.887674164805579702e-01
3.126267797641291701e-01 4.055874867682647822e-01 5.079735655334719491e-01
-9.205696670696360551e-01 -3.459631826042865455e-01 4.087061450707553667e-01
1.015089390694187549e-01 7.935655172503263133e-01 6.979383174401470047e-01
1.597863516175913323e-01 3.687465978957086832e-01 2.215668527327650100e-02
1.987048667706932670e-01 3.620747316348448264e-01 -7.400237546329356542e-02
-7.235879535504543547e-01 -1.134742696923782823e-01 6.079829346314214594e-02
4.491289807294986947e-01 1.149084311649306023e-01 -8.023608759578156890e-01
1.842428486705632862e-02 -9.708340774179520238e-01 -4.013720369567241875e-01
1.449912161639471120e-01 -5.591424120012826737e-01 -8.486736102844120166e-01
5.110670967061822223e-01 -2.675967408454520413e-01 -2.028365893503906725e-01
2.679692070462594833e-01 1.374494910906095269e-01 -2.972355520941126206e-01
4.687859405613439834e-01 -9.023224654671764544e-02 -8.773000391493329664e-01
7.839673051861348885e-01 5.168360162027676452e-01 1.368967531251057690e-01
-1.492601520146039085e-01 8.572385582879812338e-01 2.213114493262275939e-01
-1.270700141400086802e-01 8.830719363053680659e-01 6.096927727080890813e-01
6.575969208683126732e-01 -4.696694924030296869e-01 -3.913663488443209215e-01
-2.747480667822403966e-01 -1.696235065490088109e-02 2.669606187217929971e-01
-7.866338712453346815e-02 -4.282814862161301028e-01 -1.018603647815187301e-02
1.835938491184940513e-01 4.763259415453564571e-01 -1.955721860130001100e-01
-2.622382927354248716e-01 3.035183002017662890e-01 8.857757690624792346e-01
5.176995929051340095e-01 1.280360101671850215e-01 -2.153262301222242867e-02
1.878030729331676973e-01 4.780667947790352978e-01 -2.054939427031285681e-01
-6.093248327849964951e-01 -8.844142279435238674e-01 5.788817114052567658e-02
2.620440480208217071e-01 2.876889869392805776e-01 -7.177407162302955335e-02
-2.578001477574006217e-01 -3.369595913446187252e-01 4.424230103927965230e-01
-5.177980358749064704e-01 2.790036356520624872e-01 8.819959916143981227e-01
5.855248165069273369e-01 2.455596348746205138e-01 -7.631501934138382737e-01
-2.231449886086047385e-01 -3.163203219565184909e-01 1.931032910026693195e-01
6.970089070159767308e-01 -5.560893877452892375e-02 -1.530399905241207892e-01
8.644397006309434417e-01 -1.522612424663147557e-01 -4.156267641385192335e-01
1.449994485538729505e-01 9.079986407889434341e-01 6.073546738807997399e-03
-5.858450037737084060e-01 -2.063621745128347007e-01 -6.265491371462757197e-02
3.642671672345130784e-01 8.465435841509537651e-01 -2.113715146387822041e-01
2.860402165287864173e-01 -8.545147466909549516e-01 -4.225903797855324329e-01
7.233233728399417473e-01 -2.964629739723013691e-01 -7.567852429919978974e-01
-3.787443564368022098e-01 -1.296555647443769221e-01 9.417154252846839102e-02
1.228464246882325084e-01 -9.323155034693374477e-01 -4.745392162904756850e-01
-4.391113403833469264e-01 -9.311283561031296063e-01 -3.236991555925363140e-01
-7.247514016936281722e-01 -4.426941348561211353e-01 -1.669147758236811663e-01
6.735508446812041861e-01 4.958088767928338081e-01 -6.010766238914934112e-01
-7.122209247400740351e-01 -1.743841959181936796e-01 9.621699111419194234e-03
-9.184392329806536637e-01 -4.079615720744396157e-01 3.362610755371969185e-01
-8.126309321642511962e-01 -2.513176594981101908e-01 3.806980296611115616e-02
-3.706129173396368048e-01 4.231243477009240944e-02 8.489336498790862606e-01
6.798672235929298369e-02 -6.472498119762041258e-01 -3.211902651384723750e-02
1.394792714210992823e-01 8.189475202035584323e-01 -8.097274545697352721e-02
-8.919884498516380544e-01 -3.729520379649187145e-01 4.761546365495693545e-01
-8.224579340677604655e-01 -1.379070532177345820e-01 1.224151284712334115e-01
7.656279665626639641e-01 -3.764289234024933983e-01 -5.461091588633807392e-01
-6.190853192702778784e-01 2.637496176252656088e-01 2.350350032315260684e-01
1.518248975949466895e-01 -6.787162910940267579e-01 -9.785527017838800690e-02
-3.717652212855201282e-02 1.733787701649588953e-01 6.106695159194455158e-01
-5.454291548556007285e-01 -5.460350669378786215e-01 -3.966483355226493868e-01
-2.835671966114652887e-01 3.493331919363087956e-01 1.955817349553508055e-01
8.246127818659279018e-01 -1.030730939492733866e-01 -7.021934641070639582e-01
2.063516905297450299e-01 -8.099422311322819201e-01 -6.938550216097084666e-01
-8.462573356743177122e-01 1.051096867313985467e-01 3.449010609001735284e-01
-1.973137874790863167e-01 -8.512097807707229569e-01 1.118134764260181602e-01
8.000392204471465929e-01 5.042299150275284525e-01 -5.224475415238547527e-01
-3.648680742481168471e-01 -1.417564213668794648e-01 7.550229716299766691e-01
-2.959829238912247557e-02 1.722731346438617084e-01 5.045425271639611964e-01
-1.548663808772436923e-01 -2.959064462388954486e-01 -3.628045349869227221e-01
-1.459513742085216947e-01 4.063392107473326464e-02 4.747631760283040903e-01
-3.966325255431072533e-02 -2.884565693920607132e-01 -2.821931674117421074e-01
-1.757540732721515342e-01 -3.023612986700920380e-01 -3.055400279018403165e-01
9.288256219622096355e-01 7.753246208384056981e-02 -3.455911070926205864e-01
-5.965999062548796861e-01 7.205447166071592136e-02 1.427075262156700941e-01
-1.770613860247728655e-01 -2.719003564080501451e-02 5.473817674544516620e-01
-7.138911658019623241e-01 -1.411958248211139522e-01 3.549042808977667662e-02
3.095938855459960948e-01 -4.764969564554619730e-01 -1.784697033419624101e-01
1.079726586543502398e-01 -2.518814328292817151e-01 -7.851272214513943526e-01
-7.856157716070810704e-01 3.152669131165334870e-01 5.338522490605964732e-01
2.710055217984002063e-01 2.349908913086361517e-01 -5.193537745523498783e-01
-3.463154062601820349e-01 -9.419245072109602157e-01 -4.008498494221548469e-01
-9.843855722210929915e-02 -9.772218422569282081e-01 -1.732015213252668384e-01
-9.799032562775578797e-03 7.210404608936195059e-01 5.560175408308627026e-03
7.556145765527411129e-01 4.437033694278727514e-01 -6.044786908749189003e-01
-9.930163638569150519e-02 1.252727784867894989e-01 4.323419433206047158e-01
-2.279099876197007435e-01 1.524357355188312446e-01 2.716949400252339775e-01
1.299989891761729466e-01 -7.403849339699891674e-01 -9.835467368722626558e-02
-7.257877412732096634e-01 -2.628388387197149734e-01 -4.926873292609044303e-02
6.323238132078373708e-01 -1.271505850747789990e-01 -8.537955288673442222e-01
4.683564239667126899e-02 5.364788602563245190e-01 7.914219555404649054e-01
5.452699532835748597e-01 5.420937852063595352e-01 -5.700166856853465802e-01
9.266702182640389474e-01 5.334889747791251441e-02 -5.075401851129611730e-01
-4.485235981319385945e-01 4.653523056410769909e-01 8.597733453372680135e-01
4.103110144665427228e-01 -2.930586900225239377e-01 -8.986301271270470403e-01
-3.898276104942084430e-01 -5.113237685511138331e-01 -5.200515795788098750e-01
3.983882272463378782e-01 -5.534350770453282387e-01 -2.250334377770921990e-01
-7.250083088429781775e-01 1.784018114496100926e-01 2.498443533741715461e-01
-7.924025739219672793e-02 -4.048627739888463473e-01 -7.230653770042808626e-01
-2.906631046452141098e-01 -1.610374470265534819e-01 1.912830986845618364e-01
5.301719089820757791e-01 -2.340390651987885318e-01 -1.966959434986436661e-01
-7.826870526123777538e-02 2.968897191355814313e-01 7.995177376625639543e-01
-2.463037382709783729e-01 2.426577639196439151e-01 8.694514554070086332e-01
-2.927613325432920632e-01 -2.941770866745234136e-01 -1.758669824011560023e-01
2.926902020794034942e-01 9.204562070778949945e-01 -7.242735776910022572e-02
7.013244842786612310e-01 2.865401265938476438e-01 -7.228802800652474048e-01
6.152708641977074899e-01 1.211777419752880884e-02 -9.592328972887813332e-02
-9.032185107559633774e-01 5.349608640796343559e-03 4.942137327731344620e-01
7.232049242902496289e-01 -2.591829082743056789e-01 -2.883062264795446805e-01
6.630246061549980308e-01 -1.627889326055207420e-01 -1.982613114175518498e-01
-4.169553901888322645e-01 -2.691452627796409036e-01 -1.495757203158601945e-01
2.234146206665805767e-01 4.582473465002443458e-01 -2.805294296344252314e-01
3.439343674862230249e-01 6.181506077731173665e-01 6.081488591168018321e-01
2.426678114715904166e-01 -7.025263565241641750e-01 -1.716474358408153211e-01
-4.331830056910030424e-01 7.059700897198307734e-01 3.794563394515897414e-01
-2.809352707133478400e-01 -2.986173197963218895e-01 -1.941994781651922297e-01
-5.638349767214474451e-01 -8.725412489415900197e-01 1.643917722555314487e-01
3.182620979311136522e-01 3.805170646728701089e-01 4.628127608027801099e-01
-1.897618729330787790e-01 -6.564314192073944509e-01 -7.010009812838677856e-01
2.524069612330728796e-01 6.357082568443078729e-01 6.746444226211317785e-01
-3.654708799366421235e-01 3.003773026748889352e-01 2.015598642838666299e-01
-2.254289242461357257e-01 9.556859614205065467e-02 7.963296100711338976e-01
1.893706625259545251e-01 -5.205208567835003519e-01 -8.637629803557455022e-01
-5.071062313546191858e-01 -4.856054449781023741e-01 -3.989002753508869570e-01
2.658618950528445768e-01 3.959283856030268445e-01 -3.945286491834721909e-01
3.812264520442455451e-01 5.979582061345686261e-01 -4.467387115495914940e-01
8.890378054917756900e-01 -1.675967767313324419e-02 -3.165395469377278448e-01
-7.152969044537832444e-01 -3.023585509783848213e-01 -8.680142330476477153e-02
-1.249148742131129530e-01 1.135051181656630132e-01 4.031939715540522884e-01
-1.375094764777343159e-01 3.202001386824129270e-01 2.122877721182724609e-01
3.610563862674643354e-01 8.839345446993399635e-01 4.878200737564926115e-01
-8.837386815474660429e-01 -1.769347581506349465e-01 1.862434796730269848e-01
-8.560427842482899452e-01 1.346758449970045790e-01 4.122785744040209366e-01
-4.269609016951009250e-01 -9.661915957038615943e-01 -2.326226652764315506e-01
-8.038005621059018946e-01 2.435900324469198186e-01 6.293649242664837162e-01
-2.225421654562591001e-01 1.848460987621884655e-01 2.614143530852319763e-01
8.891836482657836660e-01 4.254802097169971820e-01 -6.310400843022191675e-02
3.157572672268322833e-01 2.814896753369446336e-01 1.082883602536786061e-01
-2.464211799494873123e-01 5.228388477484202657e-01 1.591863577322946977e-01
-6.826429661889746869e-01 9.088096847211374341e-02 8.219576622269213484e-01
-3.637301586731479519e-01 -3.443273669631627953e-01 -3.344500055426896101e-01
2.004828259165264137e-01 -8.425630148535402375e-01 -2.429957023676132255e-01
3.198536975277323502e-01 -5.320910615484464312e-01 -1.826481757257792105e-01
-1.819359190153116979e-01 -3.752871241021719928e-02 5.367898016638293912e-01
-1.593427387217181412e-01 1.576768114557768330e-01 3.192725768951774068e-01
-2.248748488247303279e-01 -3.112405578436284737e-01 -3.329366185766677866e-01
3.114508976101527243e-02 2.337053120835887454e-01 5.903291317319256937e-01
3.858757331824156922e-01 4.126653014203805481e-01 4.469506902146458960e-01
3.864230011395308195e-01 1.541206306985713481e-01 -7.512787208534912331e-01
-1.748590739753098922e-01 2.435030097730184195e-01 2.527315327034925785e-01
-1.264286935042462923e-01 -8.891776831062407904e-01 1.490118601446873553e-02
4.180668321068126692e-01 -7.309249343372842267e-02 -8.668466097958872352e-01
3.593476706586936076e-01 -1.070852518479339585e-02 -2.002516658764235402e-01
-9.311868479319042047e-01 -3.357204433314894265e-01 3.083746430521489001e-01
3.697173530166660282e-01 2.258653904342875218e-01 1.295349419108965741e-02
-8.924082652030593810e-01 -8.318433126602686745e-02 2.718246205734135557e-01
-2.367663747113303851e-01 5.279175452495826759e-01 8.697594236787773436e-01
7.004410543848907933e-01 7.135046400161498825e-01 -3.675280934875133076e-01
7.718267022965953628e-02 -6.083756039310292962e-01 -4.234489469922154276e-02
8.937778024681639621e-01 -9.536845789115648564e-02 -5.123967967504106102e-01
4.951064684250729153e-02 -9.628443941416657825e-01 -3.517146121409397974e-01
-3.103866607916525577e-01 -2.983957550926197855e-01 5.860550666195847302e-01
4.804769259686941241e-01 8.806428260787371176e-01 -1.858628828621440299e-01
6.303335653666560789e-01 5.102342039789152794e-01 3.138573484650525325e-01
-6.035285096374010116e-01 -5.827478732226132330e-01 -3.496121260342029968e-01
-8.059906872378128084e-02 -3.499556110651357854e-01 -6.802283192739381201e-01
8.552386263878993811e-01 1.794750764205898519e-01 -6.548304302721322800e-01
4.366417994349621745e-01 4.303761600846663371e-01 4.239054586880965925e-01
8.253770165080701604e-01 6.663117204556910922e-01 -2.615165645804427008e-01
-3.180074104723816242e-01 -1.368656104756834323e-02 7.987867337326791661e-01
2.544568766594709208e-01 2.896914084713003712e-01 -3.756466515420177066e-01
-1.414915482087174547e-01 -3.205222204383826323e-01 -1.833346514159602259e-01
3.407032855521467951e-01 -2.588428504063557817e-02 -2.177086683470470796e-01
-8.539426412493964502e-01 -3.759457379506434549e-01 5.430524681519593999e-01
1.739350734015730482e-01 -1.264907191791177395e-02 -4.882595140985834248e-01
3.347938698370205857e-01 3.733317375332315113e-01 4.325012679553444928e-01
2.212801210789310524e-01 -6.110395542007727165e-01 -1.363445531028202595e-01
-2.316975849864910120e-01 -2.942001732354754817e-01 2.365905939987729412e-01
3.403333445159512638e-01 3.377936940384750897e-01 -5.778058583366963985e-01
-2.409257092395739319e-01 -7.931313919525758704e-01 -6.257239054818499735e-01
-2.012348494497004925e-01 2.251113868543424268e-01 2.526337668420364224e-01
-6.416428626339029662e-02 3.723775412137897423e-01 8.203883405832713693e-01
-6.511065204558945385e-02 -4.221844538166709682e-01 -7.432112650308972945e-01
1.534239456464394635e-01 -5.297550269254148736e-01 -8.557114008096838864e-01
4.909766793345985425e-01 2.888099511465765934e-01 1.823827187464349409e-01
3.830161422591451537e-01 3.657308811958680933e-02 -8.134571209196685970e-01
4.006434332321949787e-01 2.308989063082321769e-01 5.383348827223121552e-02
-6.010232821778330736e-01 5.820863953052562989e-01 5.484282652870408059e-01
1.497032960005454105e-01 2.927172570088970582e-01 3.493896330103385961e-01
-1.415685024415279936e-01 8.503402823724466597e-02 4.110624479666959985e-01
-4.996923029022042884e-01 -1.121593258412699606e-01 3.629904428450249354e-02
9.466656959323908049e-01 2.087962020120949225e-01 -3.164695090104076569e-01
-5.386839592632952645e-01 -3.654148707064614476e-01 -2.614049154964520616e-01
-5.291816185240126869e-01 -2.490475509005434795e-01 -1.192190671871075636e-01
7.554286933320208952e-01 -3.924931437697884440e-01 -5.588485671654718212e-01
-7.701647036296818127e-01 1.670117702015210259e-01 2.832678633173443816e-01
-1.229534853850177273e-01 -4.356980175844744618e-01 -7.046556536951212868e-01
-9.240456436819904917e-02 2.025085036285904361e-01 3.323092974681097211e-01
-4.596181776999718749e-01 -8.432632796458378044e-01 -4.236702233808250506e-01
-8.097538216385417875e-02 -3.141183253565964506e-01 -2.252178092279342181e-01
-4.130846204226533147e-01 7.163714240458769478e-01 6.763655036767657336e-01
9.211664435716176991e-02 -3.091478830365292918e-01 -8.036997684413206278e-01
6.753116521734146005e-01 -6.718790684466029173e-02 -1.522594242194653669e-01
8.131377538794302140e-01 -2.127870893763426086e-01 -3.627616088697218633e-01
-5.720066961440710696e-01 1.389266864378918831e-01 1.707244194860011166e-01
-1.000030293443038704e-01 9.263947979490045892e-01 5.184806618836791392e-01
5.442141867099878905e-01 3.468294341848526807e-01 -7.042772318527267261e-01
3.773819040830723726e-01 5.872102813930722004e-02 -1.607295955445515456e-01
-4.196201105259984021e-01 -1.885547179623076608e-01 -9.968186358974942193e-03
-6.558683599399960373e-01 3.947362039324571747e-01 3.370053470235838677e-01
-1.886696618698952832e-01 -6.428681215601428356e-01 -7.031653431323452441e-01
4.246851485385184088e-01 3.371460841547341825e-01 -6.610964795478014855e-01
-6.753272402092437565e-02 -9.843473955012997934e-01 -2.395975614276189825e-01
-8.036293344389706661e-01 -6.202175159625956669e-01 -5.454733560653520635e-02
-2.614190223501139387e-01 -2.608650092348261951e-01 1.082018601406889713e-01
-2.848597206882401145e-01 -9.779781311999861115e-01 -3.665984748738535526e-01
-2.082513944386726532e-02 -4.624823094385663858e-01 -3.345642599225480407e-02
-7.149655927937339506e-01 -4.309579834418927891e-01 -1.714922099363358488e-01
-4.400075513351951462e-01 7.321705488055125777e-01 4.581233530497874074e-01
-2.664450100529891508e-01 7.050994054977954839e-01 7.790208037313488543e-01
6.407439431058183088e-02 -1.556795431766316018e-01 -5.932041590073555692e-01
-2.195606971459573842e-01 -5.974723795211427380e-01 -6.839759295713900844e-01
-7.801743356812499419e-01 -1.168968620747314474e-01 7.310291961971733254e-01
-6.898143522530739702e-01 -7.949779155858845980e-01 2.089433978059999364e-01
-2.498322230805032906e-01 6.574413466915211002e-01 1.730013420497265864e-01
-4.474625537810562603e-01 5.804363548858400002e-01 2.787987957315514187e-01
2.648702301813568027e-01 1.811008160341362472e-01 -5.649587235474954339e-01
6.890716182117416766e-01 4.510302536242732918e-01 2.248780523538673470e-01
-4.250464320506797677e-01 7.459668542856443541e-01 5.766386748372664961e-01
7.792255950184125979e-01 2.039099636714671038e-01 -2.231379218865334538e-02
-6.682533862076940334e-01 -3.398283698430739231e-03 1.132125792566363448e-01
-3.506286490865488381e-01 -7.841123060123734723e-01 2.817694405290213089e-01
-8.073938616351350461e-01 -6.507126207187591271e-01 3.014204251838561999e-01
8.492604530099255589e-02 4.590192748767990549e-01 7.553732399226386063e-01
-2.254891510193405835e-01 -9.333481753189870611e-01 -4.982066395944073633e-01
4.307103618211071128e-01 9.797304975360970891e-01 1.257116727069168549e-01
8.155914497396317131e-01 3.112103579619838745e-01 1.254022913833028816e-02
-1.405976227306472981e-01 -5.562393069124595968e-01 -7.308675411949827616e-01
-1.507948471786586114e-02 7.687471335877807954e-01 7.433968163571226251e-01
9.771074983308122852e-02 4.221888966319414793e-01 1.734982828210577394e-02
-1.127749184384206071e-01 -3.966849181599688690e-01 -1.156054092092362318e-02
2.572242847485711748e-01 3.700575554123308186e-01 -3.748385145667983975e-01
-5.197567217967549169e-01 2.774490082285970827e-01 2.097597418347741660e-01
8.723119353174659807e-01 5.780195072111062871e-01 -7.010833410861083692e-02
-1.131408410847806190e-02 5.466210045406576512e-01 2.226251491678788233e-02
2.360065804336644868e-01 -7.492467360248714625e-01 -7.506575778362474249e-01
-8.245413612775809309e-01 2.323822926652326093e-01 4.829288036690670416e-01
-8.810516526949119243e-01 1.083006075533858754e-02 5.904572283209762462e-01
4.230744754745581759e-01 -2.574436102085256306e-01 -1.985316438256903571e-01
-7.143987579476570593e-01 2.477637043538450379e-01 7.725133908936628879e-01
2.287627944010461323e-01 5.086666571948034177e-01 -2.942701958629007075e-01
3.632774236535354917e-01 9.558172892237695173e-01 3.750575873710745856e-01
7.400880887577823697e-02 5.176809862203797241e-01 -4.547704260176926860e-02
-2.774656267185126590e-01 -5.238100524208997300e-01 -6.227767194474483903e-01
7.953020515849660299e-01 -3.028354611120289697e-01 -4.463995446719398741e-01
-6.787563618338965377e-01 -5.611248417269346644e-01 5.399641743909672220e-01
2.231112661171709421e-01 3.378439730902187410e-01 -1.144226132709289107e-01
-5.860699145502222818e-01 5.728807572041854090e-01 6.569222300132997461e-01
2.723406070174450022e-02 -5.508755328223269299e-01 -1.897484917530437368e-02
2.905660939306086710e-01 1.571446112645221993e-01 -2.297982461826641731e-01
1.552705012161740006e-01 -1.035156025513787326e-01 -3.890760414582131732e-01
2.378500274322107033e-01 3.106625775732261840e-01 3.150248523243793231e-01
2.640149619781054779e-01 1.191581444080960922e-01 -3.104839898815056065e-01
4.673691434376274489e-02 5.668492866223208138e-01 -3.943741313701484841e-02
2.572051972683774834e-01 5.551180795912483701e-01 -3.314824559521560854e-01
1.892995144226780058e-01 6.906620943890794118e-03 -4.612953548702912743e-01
-9.845073448678920425e-02 -4.095141045956519066e-01 -1.099971571699813640e-02
-8.219224441088514022e-01 -6.301376272302698922e-01 3.062419789619464372e-01
-6.751628062328627333e-01 4.452628713566448848e-01 4.170818815760624076e-01
-3.160489520181597456e-01 2.894242871012553953e-01 2.053095328421251642e-01
3.293914215276599333e-01 7.151979662175778074e-01 -3.189256563969614100e-01
-6.882806456558177022e-01 -5.747348323420994332e-01 5.233994439297268153e-01
6.498972207432714976e-01 -4.227300814487053859e-01 -3.365299568371833971e-01
-6.732498948748921741e-02 -2.555704748719161423e-01 -4.704888289584149841e-01
-2.205251295169545767e-01 -3.539592571329758242e-01 2.775909448303436333e-01
-2.066395313942107348e-01 6.760042101046643825e-01 1.483300477210365009e-01
2.798341448259384912e-01 6.810012925355583835e-02 -7.140100570710061767e-01
-5.478163935090708120e-02 1.450445911856758918e-01 5.378854957344260113e-01
-6.352556492021956824e-01 1.594802181835426602e-01 1.928026006047290908e-01
1.859505085521514778e-01 3.738174930280538932e-01 -6.215957601768312690e-02
-7.676731832545545808e-01 -6.835032512742816868e-01 3.190805340984387839e-01
9.267991112263070097e-02 2.931292529284481030e-01 2.904711953770420241e-01
2.360183185705443110e-02 5.286604892659952926e-01 8.022917592596452430e-01
-5.831194675279082612e-02 9.563860346391649392e-01 4.137165294678857297e-01
5.315506837698219522e-01 9.437174172826017227e-01 6.487383878071956156e-02
2.147884231942601696e-01 -1.318588859939147651e-01 -3.006757705576528772e-01
7.821923240061084970e-01 1.796168287996619539e-01 -4.176270187132905681e-02
5.478058526815338114e-01 4.678731562096350993e-01 -6.258441163166367227e-01
-8.008690001856486607e-01 -5.231183042518470216e-01 4.868826286548068594e-01
-2.860060865324462465e-01 -3.562237385966955383e-01 -4.330592368580059581e-01
8.170300244347987739e-01 1.555837435197361118e-01 -8.860055241894866651e-02
1.637319198684794308e-01 -8.136000586381161304e-01 -1.727875814999357829e-01
-3.518530772494665171e-01 -3.462315412696611583e-01 6.051835404536001217e-01
-1.266690662699308800e-01 6.478182314182218127e-01 8.224635071666235309e-01
-1.622323906477577682e-01 1.907897032778372443e-03 5.678730136473647550e-01
-2.626470264250031772e-02 6.861140240095727760e-01 1.350961029756965470e-02
-7.453074958732076594e-01 2.152004930290536688e-01 7.506773113240746698e-01
-7.631647460578535602e-01 2.376882758708274979e-01 7.168727583618349497e-01
-7.747815660884056488e-01 -2.925900915399787805e-01 6.723499396537275796e-01
9.073704962209400149e-02 -3.928270177225468007e-01 -1.526387004756562527e-01
-4.663771524242875111e-01 -6.529782212994877932e-01 4.595083633546681035e-01
-3.723489249200812035e-01 -2.438843330187392411e-01 -7.350620156614878775e-02
5.948349831779817798e-01 5.960479689046461749e-01 -5.294880731437713317e-01
4.323092387275575543e-01 -4.462016978046514093e-01 -2.170427274503182458e-01
-6.854461612627321676e-01 -4.138986290610169871e-01 6.505782155400249289e-01
-1.079872065812946813e-01 -3.343290078437743396e-01 -6.297929959317450921e-01
5.166818187737735046e-01 8.980414985754142654e-02 -5.482220831562611973e-02
1.324836893862549325e-01 -7.770963897357410222e-01 -1.182743591624339646e-01
9.300235487861218120e-01 3.980321850479612289e-01 -3.802381447300022810e-01
-2.699037404068987955e-01 -2.109095489320121815e-03 2.725454069070946672e-01
-5.337244278647285123e-01 -8.372593422951956077e-01 2.489631712623852355e-01
-4.557070906109559477e-02 -9.773304908853385209e-01 -2.361897236322861859e-01
-5.127816478970915748e-01 6.744421659205049879e-01 5.459561516765965017e-01
8.383239389847166323e-02 -1.799171956008012996e-01 -3.852644510639897657e-01
-5.928129147138117006e-01 -5.111430769350877590e-01 5.988819850305302506e-01
2.555599241230449015e-01 -2.520254619330245527e-01 -8.687797506701707695e-01
-1.589880710592003477e-01 3.093473080158148925e-01 2.169604807915697098e-01
6.107628294566697091e-01 6.206404392431418282e-01 3.649950735568459059e-01
-8.959997158210929180e-02 2.495749624581288795e-01 7.816120092799678787e-01
2.516422895735935250e-01 -2.102090861479576356e-01 -2.433751713727034527e-01
6.271756577020543011e-01 -1.210330840706718009e-01 -1.681678153814245014e-01
-7.299807625821904677e-01 -4.613064681015209834e-01 -1.693932832783069109e-01
-5.122374274641506853e-01 -8.738864993475371490e-01 1.881111701076620957e-01
-4.714205128108396869e-01 -6.644166847061446779e-01 4.508794550642434285e-01
-2.003691763377789259e-01 -3.137493898347537002e-01 -1.401076845632097390e-01
8.908053079707783928e-01 5.658498248128899233e-01 -1.635542162943634803e-01
5.293718972530683797e-02 5.367954884016419292e-01 7.883987111753779642e-01
-4.732551009941338149e-02 9.518381369942784387e-01 2.975750787283619747e-01
-3.186101121287479576e-01 -8.899115054527197977e-01 -4.983290069731043381e-01
-1.518323813537163780e-01 3.812118271345853876e-02 4.583341587718356980e-01
1.429842164954107410e-02 -4.210661088928766560e-01 -9.779504998981132513e-02
4.147910259128471111e-01 1.844604362843314249e-01 -1.209761713219572113e-02
-8.444056878817692846e-01 -2.622632672124807218e-01 6.193253329755379344e-01
-7.061758323043483554e-02 1.339139337699689902e-01 6.010677722007408130e-01
-5.805971644662991649e-01 -5.665385851835137432e-01 -3.692660266705328209e-01
-5.285111461473268601e-01 -4.827667586879930139e-01 6.144358104782835506e-01
8.714475240243317877e-01 1.788882985595993125e-01 -1.379671524346376410e-01
5.223368326099400161e-01 8.686292340599499617e-01 3.460168149805011306e-01
8.805002810731036300e-01 3.953227513597011855e-01 -4.920406267392514466e-02
-4.837720191727729047e-02 -7.799758939193518481e-01 -7.162388350016913874e-01
-8.412036337426481714e-01 -3.268083687524572234e-01 3.393088347021386980e-02
-3.230412895780006011e-01 -2.576452153726309091e-01 6.351978470157234602e-01
1.386416866693814809e-01 -3.918962071771768807e-01 -1.635140197182133603e-01
1.083101575961675916e-01 -5.425873084844534677e-01 -8.431457801028620080e-01
2.187394693978826909e-01 3.434802351508655094e-01 -1.095420509774287371e-01
-1.328393524170131713e-02 2.132366580938436229e-01 6.475537338095170847e-01
7.671052659244695926e-01 5.537300577876186347e-01 -5.048210213296338011e-01
-3.861352655938628531e-01 3.663747978688350893e-01 2.026981391133392540e-01
2.757639666097524977e-01 -4.622652627611011367e-01 -8.828154549402549289e-01
-6.716081528185549043e-01 -2.402315371411566647e-01 -6.484681813064036016e-02
-7.870653336762089003e-01 -4.410161282319611797e-01 -9.016976908329088491e-02
9.133865405618967204e-01 4.683017181664530515e-01 -3.530457001908592352e-01
6.095716658624786843e-01 6.932931466677578758e-01 -4.321731988805743163e-01
-7.719307078574098036e-01 -3.668322662479204799e-01 6.339658381675888910e-01
2.743914593184946238e-01 5.976700991033743193e-01 6.576848571326782134e-01
5.634501282043694603e-01 2.508860439383907570e-01 1.178085746165387776e-01
-5.658625242673326339e-01 6.097577129075858471e-01 4.724611973816532640e-01
2.544280781899028177e-01 5.380460656701805400e-01 6.593047240960273614e-01
2.523200279042318028e-01 3.024191700260526194e-01 9.227849437285232104e-03
-7.419129776367849871e-01 -4.437034286392323446e-01 -1.479726773574691900e-01
-6.520256222414390068e-01 -3.395956960565779115e-01 -1.627034192273196234e-01
3.770038640976483002e-01 -6.733114696587928494e-01 -2.637407817164676982e-01
-3.247399956556708545e-01 2.918689449639470107e-02 2.191604770487282916e-01
2.319628700118994691e-01 4.932746913072841299e-01 6.589744620625369587e-01
4.041807561143719862e-01 4.005245171857970687e-01 4.141094363372603837e-01
-2.687972160739163785e-01 7.840503186972003213e-01 2.663458191933653629e-01
3.109744947123492809e-01 1.876531897325476872e-01 -1.537844611548059848e-01
4.047455423546895276e-02 -6.104797229664934433e-01 -8.118010917211695432e-01
4.898358067442329378e-01 2.680774649007832688e-01 1.494462035278656120e-01
-1.951986617673009405e-01 7.602273197607978261e-01 1.758152751451606821e-01
2.932453290033198989e-01 1.957527919869815614e-01 -1.873023510048594242e-01
1.422430842271938389e-01 -9.201878958520690044e-02 -4.282749749661189931e-01
-2.365207926681368866e-01 -3.666693709748458097e-01 3.579801813623914586e-01
2.818636603534896423e-01 2.854982408079645428e-01 3.877547806222390869e-02
1.578794150934978990e-01 4.509280192983543545e-01 6.975048315400457222e-01
-6.901694935694621114e-01 -4.752202159776260371e-01 -2.197096342519030965e-01
-2.872160532106503988e-02 -5.795004909476094701e-01 4.288227408818870434e-02
9.477142980062938094e-01 2.396606517728692154e-01 -3.052786779800907291e-01
-8.838756163467553773e-01 -3.834134785359982200e-01 4.856833750686530005e-01
-2.594150633290050884e-02 -6.484862031080480538e-01 -7.805863875994870638e-01
-3.435360325090927591e-02 7.874081603147777830e-01 7.325946587662429677e-01
3.253020362638912588e-01 -1.667164480631715962e-01 -2.236430706505305455e-01
-9.588568037294437074e-03 -2.325518527288847337e-01 -4.042021040578054336e-01
3.507521310204466114e-01 1.738605501566699990e-02 -2.009209360668998412e-01
-1.966535740471183347e-01 -3.681879897480277997e-01 1.652337122596794494e-01
-3.472237045268893318e-01 5.441683136896389161e-01 2.050544244842834596e-01
3.405649232469223353e-01 2.857641615103060917e-01 1.559728685431646111e-01
-2.479873835203756649e-01 -2.895129224360859510e-01 2.792273360245253744e-02
-5.116496520765125011e-02 4.903843082338369408e-01 8.333767330331425249e-01
-2.335307592147275457e-01 8.443820023792778517e-01 6.177121274846034682e-01
-2.135459670692420597e-01 -3.105223618842501421e-01 -3.510006352839754040e-01
-8.126760923587547092e-01 -3.596628007665552129e-01 6.032227830403095181e-01
3.510792321236664848e-01 2.354215032445222400e-01 9.223640098153046418e-03
-4.625308540553207948e-01 -2.950446847359785088e-02 1.108499297165475156e-01
-5.946523631617255390e-01 -4.276570406003589175e-01 6.585912631807224749e-01
-3.012900900599816967e-01 -9.960871389892080874e-01 -2.697285411707419645e-01
-1.991894721533168378e-01 6.502757336971802804e-01 1.376949598648066764e-01
-8.794058805087705266e-02 -3.259363454828632101e-01 -6.443581120460343259e-01
4.715504879354922574e-01 3.961706951552889655e-01 3.544064200795796205e-01
4.653964887785688176e-01 -4.630676069503046333e-01 -2.339190818350557477e-01
-4.891984166552669211e-01 -4.351336093156059071e-01 -3.724111605147578663e-01
-5.173264884416819420e-01 -5.535295116416277805e-01 -4.262778847792928483e-01
-5.788730872513955239e-01 -8.077188669857672254e-01 2.831410925553736746e-01
-5.236516668006111451e-03 2.148799431199595045e-01 6.335883850975080334e-01
2.396626158484277958e-01 -4.169489173276798577e-01 -1.707335986678819584e-01
-5.961386199549209008e-01 5.472914832787187933e-01 6.825855509291314238e-01
7.241844676886076693e-01 3.763425655617934074e-01 1.451876156882836444e-01
1.106151461275302200e-01 9.607117039091849220e-01 4.936117706026239005e-01
1.734066141154171348e-01 9.798451436798086833e-01 4.321591670968943921e-01
2.542315027275127703e-01 9.939913926771019037e-01 3.482401888348214958e-01
-4.464163649496638020e-01 -2.602887139672638295e-01 -1.370352486099184197e-01
5.779607287606580712e-01 7.075288806013078080e-01 -4.202040689184605715e-01
5.280583629494475240e-01 9.089500825309896337e-01 2.704963831425648557e-01
-2.463020540064056740e-01 -2.767192462846248535e-01 1.337903643750270599e-01
2.147574806266330794e-01 -6.477307874024375023e-01 -8.235302658743192117e-01
2.496754030023147219e-01 6.713834933806216432e-01 6.734530083413472479e-01
-8.608156941752838354e-02 2.274110186428257296e-01 3.084343737259777618e-01
-7.952451329976454319e-01 2.148894771209657606e-01 3.604120362554074086e-01
-1.269597078756415920e-01 7.948686743179266267e-01 7.267953013648088545e-01
4.773025028767002853e-01 2.242313012897176605e-01 8.017322294734406662e-02
9.022270782403503386e-02 9.911157332015128052e-01 2.639623591978338957e-01
5.655345644542621869e-02 -2.647000991932364489e-01 -7.478137121807917342e-01
-6.112453877418382309e-01 5.697275071287598580e-01 5.642938378935976607e-01
-8.640632056770056746e-01 -4.989419284671011146e-01 4.611349787957273044e-02
-3.218500201060587318e-01 -2.425044948323560809e-02 7.953678447360095216e-01
-7.506076410432934720e-01 -4.481494973029360729e-01 -1.395803200958682933e-01
-2.463391747932950904e-01 -2.620369617708468435e-01 1.943316424581073842e-01
-7.174976766381235826e-01 4.078390950294807360e-01 4.563895634967524151e-01
-4.054291999732261703e-02 2.380627090759044051e-01 3.250034593160296970e-01
5.234905249965845497e-01 -2.361803754757586526e-01 -1.966080549864577531e-01
4.750251449057489861e-01 5.746514187386821959e-01 4.878755537843460499e-01
1.118729306193839562e-01 -4.449412236351402705e-01 -1.245175206648480720e-01
9.465721593017576430e-01 3.418215834052031887e-01 -3.129847314674403802e-01
2.919712765633717400e-01 -8.280168968504797444e-01 -3.450978757962376853e-01
5.530244755761485331e-01 1.725879037707057917e-01 -7.959080439087558023e-01
-1.241698229135847209e-01 -5.431227291971784110e-01 1.486690616451495361e-01
2.062765730684231469e-01 -7.855086654877888597e-01 -7.222253064521336752e-01
4.941324420095680736e-01 2.602424722276585056e-01 -7.419364923729686589e-01
-3.848592866151636649e-01 -6.861117672765484898e-02 1.352722449537353822e-01
2.502289530320815913e-01 2.840403976770395356e-01 -2.606503143262737798e-01
-2.419051379949812841e-01 -2.508138350354113810e-01 2.630898319445095224e-01
-1.856082177182087345e-01 1.508942160429717072e-01 3.025225892587817267e-01
-6.104743747954359812e-01 -4.048790679009886539e-01 6.725940567154484739e-01
-8.887936025109892668e-01 7.324150021815640198e-03 3.494139625416323724e-01
-2.367491722209755511e-01 -7.938739215667287574e-01 1.952713049343098861e-01
8.271016338959443770e-01 4.105870528397677632e-01 -5.708522257889048213e-01
-3.180842901483934004e-01 4.437881578271556104e-02 8.282035514236736340e-01
2.449326821609034421e-01 3.418579750416567142e-01 4.655976912066836504e-01
-2.256999892146383524e-01 -8.514257880568062431e-01 1.323850548554052764e-01
5.070542701401229424e-01 -3.040933771592746471e-01 -2.103919692466144353e-01
5.887619443288141241e-01 7.437881016223267527e-02 -8.310660597294586838e-01
2.581448198644206715e-01 3.207541494609000288e-01 -3.901261574066847704e-01
-2.703618620712366916e-01 -1.953280282358483555e-01 2.077364856869622078e-01
7.553774559919110843e-01 5.906757466899588138e-01 1.830544485944798072e-01
9.360533918878717330e-01 8.325472946470266478e-02 -4.668066100836223975e-01
5.274097979485873333e-01 1.702792218078586495e-01 2.353685778956100122e-02
-9.049708386774717450e-01 -1.407828386552738842e-01 2.593069076442459653e-01
-7.621996346834669644e-01 2.623483775266117757e-01 3.538008845386461654e-01
-3.545746637186182326e-01 -9.914182104694633235e-01 -2.077720360919641795e-01
2.589667652931890718e-01 5.963550767982592760e-01 -3.187103090040442344e-01
-9.585049407401208255e-02 1.612612480011025307e-01 3.808341097658872187e-01
2.801243237063736902e-01 3.379297798008386033e-01 -4.611776176109637637e-01
2.892507454979486026e-01 -4.211045113297450793e-01 -8.887740464637774451e-01
-2.461782428307668635e-01 -1.807996394107892479e-01 3.064393892215135917e-01
-6.477263280341645224e-01 -8.653370593060154548e-01 2.008651657088765530e-03
-2.029394013449205558e-01 -9.067432287127535906e-01 -5.468767145773004712e-01
-7.490664677309272212e-01 -6.510483604326261498e-01 3.947706297601930592e-01
4.061927879085024395e-01 4.907533047454074038e-01 5.059912483408331996e-01
-1.617357085714506981e-01 7.019121114213602297e-01 1.229178426776324634e-01
-8.046473356449517222e-01 -5.893897728837030892e-01 -6.754622936930913812e-02
2.272607809207691509e-01 -6.265472604615129892e-01 -1.413810697592066123e-01
8.551632431121930500e-01 -7.473735385948807042e-02 -3.022705105234501088e-01
-4.373694843683246791e-01 -4.796406510835848208e-02 1.121722714708875412e-01
3.452347386957893005e-01 3.580418917494708198e-01 3.905711692662882095e-01
-4.743052890726411341e-01 -5.283432946111103062e-02 9.141848769971026856e-02
2.170625563998899721e-01 -7.259282550109211751e-01 -1.620016020865565898e-01
5.909368543725902478e-01 9.115627690686149975e-01 1.030106698305706808e-01
6.233623992813056569e-01 -2.253153026663747560e-01 -2.132861052383013822e-01
5.685652435275473371e-01 -4.512865801372353824e-01 -8.126565571500096175e-01
-7.212872064098941882e-01 -4.897342931948285571e-02 1.044561574958006167e-01
-7.795052611194743797e-01 -3.587337020322696191e-01 -6.238730574542038915e-02
-7.003246267208707021e-01 -7.359704412449418198e-01 -1.858247353330650942e-01
5.975055560061403453e-02 2.912488226963376725e-01 6.548470165083686290e-01
8.265739131057352196e-02 -9.424498861776458014e-01 -3.000633628722477186e-01
4.151840938708825646e-01 9.171788644983316918e-02 -1.079126502887345906e-01
7.455419818993170855e-01 2.476342237440848637e-01 3.486335872415324832e-02
2.869758232158157729e-01 3.439695464006865544e-01 4.151139506422448222e-01
-6.767943858640517174e-01 -8.362335789027730559e-01 -5.390497857154395028e-02
5.669763824695088772e-01 2.763341435452261741e-01 1.477244984850200615e-01
-8.086536939306140370e-01 2.181875816255804679e-01 6.433806749579057405e-01
-1.948918500704721890e-01 -3.108480396899157561e-01 -1.867245753977889999e-01
2.949157281706734079e-01 -8.124479361917299469e-01 -3.192739804077369126e-01
1.609549659948723566e-01 -2.872688085955415332e-02 -5.728184942977569971e-01
1.031864399119408887e-01 -6.725676376265241618e-01 -6.066019749509086317e-02
-8.810674026254026181e-01 -2.749305714645719489e-01 1.262336201158497095e-01
8.382212940529294443e-01 -2.229172618155489671e-01 -5.881016082750823992e-01
-9.881883210877032142e-02 9.361630322141295535e-01 4.775596562475078466e-01
-3.317632475248940005e-01 -1.012156198446352157e-01 1.693129852431266569e-01
6.255835982929720540e-01 -5.433518406150457114e-01 -6.576038090101148370e-01
-1.147611751916260553e-01 2.159721325628842226e-01 3.023076047729760796e-01
1.671243042596890771e-01 -3.648164181270863171e-01 -1.829108337441255061e-01
3.153806374296923010e-01 -5.971719007629089360e-01 -1.889789422390865392e-01
8.199609704899352147e-02 -1.722772811165312890e-01 -6.800328069836426570e-01
1.681874922273570439e-01 5.852319581210166932e-01 -1.954976504224722744e-01
6.092264552964652413e-01 1.045429737085867145e-02 -9.669772153847062957e-02
-6.649950000414578399e-01 3.979177612662129215e-01 3.498954390527547753e-01
-5.241432600306750178e-01 2.028807024490410504e-01 8.843207773733956500e-01
-5.061636626506120784e-01 6.235633231438345581e-01 7.060190624424854677e-01
-3.586476508999125734e-01 7.606085960271730118e-01 3.499960313606804152e-01
-9.501390178961965916e-02 8.022443406779184993e-01 1.152305683088875876e-01
-3.070486941402043590e-01 -1.787014715249291008e-01 1.397833998086180918e-01
-6.012356777900607074e-01 1.453555740675482322e-01 8.610645748063735505e-01
