9.720453540447521190e-01 -6.431942981959994088e-02 -1.442689815554047406e-01
-9.201863234090578159e-01 -3.978717351509589856e-02 1.297234184471058316e-01
7.243242452608921189e-01 -3.326401291862594034e-01 -4.842479572519708952e-01
-6.634843591644028482e-01 -5.226162729680697838e-01 -4.890035132665777051e-01
8.897215300074952093e-01 -1.873526523009018951e-01 -2.642929084347956370e-01
-9.607341854829308803e-01 -1.509421102121596414e-01 -1.846010000351528541e-02
8.719992415378918782e-02 -6.762592663235615920e-01 -6.830710795758607734e-01
5.494481770828990586e-01 5.576895131009034223e-01 5.802479982775452516e-01
-4.801786880333378527e-01 -6.200984083703615646e-01 -5.516325396027131900e-01
4.025119687488229459e-01 6.243825715714229618e-01 6.535922322401259699e-01
-4.419134885974466687e-01 -6.353988920318542899e-01 -5.835789190028171092e-01
3.646447501161798749e-02 -6.077776294413147484e-01 -6.984792997662423453e-01
-5.655816637712272055e-01 4.790802287930696068e-01 5.452209584761773531e-01
-3.661710968117262710e-01 -5.779394564099663567e-01 -6.068222732556672883e-01
-3.938773073253850621e-01 6.032123711318665427e-01 6.646305795553625329e-01
5.457732396847402301e-01 5.803400285394804126e-01 5.050089663023056286e-01
8.935677701920131666e-01 3.684559417358681532e-01 2.571666098373875942e-01
7.625786796832354497e-01 4.145087975649252021e-01 4.004335645301568269e-01
-1.583269477122881408e-01 5.924313942449310755e-01 6.952080611126265630e-01
-9.533280344764373249e-01 -1.091128062480671221e-02 1.499941273327499158e-01
-9.478437991318813260e-01 -7.698681453098146776e-02 8.902560457653266313e-02
8.660679954463544883e-01 -1.612086072999614206e-01 -3.227779581984731583e-01
3.542157787395610602e-01 -5.537703773425759479e-01 -6.924871625972737199e-01
-1.405736956729625453e-01 -6.828919327159699293e-01 -6.902933858271358414e-01
-9.523285156620306946e-01 7.927659291083027915e-02 1.868450909757549405e-01
-8.348994528762299083e-01 2.874473909286826001e-01 4.221970666237732650e-01
-9.054581019848120249e-01 8.267385994669863847e-02 1.550880870877939799e-01
-7.340118223483791393e-01 3.514202160475913828e-01 5.169750346815625841e-01
3.785391422541604239e-02 -6.089985268565666354e-01 -7.053356335353015982e-01
1.453415271389782437e-01 -6.032662557237559176e-01 -7.187194331071405928e-01
-9.183670690532298453e-01 7.592749723465326561e-02 2.499571334798784961e-01
-1.657162743654075898e-01 6.375481315458167986e-01 6.585404492432044288e-01
-7.515210308987609888e-01 -4.264724119728542373e-01 -4.091645546312064341e-01
-9.407546436565564774e-01 7.974156927544100160e-02 2.321667193760938996e-01
-8.020058941121156471e-01 3.182224006051811993e-01 3.885145765256504680e-01
-6.862144756233571341e-01 -4.403776244813894514e-01 -4.327335793587568369e-01
-8.478149444753239061e-01 2.539107465030929212e-01 3.252856019888303862e-01
9.341439931671520203e-01 1.571561829772893937e-02 -1.487794660976313466e-01
-8.883819304653142734e-02 6.799140605436890805e-01 6.936465675020143662e-01
3.514294876007233864e-02 -6.123037696932427387e-01 -7.126538615138103827e-01
1.914196417962398811e-01 6.248192000270831326e-01 7.003399540724227768e-01
-9.617540350814083316e-01 -4.507764580565247481e-02 3.437595217213141457e-02
8.766059983911185238e-01 -2.003079301600276252e-01 -3.782228427792312941e-01
7.152442445271017801e-01 -3.981780228643209130e-01 -5.535252268509787132e-01
6.204227200483223431e-02 6.768240152017835909e-01 6.626682674419216434e-01
-3.862661856665979276e-01 -5.960872285873727305e-01 -6.400478316992630479e-01
-3.706785957376943497e-01 5.325144971224128332e-01 6.503048370160590119e-01
-7.982176037823267289e-02 6.291142119695014578e-01 7.344134298862149413e-01
-6.441470351938282102e-01 -4.856273272056719215e-01 -4.117385127157137670e-01
-9.602840555357912145e-01 -9.928925264468310696e-02 -2.017439200507558164e-02
-8.006543815744709969e-01 2.215127342402397614e-01 3.619504084153289392e-01
1.252856055583398687e-01 6.918047472713895196e-01 6.763992802079732414e-01
1.003416465010058684e-01 -6.628277652365619499e-01 -7.249584542420255406e-01
-9.515368576877313300e-01 -1.904857817159620881e-01 -6.074943863554396750e-02
-9.044193717169614066e-01 -1.614172044941580286e-01 -1.086830686526238793e-01
-7.327003939579266323e-01 3.034185523588465161e-01 4.576168207737815186e-01
8.848215841247080160e-01 2.463102863719097424e-01 1.410524206291268734e-01
-9.194867259735207687e-01 -2.460815579391208985e-01 -9.723891868478641565e-02
3.483184961748957975e-01 -5.534055586432433671e-01 -6.911646378994101836e-01
8.389468886825703908e-01 -2.010118074739543070e-01 -3.452353030085614227e-01
-6.222051942010657921e-01 4.234425912164967998e-01 5.113377461688446424e-01
-5.307662219592845787e-01 4.748611240018531521e-01 6.316680541920260961e-01
2.268583341854698843e-01 -6.147334344369225212e-01 -7.261642432021365723e-01
6.519769100440304666e-01 5.019212017669220094e-01 5.098077920136494523e-01
-8.555097695785558454e-01 -3.569849648175137391e-01 -2.209708663243485360e-01
3.484274382735597086e-01 -6.224482505320990677e-01 -6.617400887696578415e-01
9.329113798314562223e-01 -1.835152168328265387e-01 -2.728496049715847249e-01
9.327668372610377068e-01 1.525994801647470034e-01 9.442465735674365757e-02
-9.110902223134722533e-01 -1.222955769756622624e-01 -6.371668260358424873e-02
8.669946750997119533e-01 -2.570981144414651864e-01 -4.143727103019371749e-01
-3.779318746098921933e-01 -6.153462381639079881e-01 -6.482200403288235213e-01
7.828726981556278774e-01 -3.562005155273608170e-01 -5.017329545963281623e-01
-8.479934410043693527e-01 -2.528525440931768675e-01 -1.896598730140399147e-01
6.639659434685453165e-01 4.739898174341804493e-01 4.616263426769403044e-01
1.466382633690163362e-01 -6.058054175002870467e-01 -6.669705034515650555e-01
9.875998994120516183e-01 1.765400759316703219e-02 -6.309154673832559346e-02
-9.611075013307557313e-01 -1.570715876443459225e-01 -3.525227284799273969e-02
4.914632939101393760e-01 -5.185959669501505331e-01 -5.870980708646307278e-01
-3.675553838922521188e-01 -6.533637634646835002e-01 -6.268095361613251759e-01
-7.044096829335998455e-01 4.299411029097021664e-01 5.129598628491739420e-01
9.560710154704812336e-01 2.597746894892071223e-01 1.286501324833568272e-01
7.207533127362940606e-01 -3.445240494255402686e-01 -5.125814776037760367e-01
-2.867125939008722257e-01 -5.943709404864622181e-01 -6.365764842199076456e-01
5.765313452847523612e-01 -5.046237202969617863e-01 -5.592314052055246121e-01
-8.077608249334818913e-01 3.327782726743578889e-01 4.317000351104272049e-01
6.130143172017635811e-01 -4.240496928316369596e-01 -5.837012702606492187e-01
4.608533366092195105e-01 5.885511669921298372e-01 6.243082840385567600e-01
8.525274595734235739e-01 -2.490187450521195722e-01 -4.214697921986579887e-01
-2.887461697182081566e-01 -5.965956447719465983e-01 -6.513546351066257234e-01
-3.889313385309726145e-01 5.513614791189490605e-01 6.906490766132442616e-01
-9.085505414734943441e-01 -1.416234032927786157e-01 1.370338025615507049e-02
5.465435831151475021e-01 -5.218397300434760577e-01 -5.735758510700850188e-01
2.002223257433115300e-01 -6.590958472719766759e-01 -7.033409070598365398e-01
-8.381277580718484721e-01 -3.416589905090326451e-01 -2.044510399932421840e-01
-7.884117087271343971e-01 3.345203908053915320e-01 4.043068418941340725e-01
-6.486766335621125812e-01 3.793415879627236031e-01 5.335847420491278692e-01
-8.628064045728910392e-01 -2.602793841245474860e-01 -2.210131292800777691e-01
-8.949641713881325567e-01 -2.393903855387237087e-02 9.443109011102916728e-02
9.330340747058510908e-01 1.538954331613619775e-01 2.714378144584023828e-04
6.727807577264608430e-01 5.257872546254257484e-01 5.100281061102638347e-01
7.542118076476409527e-01 -3.441982159168091027e-01 -5.149227888852329071e-01
3.912524162892515589e-01 6.083936840366688248e-01 6.534673940865797226e-01
6.922464077427091800e-01 4.559116197978693719e-01 4.210281862754476356e-01
-1.795710653642756671e-01 -6.748317121852277500e-01 -6.430966330342309245e-01
5.685677318658296509e-01 -4.534082837128013965e-01 -6.110912698774001450e-01
9.937627294180377824e-01 1.406526252848979142e-01 2.237380967831707756e-02
-3.552833519802843787e-01 5.385906688805750520e-01 6.529804501687026530e-01
9.744461327283970853e-01 -3.591468516330979387e-04 -1.680176815696880210e-01
7.014314494800668598e-01 4.598629486902303110e-01 4.566868596701045280e-01
3.214206755396900594e-01 -5.763939527618259229e-01 -6.381997032471563580e-01
-7.978790462646704329e-01 -3.267586856120676120e-01 -2.656781290845688925e-01
8.440448251876737640e-01 4.224803087942937130e-01 3.045815552316206154e-01
-4.954952304564073096e-01 4.817898811773221879e-01 5.920114968218231910e-01
-4.455399307955439925e-01 5.468807754128873766e-01 5.988183176176617994e-01
6.259002444254407882e-01 5.065965009467247038e-01 4.577551536665568910e-01
-8.529899673301400975e-01 -2.932487669408193609e-01 -2.595785804847978162e-01
9.548483188169710756e-01 1.108401100577546677e-01 5.254503852703958783e-02
2.087764231078700350e-01 -6.398554513751157913e-01 -7.234421879453920567e-01
-8.166851255238467555e-01 -3.557734177466160830e-01 -2.275321288153690780e-01
-7.689962416643836285e-01 -4.398060837431031489e-01 -3.988403321092671150e-01
1.574893467568392602e-01 -6.439020962008497051e-01 -6.586866317918574909e-01
6.723594005380244543e-01 -3.981456869219638373e-01 -4.932681831583131671e-01
-7.694060085158280216e-02 -6.873266774561538339e-01 -6.804786103219717663e-01
-5.004752792495650304e-01 4.956415899027658556e-01 5.776166175673685954e-01
-6.489403946300497106e-01 -5.472458129281978501e-01 -4.631174143683576827e-01
-9.404613350386537007e-01 -1.212327080729509732e-01 4.412299676921172670e-02
-8.826089861085164578e-01 6.172915092997274811e-02 2.163627756497055188e-01
-9.409916012267615093e-01 1.127819798550183245e-01 2.347010803538302770e-01
5.525944968860444506e-01 -5.306214392715808970e-01 -6.340065560769126973e-01
-9.237067154169897876e-01 -2.481908899153207060e-01 -1.047151643174821650e-01
-7.231660996330719904e-01 -4.314085294962786143e-01 -3.376993512381286089e-01
-6.241335355191397483e-01 4.191200587252227883e-01 5.836337606171421166e-01
-1.378631240916990963e-01 -6.855599260768922010e-01 -6.692686050612114412e-01
3.778789254680323673e-01 6.565445083253010905e-01 6.001024413668817337e-01
8.866579553285002246e-01 2.348326405532487338e-01 1.541841511004162779e-01
-8.804937239991208475e-01 -1.735625309634669100e-01 -6.545833038185303043e-02
-4.010785954888931859e-02 -6.739516538313375937e-01 -7.177934967633132768e-01
9.297153065165553176e-01 -1.966972054707320783e-01 -3.024884106692022900e-01
-9.036514915936246783e-01 1.866055904161418033e-01 3.221293687088851443e-01
-2.069066797730935714e-01 -6.182418458418537099e-01 -6.312607524504932899e-01
4.856123933394805303e-01 -4.921117690122002175e-01 -6.380884655922720583e-01
-4.131529563552093220e-01 5.487079318730231359e-01 6.860424461933409823e-01
-4.421357202980283341e-02 -6.244829717991255968e-01 -6.602723271133540406e-01
4.581169443037167999e-01 -5.546038503334891345e-01 -6.023955098595668023e-01
-2.230636925516694402e-01 -6.299552876399294732e-01 -6.197505144061592475e-01
9.302554588177031070e-01 1.650321640894406028e-02 -7.271830925469527362e-02
7.717210956261401078e-01 3.918341914577840868e-01 3.403161018847805086e-01
7.543522430896412168e-01 -4.043380059480204403e-01 -4.829928691027451371e-01
-7.213716233403802969e-01 3.535209975041392338e-01 5.223733109322094004e-01
6.947618137310268560e-01 -3.970976423627280982e-01 -4.769514507637476752e-01
8.867726988346776862e-01 2.535853724681670363e-01 2.037421053898636203e-01
9.401625738781349551e-01 1.188234329578871651e-01 5.699991951711485400e-02
9.117120318428184600e-01 2.908603011011585138e-01 1.400967015247039371e-01
-9.372365854723180290e-01 -3.600505410458711836e-02 1.357449081883658204e-01
-8.945363559794849984e-01 7.932915633232319463e-02 2.545583220512055433e-01
7.064494253625425157e-01 -4.433617648762144259e-01 -5.193317307605858080e-01
-9.409820320746601352e-01 1.275468917679164864e-02 7.975468627222544182e-02
5.529480433857790755e-01 -5.289471973510961877e-01 -5.805023174828294330e-01
-3.968086106704262206e-01 5.743213726308299405e-01 6.915418350186283147e-01
5.160689008739580141e-02 6.171705098762519937e-01 6.894624207072553856e-01
-9.700661202678754202e-01 -6.481285080366230855e-02 6.698857749330588973e-02
5.827400829368464263e-01 -4.431792797269670792e-01 -6.007045225376070885e-01
3.461291354620985028e-01 6.685442572127888727e-01 6.214788748377997329e-01
1.952702393048151019e-01 -5.853854817712809133e-01 -6.857994598507737294e-01
-2.496333357527328045e-01 -6.180629569151602221e-01 -6.826852585696054909e-01
-8.279744499527361690e-01 2.924826174298978954e-01 4.313375348396985554e-01
-1.486102348957606123e-01 -6.731413369764992494e-01 -7.020589657690131657e-01
9.498803721288501256e-01 2.456412732289553480e-01 9.421128003870755940e-02
-4.251111028085291510e-01 5.762718255537417900e-01 6.165157210837109991e-01
-4.159333763011935359e-01 -5.805220239509804037e-01 -6.224407961673238399e-01
-5.363003868358698911e-01 -5.231535095354070686e-01 -5.069855425119902392e-01
-7.409754838315635306e-01 3.931919009996400205e-01 5.075941635766885174e-01
-3.649527381079197275e-01 5.444861998901801003e-01 6.853800489974435362e-01
4.362120934407290873e-01 6.507195791382243133e-01 6.049504206364012537e-01
4.502506554094786728e-01 6.227242723278837433e-01 6.328558630394116591e-01
9.853204037836303941e-01 8.360391408784108302e-02 -7.646317973339378238e-02
9.683591011733712062e-01 1.413735960915679934e-01 7.932226080061693940e-02
-4.650300515607762586e-01 5.413394997215301707e-01 5.926678444297474035e-01
3.453043248159823886e-01 5.960403911557968781e-01 6.429191987945784836e-01
-6.475597369861766373e-01 4.403087669218506139e-01 5.031331220248768110e-01
6.541699400534208841e-01 5.633694336031191963e-01 5.042626596552214346e-01
5.949232545646778725e-01 5.657725163331039919e-01 5.611347273847728800e-01
-4.195916321194144150e-01 -5.819710331151377591e-01 -5.531141054011383673e-01
4.872532061082281429e-01 6.054196753142812026e-01 6.179147526788952849e-01
4.611048672184050456e-01 -5.568623656787097254e-01 -6.762796236816243090e-01
7.337384486519642479e-01 4.242886180942835317e-01 3.889498051395348099e-01
9.630898517028949612e-01 1.518466681462780354e-01 9.263758434165815514e-02
2.641868276573667781e-02 6.756101673439407485e-01 7.270717949398203261e-01
-8.962648668366772764e-01 -6.600243619847294407e-02 4.524162279159180816e-02
8.734598019251694767e-01 2.739579705134206900e-01 1.657519129093280308e-01
2.150664345995176654e-02 -6.180815116462329284e-01 -6.690434949314665314e-01
8.799495924411970815e-01 -2.733162712725477617e-01 -3.814057954941481032e-01
-8.780529602189792726e-01 -2.165333035015271912e-01 -8.387184129500714624e-02
2.821427698907051917e-01 6.055693491149108931e-01 6.458267728195098423e-01
1.070315776353136239e-01 -6.001727372204268551e-01 -6.997282002038197612e-01
2.373839869585990248e-01 -6.141835642796942274e-01 -6.491417280053750627e-01
9.236574528985740384e-01 1.009668757914873316e-01 1.676188160469660026e-03
4.277364813422971368e-01 -5.506489505832959930e-01 -6.089671698072023354e-01
3.058830946035304699e-01 -5.588044506333120776e-01 -6.843787624746079379e-01
9.940736510007247562e-01 4.797161185149013268e-02 -4.095032051240554000e-02
9.349050405740259029e-01 2.495109982230071244e-01 1.951040251442040241e-01
-8.922392759460767708e-01 2.114425690327701168e-01 3.396420945976018624e-01
8.843090684467153073e-01 3.013744200805155704e-01 2.654010279658884919e-01
-9.346657926537569328e-01 6.993021896392229153e-02 1.409940099609896524e-01
5.933338194455718417e-01 5.435848898104703730e-01 4.732198971761916173e-01
-4.409971910394696604e-01 -5.789610037080626936e-01 -6.157312931900214004e-01
9.522403393753765544e-01 1.810846404349087113e-01 1.758093719353001974e-02
9.939961957170077023e-01 5.020736725711709425e-02 -9.644464969196078763e-02
7.346326227366026806e-01 5.018072034268649118e-01 3.890329963289680393e-01
-3.856269946914381852e-01 -5.973729856518164016e-01 -5.656534289961643314e-01
7.522939081595060307e-01 -3.526054415387676610e-01 -4.314823383596073092e-01
4.744633989613201708e-01 6.355698329176199257e-01 5.685210870166496067e-01
5.542150024334878688e-01 -5.292115737469758052e-01 -6.338778745348937482e-01
1.149075435457775629e-01 -6.435431179859394391e-01 -6.583068967291291207e-01
8.089006572042451992e-01 3.591710262482418758e-01 2.793057956275717957e-01
-2.374422704628340597e-01 -6.771804581810483281e-01 -6.615712446165288307e-01
9.955145353467505231e-02 -6.009772839384222021e-01 -6.976531614340742982e-01
-3.458629597962877694e-02 -6.844243332746765551e-01 -7.033230199458079257e-01
9.929253911248364650e-01 -1.928028848561169975e-02 -1.394645152972374680e-01
5.091707685029991381e-01 -4.779962005254126955e-01 -6.172804208665495507e-01
-6.641749070988999248e-01 4.376999300042020979e-01 4.990817064840082917e-01
6.530541470033542906e-01 5.666759890813547473e-01 4.908940201831274996e-01
-1.650478554737522807e-01 6.612991964862747762e-01 7.172704780764568300e-01
8.632929086809023600e-01 -2.710274649071668929e-01 -3.444251263323445111e-01
8.670704889557322437e-01 -2.617030927704525056e-01 -4.150483312578245876e-01
9.901847627342074132e-01 -2.792214572620003651e-02 -1.575999712574938927e-01
5.473284711978753103e-01 6.147067227266188594e-01 5.516018831534699185e-01
6.078569990598375883e-01 -4.972739953457833706e-01 -5.535667750545364418e-01
8.615330515448424986e-01 3.514849970853489158e-01 3.167240781043229036e-01
-8.796387385894653965e-01 -3.381959698608159037e-01 -2.508237101771845223e-01
-9.618722531651372476e-01 -9.098576879459874256e-02 -1.010635932507183109e-02
-6.960369364026349759e-01 3.639390940656651585e-01 5.339267920556430846e-01
-7.563013906114572915e-01 3.603188371072845175e-01 4.275244884629348929e-01
-5.004904827546302615e-01 -5.610898956854027952e-01 -5.880724868645754722e-01
1.635871649109493786e-02 6.887663308719045308e-01 6.853437790799891127e-01
1.182595755572426188e-01 6.526777503874390263e-01 7.249218523883833587e-01
-9.492540166176328675e-01 8.697848517386670697e-02 1.875409875170586937e-01
4.510491167299005011e-01 5.691052078239092760e-01 5.788600480577210661e-01
9.317082266582138450e-01 1.565020304930374306e-01 4.107504346978382327e-03
9.950446349575905458e-01 -3.742333012636443138e-03 -1.125042531705700427e-01
8.098521414734225488e-01 3.741163014730250480e-01 3.521110633704106485e-01
5.471022173387485310e-01 5.334674143042473782e-01 5.378869420807096402e-01
3.514055361872457373e-01 6.270170525123154315e-01 5.919362154690099853e-01
5.081336862168691626e-01 6.123288117046575829e-01 6.034477102020979755e-01
-7.282529440916003516e-01 -4.846458315789289872e-01 -3.718508582834381127e-01
5.823742963958544738e-01 5.245496503312727654e-01 4.925371860340080343e-01
-5.480928679729301090e-01 -5.642049404630083975e-01 -4.839247442325584347e-01
7.730880915434840128e-01 -3.876185698600011498e-01 -4.674508278960919916e-01
-7.912552493787833319e-01 3.481693610012711049e-01 4.580309415749130864e-01
9.524012776771377808e-01 2.654515524547388511e-02 -4.033996867606420844e-02
-4.547482928552769033e-01 5.374383000505139618e-01 6.738461921351215356e-01
7.852642491944440417e-01 3.783113259406553075e-01 3.341970314309909984e-01
-1.079177200192145136e-01 6.101897392072370696e-01 6.744575533521940391e-01
3.900969579381046715e-01 6.596857848044400674e-01 6.346913578621717900e-01
6.821885425653042567e-01 4.635282789309647655e-01 4.267492432015011494e-01
-9.284180420166450176e-01 4.285644415600620150e-02 1.098572727118960757e-01
-8.889149488629011220e-01 -3.251096815524910366e-01 -2.347241745859636186e-01
-2.159409347141247326e-01 -6.123792225210289430e-01 -6.341533742707401444e-01
-5.010604621841745487e-01 -5.705829692389530194e-01 -5.081853960291311534e-01
-9.115857100447641859e-01 -3.223510679631262643e-02 1.322863959000075418e-01
-8.689415108047392200e-02 -6.407492411319610781e-01 -6.464123634015515041e-01
8.053516525594157649e-01 3.673120011687225905e-01 2.808880408236207327e-01
-6.054997068056034992e-01 4.995401836646424232e-01 5.822347642773585408e-01
9.469819198834632523e-01 1.181649924446165068e-01 5.943795274254941308e-02
-9.680334251650347666e-01 -1.936400352066129302e-02 1.142405865075855204e-01
4.227985753451619089e-01 6.513971298975942403e-01 6.237600662699060994e-01
-1.203197376493296278e-01 6.634967536062384985e-01 7.262158015388653354e-01
9.057354254855310982e-01 -1.420664781504773766e-01 -3.214309952612158239e-01
5.475036465033775723e-01 5.837309880867832534e-01 5.880387132957722862e-01
9.208975202102870350e-01 1.305909706245517721e-01 4.267288590404721971e-02
-9.492909105289175642e-01 -1.780094636091651347e-02 5.056183201300962909e-02
8.204522118841082179e-01 -2.658974738451812536e-01 -3.551729098176207855e-01
-3.038604327273854988e-01 -6.625758080630319569e-01 -6.157532288818976518e-01
3.363655068353889610e-01 -5.483306685432584038e-01 -6.709809990059537599e-01
-8.381649739077271510e-01 -2.729336828429044792e-01 -1.801647300108918659e-01
9.875803348062054399e-01 -1.587463371814170493e-02 -1.039570631748297641e-01
4.917979099224721318e-01 -5.201306240233438682e-01 -5.868689205305471779e-01
-7.708263623322240132e-01 2.989377947285788983e-01 3.849980821413767629e-01
-2.858247096872347792e-01 -6.022703624138950884e-01 -6.621005850342361887e-01
6.037861981692021346e-02 -6.623747416895567897e-01 -6.626476869278000725e-01
4.375115966103823029e-01 -5.787822037974285072e-01 -6.773676724590947940e-01
8.050005867423176698e-01 -3.188964736985701043e-01 -3.909602581108143626e-01
9.103486461918292028e-01 -2.132488846394165471e-01 -3.553019067195921088e-01
-3.669410078635194222e-02 -6.231738115257222654e-01 -7.167612002432738327e-01
-8.502246966955335772e-01 -2.757717003749418638e-01 -2.377481235491722134e-01
-7.502960475939463025e-01 2.999539738681722967e-01 4.070446288446080696e-01
4.778591591778801884e-01 6.374807508548406831e-01 5.962678729318448001e-01
-5.488472441407994395e-01 4.888191067325879935e-01 6.355883699422293365e-01
-8.771036084414531864e-01 6.865070499336417553e-02 2.070555959067584550e-01
-7.164829518331758962e-01 3.327765838178968760e-01 5.027505512619977468e-01
5.605951145473043740e-01 -4.736218394382280539e-01 -6.310859347189259339e-01
-3.567312209997301475e-01 6.082048095513555852e-01 6.908927515620633120e-01
-6.537013675033467308e-01 3.750306069488852923e-01 5.283213892970969328e-01
-8.619037067498565019e-01 1.290854814338765200e-01 2.963854951302273277e-01
7.638377723035626454e-01 4.527839742797948874e-01 3.374041917351817688e-01
-3.289602313511008069e-01 -5.901709382635793588e-01 -6.060388924853651327e-01
-3.648396892451467033e-01 5.341846632593736377e-01 6.596990854880603328e-01
9.724235312335756110e-01 -3.671584541355536746e-02 -1.107806354918872832e-01
-7.665715135755809539e-01 3.080451907772737141e-01 4.804368892507240862e-01
2.891524080375473815e-01 -5.854574019421940889e-01 -6.443683930586281416e-01
-8.639562235576770943e-01 1.243445206316483725e-01 2.299873459694868061e-01
-9.341897068665961923e-01 1.093296894438046049e-02 7.629593016502247971e-02
-8.906352494591003310e-01 1.386975707853231599e-01 2.112892138626420446e-01
9.723093264100034494e-01 1.440580733785790657e-01 7.847764049661029584e-02
-6.055191523427837508e-01 -4.860785055636602792e-01 -4.813719820804658878e-01
4.776365606201614100e-01 5.604731906569920818e-01 5.842014541021511853e-01
5.869531917280460531e-01 -4.409044872788120406e-01 -5.563565185739182128e-01
9.452120234944936250e-01 2.756282756840369719e-01 1.896827980856657103e-01
-4.198480520249329162e-01 -6.053352659036157490e-01 -6.314724719289209753e-01
9.132857796920542670e-01 1.732875097726671032e-01 5.044718641319632935e-02
-4.977916000689132647e-01 -6.066528079461479539e-01 -5.858611505970798827e-01
-9.014934503646945263e-01 2.001773818299821817e-01 3.184626279937997073e-01
-7.458777646256389282e-01 2.900326121913024968e-01 4.464764181202094950e-01
8.660416686598906288e-01 2.749427999264733580e-01 1.934038069711704888e-01
-8.765116825211460849e-01 -2.110259639819846156e-01 -8.375247841446765984e-02
-8.473013815295752371e-01 2.214123207816791339e-01 2.958376777934331736e-01
-6.961935100009088995e-01 3.992192179338038827e-01 4.663808346040129726e-01
-5.876739147183844070e-04 -6.157653799235572878e-01 -7.124549877178181223e-01
-6.869654262426260205e-01 4.435253338225782493e-01 5.240193232855085981e-01
-1.317839213131493659e-01 -6.138807476112755346e-01 -6.610532665010157016e-01
4.291039051178824337e-01 5.906711907960995322e-01 6.330487779182245589e-01
-7.861427205412023778e-01 3.129327358288769845e-01 3.839100915169365580e-01
4.227567455834065346e-01 -5.569377149058546417e-01 -6.888234541361533125e-01
-4.615383654172992012e-01 -6.293217845218050943e-01 -5.780068275411025525e-01
-2.453819881001605974e-01 6.454129397146396441e-01 6.689651467980386457e-01
7.295996176004144740e-01 -3.296903930109527647e-01 -4.893482169068911203e-01
-9.656711739504235670e-01 -9.107422621712125965e-02 -1.917872415703566124e-03
-8.445300057422606699e-01 -3.284626153482521072e-01 -2.941232251809056675e-01
8.485094897860256946e-01 -1.866507858675858222e-01 -3.389356852724628166e-01
-9.177139190839787020e-01 -1.051274648290378144e-01 5.768409816995020978e-02
-3.532981578047633686e-01 -6.483752942230532890e-01 -5.925888789593281025e-01
8.785156190109272289e-01 2.816422984341691027e-01 1.574691962600336392e-01
-9.711319364412795974e-01 -7.438377254210606915e-02 4.888973182599684608e-02
9.477126367724344469e-01 2.778232489403063554e-01 1.480009521259924299e-01
-5.498157379626821273e-01 4.493969965248221787e-01 6.025209982671927422e-01
-7.631360586831745785e-01 2.745155474329306067e-01 3.996797575899892485e-01
9.255368640722716478e-01 -2.996480880563933552e-02 -1.198742033264150325e-01
-5.151483038764824718e-01 4.830626595149110081e-01 5.729100458530302920e-01
-8.997795202763095856e-01 -1.093376778298485175e-01 -3.390915234121861382e-02
4.164322162966172525e-01 -5.197041908721707903e-01 -6.515005175685841809e-01
-8.097877615661888129e-01 2.648208786097631662e-01 4.378379982245980129e-01
-2.251646320567284032e-01 -6.547788329724782974e-01 -6.206778809996786883e-01
8.562551068010524347e-01 4.113519025508001192e-01 3.209148825145682893e-01
5.513812537291573612e-01 -5.322464846359623580e-01 -6.334881880741948246e-01
7.543711845339641231e-01 4.349441347441337369e-01 3.385635837490981737e-01
8.277479912957965702e-01 3.845041010110568092e-01 2.577282413545835538e-01
5.204966297214357329e-01 6.107576768341804740e-01 5.956170522904101761e-01
9.818315677215306847e-01 1.438734348769402094e-01 6.659782307041031690e-02
-3.666364415222397311e-01 5.684894743861769184e-01 6.224400082967760373e-01
9.579429037679101366e-01 -1.034922968201154592e-01 -1.813443280692193516e-01
3.426797557508508563e-01 -5.490879035665532371e-01 -6.531173687190890975e-01
-2.832359980347999850e-01 6.305041569095986009e-01 7.065150112317757358e-01
6.256229183774612013e-01 4.981636481658030524e-01 4.704262995255316659e-01
6.009020670467836167e-01 5.087964221434025935e-01 4.990552486449692515e-01
-5.058077635437283615e-01 5.444178013381032466e-01 5.925500254835952552e-01
-5.611531032505278072e-01 -5.101821095929247596e-01 -5.181557240683256627e-01
6.278404082148817400e-01 -4.283021957840436045e-01 -5.229616639378982246e-01
3.578425520014238970e-01 -5.737754392580397544e-01 -6.280791116675111807e-01
-6.434336683874574137e-01 -5.118407720281030748e-01 -5.059977819849976743e-01
9.711907289481651606e-01 -1.016888053930738167e-01 -2.041247467848605890e-01
-9.478423574147675224e-01 6.806614828130547190e-02 2.139258334329439681e-01
8.028823850260052852e-01 -3.371652977285727326e-01 -4.070942278810936732e-01
9.530262762856855918e-02 6.456493207743412288e-01 6.532454667934044501e-01
7.862597345620609968e-01 4.717387495177851053e-01 4.057784562891427749e-01
-7.421582436162869056e-01 -3.895655856590401478e-01 -3.303681171902196900e-01
9.815294110639584124e-01 1.419903493339842449e-01 6.564638461445609918e-02
8.791297576575518580e-01 3.300828745793893404e-01 1.878824731533460801e-01
9.160688720463412427e-01 1.658909754997249242e-01 3.913926257161738642e-02
-8.296677498890970837e-01 -4.051512161077173158e-01 -3.096271469071366633e-01
-8.817749147138210786e-01 -1.891720080251975133e-01 -1.283117647083087121e-01
-8.270086330674996100e-01 -2.896359713574760963e-01 -2.374170154728282578e-01
-9.454618578488779290e-01 -1.706312072916239264e-01 -1.727739304805659543e-02
2.274999349285365680e-02 -6.531844073957703278e-01 -7.310367105414200539e-01
-2.825838688267475751e-01 5.881953034754749954e-01 7.156016394977339212e-01
8.360666623491610494e-01 3.246480744350389025e-01 2.809497536380196614e-01
9.179966116997656522e-01 -5.290751666893361155e-02 -1.487155568068379563e-01
6.224156451181248606e-01 -4.248759949861678487e-01 -5.297207549110216629e-01
-8.826469832426743212e-01 -2.078751409191666732e-01 -7.171938152370868624e-02
8.658590211275825066e-01 -2.710210689980135923e-01 -4.167026315445068740e-01
8.816496394768781331e-01 3.749537625888162973e-01 2.447966260287485762e-01
6.255168527396200995e-01 -4.109029658135210927e-01 -5.446647443627854468e-01
5.293136926345534121e-01 6.154904723268588285e-01 5.388893671913606020e-01
4.258638084205449426e-01 5.804159430894285654e-01 5.800990436523831839e-01
-7.424849802065959237e-01 -4.165503190901823083e-01 -3.167448775857880650e-01
8.016920389297731431e-01 -3.508165885945878082e-01 -4.813469310661085965e-01
8.643668479413175731e-01 -2.934146931852999463e-01 -3.891644900038329635e-01
8.011035476590225302e-02 -6.218042631285363164e-01 -7.280544422919728031e-01
-2.863532183918638882e-02 6.793256072831572734e-01 6.760657651222260478e-01
-6.846042350355611983e-02 6.464833589152684246e-01 7.373103250482290205e-01
4.680934179250276217e-01 6.088932645415160438e-01 6.267723240659920370e-01
-8.260480679272458326e-01 -3.635517910484609705e-01 -3.279311680444202404e-01
9.749530249120853531e-01 -9.283789884424734073e-02 -2.039394516353404130e-01
1.931877345089861586e-01 6.878013376241540744e-01 6.611061623218082994e-01
5.122036865440044578e-02 6.856596192351951391e-01 7.159633360417462233e-01
-6.624208275067001717e-01 4.106953658075011560e-01 5.707077851432664772e-01
-6.604674162821834171e-01 4.383322016333260351e-01 4.998082084839307049e-01
-4.548810519388178375e-01 -6.089507096114895601e-01 -5.394506946727589680e-01
-2.833111673035864087e-01 -6.678687849673734522e-01 -6.257023127293054321e-01
-3.081174077474708173e-01 5.564843933058651881e-01 6.591564040293707016e-01
-2.904638564797829559e-01 -6.486533990290961338e-01 -6.037307657254196158e-01
6.626210278649513619e-01 4.877841397489832698e-01 4.929552121731491932e-01
-9.463949685932276923e-01 -5.715335603593645758e-02 1.105675524033170182e-01
-9.711047644279119373e-01 -5.256197736307081231e-02 7.311927842175304504e-02
-2.653416423503937027e-01 5.717864790073414749e-01 6.629261295340805882e-01
7.346121366410212072e-01 -3.336942564730485117e-01 -4.487696477278633744e-01
7.751748572532544124e-01 -2.841262399042134845e-01 -4.192215903638124019e-01
-7.559178642042309049e-01 3.852112463623513783e-01 4.821557925185308568e-01
9.917774242136607743e-01 1.303482279137315770e-02 -1.325516572744147026e-01
4.414109375106370914e-01 6.484681399723788431e-01 6.099337194199355716e-01
-1.776029645020472947e-01 -6.477234131776362647e-01 -6.291127793835916693e-01
-5.664050307382210298e-02 -6.428747598387690720e-01 -6.498983576413446261e-01
-5.882166087738139454e-02 6.745720538831940782e-01 7.245912319194769413e-01
-6.778276282902705452e-01 -4.399776851815277445e-01 -4.073506700458022212e-01
2.685096336869874020e-02 -6.835134956266472051e-01 -7.000018362790424442e-01
8.875175294263389913e-01 3.759107547200925548e-01 2.622099999826849603e-01
-2.632002517279051212e-01 6.456711283577027949e-01 6.854901994462758719e-01
-7.823024509331680809e-01 -3.515634765521890581e-01 -3.192882624867756092e-01
-9.304170072034103622e-01 -2.214190007271926719e-01 -1.498180193986185238e-01
-9.497348903701946510e-01 -1.881970136940607774e-01 -9.702366603042694715e-02
8.970714212137370636e-01 -2.427384316071842518e-01 -3.283553844304933356e-01
9.769772922007689819e-02 6.848010420344440297e-01 6.657119899758499049e-01
-6.775346012048804045e-01 3.699158794701349895e-01 5.383299167294962606e-01
-8.873267913099736059e-01 -3.276583040925478696e-01 -2.020118331866607719e-01
-3.766955892656160820e-01 -5.887450277622509054e-01 -5.752220644211247791e-01
1.656184090982912860e-01 6.904370766684444494e-01 6.897428522133951523e-01
-4.799482697950557819e-01 -5.558189557360742050e-01 -5.881245430990003076e-01
-8.030145639170986893e-01 -3.580663292171050172e-01 -3.352137463039211451e-01
3.838735579328016456e-01 -6.117162298988668701e-01 -6.587262063340135754e-01
-9.063132291512240313e-01 -1.264621444178782791e-02 6.770895016449712811e-02
-6.398545151120362817e-01 4.531107727341682212e-01 5.879998043065024493e-01
7.242221716061260084e-01 -4.127156733352984608e-01 -5.460404667691681757e-01
4.420849482428699795e-01 -5.118802663506059059e-01 -6.543308963612689544e-01
-7.044586125878681271e-01 -4.803783494144256427e-01 -3.698478097772981976e-01
-6.348984870042805317e-01 4.804693297408296759e-01 5.666767091064736084e-01
-2.120770354986324935e-01 -6.098134406584847511e-01 -6.784025008507892363e-01
6.621223993964416854e-01 -4.467440350690777273e-01 -5.882930619873355527e-01
-2.596195944212341122e-01 5.829663994025600093e-01 6.532550837829661505e-01
-6.708299747487368458e-01 -5.128572785244227550e-01 -4.853741207500849031e-01
9.631418549439820787e-01 1.300087676999650554e-01 -3.792141211962805902e-02
8.435207529650829983e-01 -2.047985010771433412e-01 -3.216406461727760457e-01
9.233706147628175653e-01 9.589055864634918325e-02 -1.190779135058498556e-02
9.146363015423067955e-01 -9.400375056409955576e-02 -2.712592599279983752e-01
-3.310752089802520420e-02 6.535168910537909603e-01 7.367300468547079983e-01
5.056616471773871524e-01 5.681625201987705598e-01 5.990180017870585516e-01
-1.779757280696267763e-01 -6.276816423756091945e-01 -6.333383100009033484e-01
-8.826283062723488948e-01 -1.954395000719975073e-01 -6.443435236136944855e-02
-9.379713666692596208e-01 -4.648378037494574344e-02 1.533101041210651640e-02
1.315804070175100871e-01 6.190660505044752737e-01 6.737305792415975159e-01
7.924609304513284824e-01 -3.617229531043722468e-01 -4.883662680109387422e-01
6.664701245738107183e-01 5.434278842601639736e-01 4.417433339326509723e-01
9.291025779537467333e-01 9.895695426496728050e-03 -1.490448182699470048e-01
-8.423253739642035942e-01 2.907824065540032255e-01 3.836674871452451785e-01
-2.601013034489202402e-01 -6.329918922988587715e-01 -6.861428131244673434e-01
-5.926133736578773625e-01 -5.645627521785411274e-01 -4.725420669585724265e-01
8.536183755814390484e-01 4.151453607868489937e-01 3.207766960188481176e-01
9.736819180635604143e-01 1.846400679546127688e-01 3.232232341785381408e-02
-7.460438635489436976e-01 3.884456808920387916e-01 5.037366595116613555e-01
2.354066218994254334e-01 6.126147760785141116e-01 6.525856235905507230e-01
6.780126469516135623e-01 4.670531448084787041e-01 4.586528032579164638e-01
-8.673573505185148136e-01 9.785555596785300292e-02 2.275690982676829011e-01
9.029004465293989368e-01 -7.255394233783188374e-02 -2.188908951178318296e-01
-7.518337753333695916e-01 -4.175247254120371121e-01 -4.032103357566459434e-01
4.858245854301088684e-01 -4.901875536264600486e-01 -6.318565421664538162e-01
-8.899961293076434909e-01 -1.326708783622798093e-01 -4.136280688302859665e-02
-6.993875422601267822e-01 -4.490782104366247141e-01 -4.457079162895557500e-01
-4.157989006434010815e-01 5.155378495704340258e-01 6.311718432843976823e-01
7.980875477828855979e-01 -3.552492146188285793e-01 -4.281028032952385876e-01
-2.594365270957328384e-01 6.132385403714474270e-01 6.464768982986038859e-01
3.245456863347047638e-01 -6.131663920024306158e-01 -6.426918932544933849e-01
5.575311625289925965e-01 -5.218005006508125154e-01 -5.734734534598318056e-01
8.669095868847648267e-01 -1.701256862662052782e-01 -3.415827734353699685e-01
5.700448188119142667e-01 -4.565822327687341087e-01 -5.596291637876880110e-01
-8.834782528147565595e-01 4.660582509532883860e-02 1.704374505876444790e-01
-4.097765417714503422e-01 5.381505139888478340e-01 6.818834164502678430e-01
-9.310664145672565839e-01 -1.571413571646503721e-02 4.805553450935116933e-02
-3.747952752196263004e-01 5.563275054466956249e-01 6.943672742884191562e-01
2.545842542648861784e-01 6.845995488327184519e-01 6.580127821034584823e-01
5.320599106096521869e-01 5.406696232827160609e-01 5.556535675435559929e-01
6.714857830087603840e-01 4.701655693162676286e-01 4.370101048884693640e-01
6.109217833311688661e-01 5.305396443849300647e-01 5.435583614267414099e-01
-2.559960377823503053e-01 6.224582066985862028e-01 7.207721891328894293e-01
9.143089535750914543e-01 2.217870011688503895e-01 1.747784399808827160e-01
-1.853952384166316913e-01 6.637501720114944437e-01 6.903637125029865595e-01
8.922604303386650892e-01 -1.477191465597100795e-01 -3.265377157841070077e-01
8.395994818019091310e-01 3.919183588386812578e-01 3.534480199440826476e-01
-6.266559870337470306e-01 -4.755594074019114381e-01 -4.729373531990598289e-01
7.069016128019942613e-01 -3.591869723109023527e-01 -5.280180513183023727e-01
4.552234488649700150e-01 6.200808271356597068e-01 6.311276215331355077e-01
-8.813287134913656562e-01 -1.895626483104653481e-01 -6.435556004609029046e-02
1.919032552499966640e-02 6.706864622195062298e-01 6.635424290170096606e-01
-7.720559923739884756e-01 -4.131010082989902132e-01 -3.900085984981918052e-01
-8.797681267242904446e-02 6.148789635974944989e-01 7.253811472481974665e-01
-8.122983040635797236e-01 -3.108969443198889571e-01 -2.306017864026672082e-01
1.911620824843127953e-01 -6.598520553827431634e-01 -6.777804432816866287e-01
5.473073537397911137e-01 -5.183880542817699277e-01 -5.712179424155652274e-01
1.220075740300451649e-02 -6.640871559261964929e-01 -6.594111826280769639e-01
9.702837181971065705e-01 1.237260044956243199e-01 6.123812916771639858e-02
-7.676219657158371845e-01 3.663020399828383900e-01 4.874559087093279786e-01
-7.281643846154227662e-01 -4.014019719630290695e-01 -3.487953241293414441e-01
8.797438665397482316e-01 2.689994272212813398e-01 2.232166482679539543e-01
8.783213251419738077e-01 -2.750757135027450118e-01 -3.854982899880818326e-01
-5.729216861931312188e-01 4.492008564570951212e-01 6.098287005273815842e-01
-4.192764494745399584e-01 -5.959216723197193755e-01 -5.494594889212207622e-01
-1.694305887976375880e-01 -6.147913563728436559e-01 -6.899478492060330259e-01
6.666321589879514731e-01 -3.928471811138460335e-01 -5.597000031898489159e-01
3.426407454638255023e-01 6.281242281802126293e-01 6.736566111105474208e-01
-7.385706432728988968e-01 -4.090460771172586552e-01 -3.973699754755952718e-01
9.794967603167400449e-01 -7.811219878699689201e-02 -1.931215705735916943e-01
-5.710585977142507152e-01 4.685958773481029294e-01 5.413092048520726784e-01
2.411264505103951350e-01 -6.402115210752542529e-01 -6.597090774437198712e-01
8.969216091274730129e-02 -6.763515597589165873e-01 -6.841991592712062253e-01
-6.968532714911258585e-01 -4.896482665801856760e-01 -3.797238885841150435e-01
-8.557284761441966703e-01 -2.673517710927707514e-01 -2.281546277587801486e-01
-7.903084030675310290e-01 -3.819497135760791529e-01 -2.621952231052419036e-01
2.835458167391876616e-01 6.194819167525977832e-01 6.824709865651744645e-01
-4.379772831446706594e-01 5.365586509494570944e-01 6.776226888778286161e-01
8.810385840680875491e-01 -1.575105298111888208e-01 -3.341580717633792497e-01
1.027024756328813043e-01 6.836828438986377598e-01 6.637457601610894375e-01
-8.895764579106160141e-01 -2.889929723732916900e-01 -1.406287466325767954e-01
-6.799893123735470946e-01 -5.282463555345758843e-01 -4.554553808031018836e-01
9.648816691750601304e-01 -1.319473542324831397e-02 -1.861303290055573156e-01
9.323352311844025353e-01 1.051435789945183571e-03 -8.335034990980144665e-02
4.334609242788820538e-01 5.885741255423279084e-01 6.304252460391566171e-01
-8.289109926196387423e-01 -4.008579413000942226e-01 -2.795136193962890481e-01
9.865701434887995669e-01 1.338902099931093270e-01 5.087514218773592223e-02
2.603604723514945096e-01 -6.115769344540373798e-01 -7.222553287372464048e-01
2.956680588909324676e-03 6.509792043825711749e-01 7.357225639352203972e-01
3.076484333800207915e-01 6.042522694367814529e-01 6.593428128452609727e-01
3.718019765248306019e-01 6.638537916071705069e-01 6.140432982881685042e-01
6.514804436373257124e-01 5.655439324708619875e-01 4.775919909321725276e-01
8.704255612243289031e-01 -2.730698467460954681e-01 -4.094051575068532456e-01
6.048350980586222336e-01 5.317535664086663338e-01 4.661161021357437817e-01
-2.334472771737747532e-01 5.765539531637463577e-01 6.776359498153774474e-01
8.255741069019510991e-01 -2.235999621895319589e-01 -3.855950724312049993e-01
8.907998860388244289e-01 3.588693433175090264e-01 2.865013132862848089e-01
1.606300766414365810e-01 -6.138046426530457955e-01 -7.279013185808809183e-01
-9.688871421217052360e-01 -8.387137713654081381e-03 1.142126869461191074e-01
3.881775939404556452e-01 -5.675191275503970179e-01 -6.977047905450658449e-01
-4.700135040439986645e-01 5.380091766380532547e-01 6.688538779418111702e-01
9.400212167314747624e-01 2.656364017327734750e-01 1.981727333031127192e-01
1.606476873659045401e-01 6.175974786243085823e-01 6.893584307303712855e-01
-9.168228724438698407e-01 7.352390132497616491e-03 1.807588246544167832e-01
-5.514294951215475971e-01 5.153665472551308691e-01 5.672863815587435576e-01
-7.844496018157676165e-01 2.688212954829889978e-01 4.439680642656065879e-01
-9.227453374679410736e-01 -1.983773218955277653e-02 4.596749183256320509e-02
8.581998650613028579e-01 -2.344225882545016570e-01 -3.132031432143943528e-01
-2.848501946253259587e-01 -6.540294643800226293e-01 -6.738790471650356606e-01
9.493810917659275539e-01 2.353833208292474555e-01 8.017736474199922692e-02
9.682583379772594645e-01 9.935128780458608866e-02 -7.035233157653350555e-02
2.723029611969522978e-01 6.231983393242895852e-01 6.225974513473258032e-01
8.457285359753186071e-01 -1.981669981758004406e-01 -3.649759544551553492e-01
1.477123626532479000e-02 -6.285415141716089726e-01 -6.605158057343731848e-01
-3.591250408161078544e-01 -5.830030348923677108e-01 -5.954669900045679309e-01
2.535292165922430341e-01 -6.152062349074625125e-01 -7.230282758194992443e-01
-8.252436343136791974e-01 -4.098205677847783224e-01 -3.157266026164941009e-01
-5.453633415342846319e-02 6.795492863441296993e-01 6.808095744240905134e-01
-7.896328434261603579e-01 -4.277003441765678260e-01 -3.020983346940565029e-01
8.745437184469947445e-01 -1.635488209642010915e-01 -2.664652053197021364e-01
-6.353926793132121942e-01 4.422461037457203203e-01 5.910327721047220484e-01
-8.773505067274186553e-01 2.229440418409889269e-01 3.667362908364605878e-01
-8.913769119620458259e-01 2.198293810476168730e-01 3.276153760970059170e-01
2.301063009282355298e-01 -6.310094861344953676e-01 -6.532661190784254668e-01
4.805530718545725777e-01 -5.291879501216668613e-01 -6.700995464456193096e-01
-8.384227406041321329e-01 -3.881952061769894380e-01 -3.127045228203438332e-01
3.441216227917089365e-01 -5.458657525358675544e-01 -6.639942552753601568e-01
-6.297849133755473172e-01 -5.423515461498582546e-01 -5.128305756009280403e-01
-9.385512669371492978e-01 1.833151926004455284e-02 8.504303060065808439e-02
-6.805159024562785763e-01 3.656808263111442359e-01 4.727927786631370144e-01
9.205674552169578195e-01 2.477246286045177992e-01 2.025992097735672959e-01
7.719255549063853694e-01 4.813920883577436083e-01 4.211103872095644518e-01
9.733028014280058482e-01 2.137154845773192868e-01 1.165312515836969126e-01
9.403130802066771432e-01 -1.729719024147618744e-01 -2.979053094239559885e-01
-1.746397213322785358e-01 -6.120456264252889245e-01 -6.846006474818460141e-01
-8.994261147294346781e-01 -3.102232890742082083e-01 -2.133993719973806547e-01
9.564467718752832637e-01 -3.211740742887749661e-02 -1.005815066877880359e-01
5.976115690525150848e-02 6.187958811493758926e-01 7.051799240510691069e-01
-4.519096836666000039e-01 4.995785943169810395e-01 6.174674418886857419e-01
3.864668330478099323e-02 -6.392338061575292274e-01 -6.573613222589759220e-01
-8.211071400355420824e-01 1.909394089250695814e-01 3.418343067719316064e-01
-8.793444139223977052e-01 -1.770853228340674712e-01 -7.022997999802067792e-02
9.563925700885371750e-01 -1.421520928402042749e-01 -2.497471946628636308e-01
-4.108528073364204336e-01 -6.421356254384900097e-01 -5.849229894786860395e-01
8.974837723063214812e-01 -1.804781626349843682e-01 -2.555785595382426001e-01
6.406369529314341893e-01 5.030323045785253244e-01 5.125956999974953243e-01
3.714437482741060892e-01 6.003998077503798214e-01 5.941938586455715043e-01
7.621371354478189142e-01 4.945742128871192245e-01 3.884308156990239347e-01
7.423716061936942445e-01 4.481203304671670939e-01 4.399868967310589518e-01
-1.513541729934222979e-01 -6.588021641660540828e-01 -6.363035974445816478e-01
-1.581153990109185337e-01 -6.762920929932844105e-01 -6.473797984438243169e-01
5.244932556575919724e-01 5.934051250229778196e-01 5.998701259463783408e-01
1.839598407683563919e-01 6.289206752150114932e-01 6.460415185275296679e-01
-8.214128745249787977e-01 3.165799054502692611e-01 4.079110802036652328e-01
4.817949995103611438e-01 6.375357431032524502e-01 5.846420519525317161e-01
3.815706477332844182e-01 -5.405035164459038866e-01 -6.812067067459217640e-01
3.973113644496387153e-01 -5.480258725654870711e-01 -6.209572600952381061e-01
7.429827339322185864e-01 4.187114240394745335e-01 3.943623891980961305e-01
-8.473972500086250914e-01 1.435285846757120010e-01 2.783122295949417846e-01
-3.944190434257023314e-01 -5.764092041055142168e-01 -5.762539558400689987e-01
9.504778877097975753e-01 2.241490871257171003e-01 6.657935434567271993e-02
-3.627853444549323236e-01 5.693249321818603104e-01 6.235102731961708056e-01
8.537599563067933550e-01 -1.862496761972702863e-01 -3.059143672526588031e-01
-9.007281086094154343e-01 -5.629752769262014872e-02 8.641762504422802194e-02
-7.614036459332935713e-01 2.898595777141750873e-01 3.942386096438895149e-01
-8.782124458445230708e-01 -1.967751806323937147e-01 -7.453069857686427102e-02
9.827226971021066904e-01 -5.721974865031982660e-02 -1.541310513110089875e-01
-5.051163430985620151e-01 4.936893230866662985e-01 5.753899983672717822e-01
4.119377497526505727e-01 6.408321065580390163e-01 6.442605950547529714e-01
8.329364073103569244e-02 6.496970464947167123e-01 7.289115859881536430e-01
6.204312985272413261e-01 5.418493539410907944e-01 4.565899289256072913e-01
-3.041450596673254680e-01 -6.636629008779907357e-01 -6.178380362705117035e-01
7.738943887608699113e-01 -3.343897541589921918e-01 -4.124117390915864600e-01
4.136428484661514027e-01 5.808381352121136931e-01 6.185400000656746666e-01
7.576155949492628938e-01 4.887092376262455184e-01 4.368498305584762043e-01
-8.816073710474331415e-01 -2.826165593387162667e-01 -2.378956634958648286e-01
-9.213272509556119649e-01 -3.129538802674106807e-02 3.448938491235887388e-02
-9.420048322357866821e-01 -2.080875053680033421e-02 4.376251556818430005e-02
-8.228698719789862004e-01 -3.917935908581804405e-01 -3.378120325139081226e-01
7.180094246730078789e-01 5.240281623566297453e-01 4.218266775024370752e-01
6.958028965286804368e-01 -3.605459381427633114e-01 -4.897174251277692236e-01
6.972683813116904439e-01 4.516447915455239492e-01 4.282996694054481135e-01
1.455050240300748976e-01 6.293601298724340598e-01 6.544051122017626732e-01
1.948038714091778478e-01 -5.902345256983556609e-01 -6.720483090129201198e-01
-9.389122394723663501e-01 -1.348969463686318093e-01 2.939915441224289980e-02
-5.245313272002807281e-01 -5.943959852704379099e-01 -5.129333264240256707e-01
-4.786705152496522619e-01 -5.487270622819728771e-01 -5.774107704337372304e-01
-6.357019907928607161e-01 -4.900718919453077582e-01 -4.976217533810316507e-01
6.583760279329304854e-01 5.614548599794313422e-01 5.005622405881599013e-01
