1.025001618691530614e-01 2.548945474405919231e-01 7.119581512816643976e-01
-7.236965411816054239e-01 5.944222896923683636e-02 3.540357393749896109e-01
6.130920635804900654e-01 -7.249598728958491778e-01 2.911527132359141845e-01
-6.429778362334123143e-01 -1.051286515019016210e-01 4.517165852237891022e-01
-1.872862456523403246e-02 1.412548065633815741e-01 1.721433003065523104e-01
2.624428053711857015e-02 7.140228214682063645e-02 2.097325862746760861e-01
4.462029398211640914e-03 -5.862346564558971185e-01 -3.550701592209795088e-01
3.651210875992071947e-01 -8.962781082318771464e-01 2.108944027065654259e-01
7.478286051194595885e-01 -5.101957208086767004e-01 -3.815726864148724085e-01
5.231377338838761881e-01 2.855764266545477992e-01 -6.156419445663401380e-01
-1.220147997132231960e-01 -6.864680130710359984e-01 1.778752789436094106e-01
-5.798333686830542399e-02 8.382039029343943959e-01 -4.568476956428465519e-01
6.844588968063947121e-01 -2.507683538904840748e-01 1.406538539254273135e-01
-2.538977715277239144e-01 9.158856663234495876e-01 -2.117407413363581181e-02
5.966852778965642257e-01 -1.749819931769711068e-01 2.082572932558472423e-01
-6.023767526965229102e-01 3.524546487786761051e-01 -4.896469504491945957e-01
4.962075034594375933e-01 -2.270588720949573147e-01 -8.500647035111524863e-01
-2.372991092521128942e-02 -2.622134965503247761e-02 1.625345995449325731e-01
2.726113338396066177e-01 5.369344710576451352e-01 -3.175040568631121718e-01
6.460586651038522366e-01 -1.779503007015572902e-01 9.386055079608965346e-02
5.513103677761755916e-01 -1.627760824311419996e-01 3.001380015153788383e-01
-2.856978840823499177e-01 -2.882629806769115288e-01 1.989319203513962575e-01
6.337209582969959287e-01 9.986051892395628182e-02 -5.859647104800985717e-01
-6.900351794424524066e-01 2.845776473796134964e-01 -2.038036834240559425e-01
1.173919715710512873e-01 2.594160433000812227e-01 4.346862374666572437e-01
-1.666353851135902731e-01 -2.060872983873240361e-01 -4.590888709610208562e-01
-1.136440157113308702e-01 6.189062547340069831e-02 9.809406743856105004e-01
4.423936255251755267e-01 4.041745401973120266e-01 -5.475578363563727846e-01
-1.333361500716398820e-02 -5.784976544572375534e-01 -3.040463417661946610e-01
6.639675785215789494e-01 -5.905035794049176001e-01 3.335252436926370856e-01
-6.514691391140712273e-01 9.671786620050430716e-02 9.450813140740212115e-02
-6.304535557210616536e-02 8.156057802938407875e-01 1.496793633200676002e-02
-4.807369283333004506e-01 -2.968550518527382498e-01 3.909420171522347554e-01
2.427884492542518036e-01 -9.007896886419086702e-01 2.298298226149384782e-01
4.540143747084576797e-02 3.170780165085375635e-01 9.564766543231795204e-03
-5.756044557404602080e-02 -2.684258468206462966e-01 -7.665912567856388860e-01
4.647716491217329660e-01 1.128834194674432079e-01 -1.915081383448037355e-01
8.192283883859549642e-02 2.211521549381005869e-01 7.878119368249423271e-01
3.289534074553644993e-01 5.389474922064187989e-01 -4.887065880336041723e-01
-4.524798174536830836e-02 1.107745792430219756e-01 -1.181081159107580381e-01
-7.920626210046785576e-03 7.314134986846522191e-01 7.111999926530541971e-02
5.283421150874186845e-01 -4.107798230374853365e-01 -7.529960078714331706e-01
-7.857259713967633674e-01 6.072500127849753682e-01 1.089285083215464217e-01
4.959577599013271221e-01 3.236180618561270150e-01 -4.983783483461618480e-01
-1.563757122514020381e-01 4.875055471751986169e-01 -8.810454887958355519e-01
-4.107914280581130562e-02 -2.666693450358087469e-01 -3.794368204894829621e-02
4.161984113071028335e-01 -6.793060325164064495e-02 3.755184494088439351e-01
5.260029560323518094e-01 2.877003869270201020e-01 -5.418696658599472249e-01
-5.892723572221674200e-01 1.570076569692960278e-01 -1.583465861807263619e-01
-7.293462780833209758e-01 3.037330993469100071e-01 -1.216722303849849807e-01
1.335594139225573518e-01 -4.185548894193816261e-01 -7.812736218959260848e-01
2.544906997827908746e-01 2.649739111252643817e-02 3.388417959696318205e-01
6.360052472066840545e-01 -6.798237090290362161e-01 3.083296729978139972e-01
-1.620779122007613426e-01 -1.363850165906379530e-01 -3.539303774161342564e-01
-4.827362154710043707e-02 -2.556990748800867519e-01 -1.804986157234332311e-01
4.673144891881528262e-01 -8.983126815312600377e-02 2.195930630199326439e-01
2.972255477357866327e-01 -4.712667302039264677e-02 1.157728899540153289e-01
-3.735584898017597633e-01 1.380792489529388267e-01 -7.197005661639371832e-01
2.569583725826106099e-02 -4.835380913007238796e-02 -1.524266052103953883e-01
-1.610765264817385356e-01 -2.375035288645452325e-01 1.258923262068280535e-01
6.037217759882390622e-01 -9.453235468688009346e-03 -7.523134545513630034e-01
2.661469100762330897e-01 -1.696634847151286818e-01 8.497009532704047352e-01
-7.133900937377815055e-01 2.688988816758850972e-02 4.031781730849275935e-01
-2.396722071937374687e-01 -5.266370956810266790e-01 2.377693042755319452e-01
2.797235690770428218e-01 4.247547475598107553e-02 6.556924065661128287e-01
-4.621089118515527283e-01 -3.760731502056370856e-01 6.507547019582152759e-01
6.308931660944100406e-02 -8.283564147788848864e-01 5.098103601358239256e-02
5.544090808747391685e-01 -8.333003562076357618e-01 -7.747445040501045599e-02
-2.368628560277302383e-02 -6.000865545535596368e-01 -2.227945737006056526e-01
1.197173234369801054e-01 1.912375565829033397e-01 -1.233570963392092018e-01
-4.375935405442396009e-01 8.849735203101762038e-02 -2.077659396272604209e-01
-5.058222154790039671e-01 4.330663933530958798e-01 -6.568191413377668653e-01
7.858323482921162340e-01 -4.589196939225743122e-01 -2.629306234146265853e-01
4.554911902686476638e-02 4.565458532198985453e-01 1.672472677041848821e-01
-1.584059587537753888e-01 1.796983457085132574e-01 -9.272231200118603578e-01
-3.736750638901518706e-01 1.589347023479618648e-01 -7.349847516215392007e-01
-6.321045634287551784e-02 -3.451412306437266486e-01 -1.028147933267402891e-01
1.301225854737528831e-01 1.842608220987504430e-01 3.744628740133018052e-01
-5.050985090744177786e-01 1.520847336761527724e-01 -4.232843954405617337e-01
-4.719876924820697039e-02 1.679361169888019534e-01 1.155356018619280861e-01
5.249190783113955733e-02 7.609861859936661865e-02 -1.390807394202350222e-01
2.870846285698178124e-01 3.909271695684608527e-01 -8.638614033008560344e-01
2.588294063378067666e-01 -7.866081605771910734e-01 -3.567182076692241854e-01
-2.373198899500195969e-01 7.661708865931445012e-02 -2.428013455728257261e-02
3.191877792377735557e-02 4.647305410977397022e-01 4.218045245441879310e-01
-7.781238140941707515e-01 4.168957067188283627e-01 4.670564490156925430e-01
6.462027601838749025e-01 -5.344648372465196084e-01 -5.547868017170262123e-01
-6.360018868228711764e-02 -3.488760362070955634e-01 -1.087430402924287054e-01
-1.514293968806421364e-01 -1.414575181797728121e-01 1.000000000000000000e+00
1.697238952224792638e-02 6.706153136091283495e-02 -1.449087575439396980e-01
-4.443195424364898005e-01 7.948059444656517813e-01 -4.872149077330310551e-01
6.961494010279888345e-01 -1.400721401259698816e-02 -4.162886350396787782e-01
-5.051093286281728156e-01 8.636233551837411149e-01 -2.663579261166242884e-01
4.892748055435669485e-01 -1.219208973012809511e-04 -6.961169644399618772e-02
2.021373006912907666e-01 1.957880878691327722e-02 2.755163278351289158e-01
7.123600398238909281e-02 -5.612365612649352631e-01 -5.554625590156206938e-01
-3.233954651480556164e-01 9.251356625047358895e-01 -2.749294067439120651e-02
1.679579684590263022e-01 -5.988927448586366387e-01 -6.040180537494449498e-01
-5.458570273177958121e-02 -1.883505450592359853e-01 9.929990231954367585e-01
2.489488907817016469e-02 2.246232308624841190e-01 2.121779745820752405e-01
7.332312900625787000e-01 -1.173535616706241902e-01 -2.999592339780859374e-01
6.753438685469367320e-01 1.285313587680819106e-03 -3.381647106709159134e-01
6.879141256186885323e-02 -2.732825013302908265e-02 -1.305027953539130980e-01
2.281895984441144852e-03 2.656799542958513949e-01 9.850430956663193405e-02
7.096231356365855225e-01 -8.240012453602187092e-02 -5.520377919479295681e-01
1.748673089477249531e-01 5.300733842984994837e-01 -1.526455009437912846e-01
6.692570386682714645e-01 -7.148255015427205095e-01 -2.222402572817562538e-01
-2.060585796293033511e-01 -1.652917726820136712e-01 -5.818723656757284202e-01
6.501715004664413433e-01 -3.991952254923508137e-01 3.873483008502162650e-01
-3.773295533956811526e-02 -1.355208259256632519e-01 -1.979820228403660620e-01
1.491657115673523104e-01 2.141778822627707912e-01 6.683488377250710322e-01
2.380244041165113789e-01 -5.230468260441225592e-01 -7.248834659862483099e-01
-3.918231505517688062e-01 7.424416967924307720e-01 -5.967437445604797386e-01
6.097540886611680505e-02 9.130967242787499383e-02 2.400121593282284471e-01
2.142582224602066210e-01 -7.375084203212862732e-01 6.595655405009895889e-01
5.121518762409223990e-01 -1.924796904564307076e-01 -8.477796178268588445e-01
-6.981040307321252358e-01 6.182969131076510722e-03 3.807643497215628114e-01
2.349078954408390374e-01 -7.979753287065031175e-01 -3.155392668437497217e-01
-6.708270164684226877e-01 4.095321394785965685e-01 -3.801653617518104267e-01
1.117145032264718479e-01 4.846542605908350509e-01 -3.865591616003580949e-02
2.354546495637129533e-01 1.156982703893257303e-01 5.868203997408834027e-01
7.921098526353893554e-01 -4.226298675919748504e-01 -1.344988281701967603e-01
-6.106602139863435280e-02 8.898121540786672889e-02 -1.337593144739642192e-01
4.984495999330923466e-01 -3.723783617404025081e-02 -9.267353112442748564e-03
-9.661427825137980374e-02 4.719641323742341243e-01 -9.007785509332423279e-01
1.005714426609097961e-01 2.197150035477438978e-01 3.485942949303865723e-01
-1.210901900258157388e-01 9.751866411799944845e-02 9.727820893893009968e-01
-2.284820323040595291e-01 8.248402607809977027e-01 2.845290842178179180e-01
-1.576120535651856225e-01 -2.696208037419990933e-01 1.162630585809035777e-01
1.210247827400132009e-01 -8.431553092411209205e-02 8.686550345420583630e-02
3.479613564574813439e-03 5.797594271449257181e-02 1.932670776059381978e-01
4.478087851771462846e-01 3.706833993844961261e-01 -6.790342584146760174e-01
5.062389410617715857e-01 -7.960562167437907899e-01 -3.056811859404944265e-01
-6.647103178463846795e-01 2.853159464379694255e-01 -2.735278323844955173e-01
6.424409323056196053e-01 3.839361702504225787e-02 -3.142880908289316655e-01
-7.414972933355440388e-02 -2.098878741444370200e-01 -2.508398128549267914e-01
2.085281093065278479e-01 -5.781883814173815334e-02 9.663116198689415681e-02
-5.402043286870636951e-01 2.118294335813101018e-02 9.707341339962220761e-02
2.871707399416999207e-02 -7.489556302615933969e-01 -9.757473591894412490e-02
-6.010222425024995818e-01 2.323941472092148353e-01 -3.455137438564863106e-01
6.702755824226044878e-02 3.526221337433496084e-01 -2.265836384679110853e-03
7.129311613875746190e-01 -6.822975876759485026e-01 -1.165897605016668198e-01
6.572879091977731347e-01 -8.456978692690422794e-02 -6.884774043536598942e-01
4.220303457984881379e-01 -5.554543852681780303e-01 6.906790409422989274e-01
1.275984369611294911e-01 6.661407852481417979e-01 -6.815620827595938458e-01
7.953695997550162822e-02 5.951833425871659866e-01 1.506116202849277575e-03
-2.537291813393676154e-01 9.105915293641100305e-01 1.548894609116660895e-02
-7.857033804279114908e-02 -3.453837768814139730e-01 -2.975342670199124934e-02
6.236319086886545904e-01 1.231420162340386426e-01 -4.565755522179902326e-01
4.330088074282440469e-01 -8.624162744623871391e-02 4.448375228962555550e-01
-2.203769247182914559e-01 -4.229575011275123475e-01 1.658658909386577784e-01
5.884272831337363785e-01 -2.205709306351296140e-01 3.439689294630898786e-01
-8.036843031406430971e-01 5.387272010708770154e-01 1.995160876243902703e-01
3.628440222381580371e-01 -4.544515404425650273e-02 8.715444004681056900e-02
9.525383625862314518e-02 1.833079283471064913e-01 3.169052764045097725e-01
2.286090509710814178e-01 3.130784268911195878e-01 -9.362893897370712093e-01
4.770635338163000672e-01 8.111747747876559000e-02 -1.666804754693324564e-01
2.476378217913104973e-01 -7.199928048856887308e-01 -4.753405499534784084e-01
-6.879384584976688810e-01 5.426250885318009143e-01 -3.559610424098477721e-01
1.887145800383738803e-01 -6.480034240230916343e-01 7.602260091456696234e-01
4.561249819199107020e-02 7.879283604717466361e-01 -2.335899194053929484e-01
-5.028324987460276452e-01 6.265998859704624557e-01 -5.988572471643222039e-01
9.344189924646358059e-02 4.166467686628443912e-01 -1.694449481407468011e-02
1.913664396524217270e-01 6.994539642840501281e-02 7.923062533209699332e-01
1.328398831855875650e-01 6.682550439284316024e-01 -1.895481069736149327e-01
-2.117068663131744799e-01 2.020369877111616863e-01 -9.001634881940423494e-01
9.926918035573616128e-02 -8.232779189715858092e-02 -6.887799951023219902e-02
-5.528207783508310991e-01 6.309047093813390239e-01 -5.381196129602329181e-01
1.111811219629244285e-01 -9.233343182724508547e-02 7.441301003945564874e-02
3.422019150661494424e-01 9.531028914384610806e-02 -1.324647808748171673e-01
9.489622158679472674e-02 -6.274480934617659988e-02 -9.356038968778344900e-02
-3.296511205294954117e-01 6.527862498831939198e-02 -6.843328372378550128e-02
6.993614982039090266e-01 -2.739388735645037140e-02 -5.111230938303833460e-01
-4.971176069353672178e-02 -4.332903825141863896e-01 -4.973101902869056512e-01
4.625744116021388574e-01 -1.168753474755560018e-02 -3.609500970518898094e-02
-1.271958413411236610e-01 -5.344668608422366296e-02 -2.538340716562979549e-01
-1.691361739933774921e-01 -4.432131484963350854e-01 8.949403044309551802e-01
1.513419542950537877e-02 2.932819258319831479e-01 9.200271235920277901e-02
-2.999877891334242971e-02 -2.803456321621686231e-01 9.772804278824758217e-01
-6.336286108791635563e-01 5.489790577551905137e-01 6.116532562121439476e-01
1.776136405435356225e-01 6.584925111302234457e-01 -2.854710918492238680e-01
6.151600284612507297e-01 -3.491148248815588717e-01 4.364169909221370935e-01
-3.861005545364983860e-01 4.941168302573101939e-02 -1.582473408934160011e-02
-5.741118180857245068e-02 6.922302655108617531e-01 2.825369311792997884e-01
4.616193882548368377e-01 -8.831162110316360947e-02 2.302802829305470311e-01
-3.611727661531001776e-01 6.049829294577237920e-02 -5.089480121236425458e-02
5.473540227643750034e-02 2.999815582173686601e-01 2.786877373071073860e-01
7.782163947753295563e-01 -4.658960478173505004e-01 -3.083796431815397643e-01
-6.307587990590359794e-01 6.469413809937610838e-01 -4.111717691110320927e-01
-6.805094483713560738e-01 5.808621030688843057e-01 -3.576942721836846584e-01
-5.191120474465996670e-01 2.935062724940707291e-03 1.097310422959139192e-01
-1.639624421418687528e-01 2.847025424620645007e-01 -9.274968460315656804e-01
-4.840825522923117852e-01 -1.725589863596593276e-01 8.480514090907743663e-01
6.309063087077828591e-01 -1.270249640503979538e-01 1.287942025388515849e-02
-2.686585316801506917e-01 -5.814283346290765458e-02 -6.689693401112434268e-01
-4.761040567178656535e-02 3.497066627092327851e-01 7.986218384156329453e-01
-2.022166126184274104e-01 7.232152144617555456e-02 3.590755518844466337e-02
-4.524776033593484459e-01 1.011183705685351625e-01 -4.119858949059703734e-01
-8.243233105089452228e-02 -3.781148245527557461e-01 -4.505041413391796534e-01
4.957803085404878796e-01 -7.076244616939590670e-02 7.641244512250586207e-02
-1.334513124350669988e-01 -5.891257356988478522e-01 8.671557103082774831e-02
2.463033519153996209e-01 -5.555789064190423954e-01 -6.939667104520707008e-01
7.863573448384945097e-01 -4.552462021185340602e-01 -2.635099020091845046e-01
1.101344006005501447e-01 1.562967595823561151e-01 -1.273583650216537910e-01
9.083520947801715373e-02 3.385665436883578128e-02 9.092531002940539286e-01
1.444710612781332504e-01 1.959841339295282925e-01 7.165883930653600409e-01
5.412586189517207824e-01 -8.036265592863889307e-01 -2.426303867469505327e-01
2.505517121774142875e-01 3.083606126718493531e-02 7.419510405515473694e-01
4.674853084949018994e-02 3.486919521915923248e-01 2.539048395288724391e-01
7.866604628315425618e-01 -3.763653565804320200e-01 -9.735275613395996674e-02
4.075384770164979659e-02 3.219180449548721401e-01 2.714670593223561870e-02
-1.028340276945834547e-01 1.402236831999177369e-01 4.089553989766595010e-02
5.732102352446466487e-01 -1.519861491814398780e-01 2.010336463830207365e-01
1.914162677244346800e-01 6.052623426025330877e-01 -2.371531052664656025e-01
-2.999379259459188374e-01 2.084910244910936298e-03 -3.450962454580749905e-01
1.184198762669214228e-01 -8.143442328783488671e-02 9.676453878398148800e-02
-8.886413101354434518e-02 6.843216997946550972e-02 9.742702703697213584e-01
3.779952879610551375e-01 3.311884587986876904e-01 -2.915428834722555429e-01
2.703351949051628900e-01 4.519742314052805354e-01 -2.460542053073819513e-01
8.767101736881810492e-02 4.268956494459493767e-01 -1.965621442553115543e-03
-6.289517506729549456e-01 -3.197071179583015066e-02 7.292191700503604102e-01
-3.854979493780044120e-01 -4.735207733935312691e-01 4.804056728652981723e-01
6.110562842951455104e-03 -5.199121051102826296e-01 -4.979606285765426632e-01
-2.190358912868969610e-01 -4.197858856012989803e-01 1.637143444573034567e-01
-2.619856554814476435e-01 9.043617560154473267e-01 6.045949328620029567e-02
3.581141068229580782e-01 -9.046317499488796265e-01 9.984171186752707761e-02
6.127676667958091850e-01 -6.499809501628287522e-01 -4.621660149571769072e-01
3.148833591188644476e-01 -4.150962725223802940e-01 -8.213882948143558238e-01
6.044902998034391850e-02 -6.947213193825757527e-02 -1.195087455764531903e-01
-5.210298434129178036e-01 8.849971101089696424e-01 5.455391592968648895e-02
8.963300861917432305e-02 -6.032424972081715797e-01 -5.152509042379705972e-01
1.228763731254327446e-01 5.890976803639066395e-01 -9.048064799326868690e-02
-7.334948949878443425e-02 -3.545132868669246262e-01 -5.787758495146845539e-02
7.003663152774746159e-01 -4.193891987794431953e-01 2.742547890952298228e-01
-3.567138576979875242e-02 -2.478053647261360959e-01 -1.460369756192059741e-02
3.979559357551780696e-01 -7.743338414793332625e-01 -4.077011016383583208e-01
-7.287809454507306883e-01 4.761034664679782979e-01 -2.620045052265076446e-01
1.295931981055282456e-01 3.817077093263788745e-01 -8.032995099559187002e-02
-2.639236390284202538e-01 4.079797979291797244e-02 -2.178316880690424062e-01
-2.936268913166800165e-01 -4.910396723554561471e-01 7.720551975824898605e-01
3.326589570435812826e-01 -8.520859204958128874e-01 -2.233873316828141886e-01
-7.168760546003011269e-01 2.251448289579565387e-01 -1.882274560790060669e-02
-1.792436401456362627e-01 -1.833148868078888216e-01 9.928616067909374898e-01
-1.188354832199106509e-01 -3.490140772632635557e-02 1.430552501579988034e-01
5.373106806918895861e-01 -1.467250499271302577e-01 2.864039635718901855e-01
2.695052455496564914e-01 3.386104580035101570e-03 -5.348677988913621423e-02
-7.581573766772695677e-01 5.949043595055270028e-01 3.438897749718153873e-01
3.133473835616158026e-02 8.092882690381559829e-01 -3.401238576247669898e-01
1.230686889958696323e-01 2.275607138012332720e-01 4.059482697599094969e-01
-1.714174142554336089e-01 -2.020315886083308698e-01 -4.692676873227805134e-01
1.760228972207328046e-01 1.963867296429285814e-01 5.645714090755982184e-01
-6.815288234781158305e-01 5.291178082860781284e-01 5.724040281270090791e-01
-6.670475701516190292e-02 -4.063037816767716692e-01 -1.915135690809312285e-01
-7.526459033385463071e-01 1.244213788174374918e-01 3.265970005412409671e-01
9.979478889362161653e-02 -5.711071805304659410e-01 -5.784397689520713870e-01
-6.773033430082156525e-02 -4.783678138523345114e-01 -1.571480717220591350e-01
-4.982949337431549219e-01 8.409404860178947283e-01 2.802716869903473795e-01
-1.846278410760687494e-01 -1.660428857607402012e-02 -8.422475023460873622e-01
-1.330632340171872263e-01 1.198604299982498622e-01 -4.495963631605824629e-02
-1.108152850051248722e-01 -1.921221367244363154e-01 1.133944106022721499e-01
-4.132753165883127355e-01 -4.420695999624480454e-01 6.289545502838560509e-01
4.089848512709936545e-01 4.386489318131353565e-01 -6.259922819893714019e-01
-7.686616637451675060e-02 8.608175229861073641e-01 -1.320690923499320824e-01
-3.222901018616113888e-01 -6.740361926610698162e-02 9.753690055279871096e-01
-2.475718181358536329e-01 4.713531023170475232e-01 -8.541525364607323034e-01
-2.673553148697047077e-01 -2.797258650041967720e-01 1.856463646904011056e-01
3.377286432088977830e-01 1.839352282741629069e-02 -9.561628746199059004e-01
-4.069625846531301216e-01 7.526803202543724813e-02 -2.619788653786869759e-01
-1.291607273837975800e-01 -2.023814337754872295e-01 1.185734598755735780e-01
1.893412801020252778e-01 4.523804790182107127e-01 -1.495779072982983127e-01
3.403177348944294023e-01 -4.408420875299564473e-02 8.402742916912701865e-02
5.191824719724737885e-02 4.108011009408839009e-01 3.677116545563245964e-01
-4.799613865389077416e-01 -3.609293516331719132e-01 5.263209928858435527e-01
1.458635053343613763e-01 -3.867653053426860915e-02 -7.300781893847219095e-02
-1.716142185115878960e-01 -5.939892649584362916e-01 1.692109593376592280e-01
-1.038109868292610011e-01 7.550602029660267167e-01 2.591286075178880766e-01
2.390692850374948608e-01 5.430711673558723529e-01 -2.635065731674043898e-01
1.800330185712854802e-01 -8.900847820713809755e-01 1.036525809421239008e-01
-6.793852446408565893e-01 6.938232455961760303e-01 -2.617704391385851093e-01
-1.586798581073819991e-01 -6.267006221751176831e-01 1.763937031689732926e-01
3.333415860650204565e-02 3.090977131580522896e-01 2.014165569460741878e-01
3.568986576477466144e-02 6.254734737187321869e-01 1.000738297383800823e-01
-2.359812206533110635e-01 -2.071833836428051481e-02 1.120781236670516795e-01
-7.404965549482887821e-02 -7.458949534335980458e-02 1.438909612920238057e-01
5.747151709513625972e-01 -6.503480626785527186e-01 -5.035885480759767496e-01
-9.260567134556606239e-02 7.615416429083267102e-01 2.211983793897289441e-01
-1.161553199073898403e-02 2.422369288527070896e-01 8.247864487262529520e-02
-9.974468589070129270e-04 6.070070412169211727e-01 -8.152112983347211683e-01
-6.053576450917216301e-01 4.068528870467441050e-01 -5.081064366314897995e-01
-3.763223844727005274e-02 -1.520161897309120769e-01 -1.959488922617017848e-01
-4.958982121805396437e-01 -2.511039507714978303e-01 3.596629809658544730e-01
-7.859006120373998039e-01 4.658752005960385967e-01 -6.873871342209657287e-02
-3.020821339089349022e-01 -4.714847830406556084e-01 2.930952393864946215e-01
-3.687450453564032615e-02 -5.546832123183760288e-01 8.480190722602219955e-01
-4.088354664555864382e-01 5.056058866461409229e-01 -7.410722427998894801e-01
-3.635361667312564382e-01 -5.078108943283599075e-01 5.702807958474214178e-01
-3.567256198039923110e-01 -4.976256015807832833e-01 4.411579895574659349e-01
-3.677296010057922726e-01 8.947723543030864368e-01 1.596420467902652796e-01
6.445573860251876397e-01 -2.566530671785471895e-01 2.608245149314527556e-01
-4.458625701977850242e-02 7.128982651976248919e-01 2.071980404982854129e-01
-2.185490008668060924e-01 -9.671938145413462584e-02 1.428961731072409258e-01
-3.022690567266154635e-02 1.624695024360308382e-01 -7.374465617742050061e-02
5.050361953077291133e-02 1.632280108259500651e-01 -1.110939580025986084e-01
2.417947713593240067e-01 -8.626015423594749487e-01 -1.409040302869722372e-01
-5.490654519907851167e-02 -3.500727420044534854e-01 9.591802978414757375e-01
-3.033903641984652122e-01 6.874739445006124161e-02 -8.303462203746839188e-02
3.962672741318585823e-01 -5.685421828065878591e-02 1.355781447714325960e-01
1.135117330687923642e-01 7.394636840208292927e-01 -5.076333869367808393e-01
7.229284830894053826e-01 -1.019772739884753920e-01 -2.828389090614668033e-01
4.316146608490888797e-02 4.519988445001109634e-01 1.937640821786053291e-01
-5.152229599467162968e-01 -3.144575961686996712e-01 5.383505354514755981e-01
5.665425835739292815e-01 -7.650228000515324478e-02 5.435280583988962889e-03
-6.896734120856706785e-01 5.450645278854788778e-01 -3.515258328705838098e-01
2.311305423951242610e-01 2.823885013349091561e-02 3.147136392107350300e-01
-1.265378779370519569e-01 -3.391580439937939562e-01 6.297749989504985990e-02
-6.045661645772475862e-02 -4.360905442201066795e-01 -3.828787388962872629e-01
7.173305188445949776e-01 -6.006471430135585515e-02 -4.309757068273567526e-01
3.311080000766205567e-01 -6.168782091106205304e-03 6.058778040266991072e-01
-6.299659342924337352e-03 8.064782429081592818e-01 -1.188456657358018947e-01
-1.887064284614123344e-01 -1.788839563709262448e-01 1.450070180376118734e-01
-3.237733066136269655e-01 7.082823597166477692e-01 5.551107019827343780e-01
2.605102878064703975e-01 -2.086483087550636550e-01 8.631999415410237519e-01
-2.680383503718001825e-01 5.809424586162712650e-02 -1.714918743842325788e-01
6.143088863116110687e-01 5.576895003192733347e-02 -2.827286150668881781e-01
4.557706327810171487e-01 1.355462904972335458e-01 -2.069380328023204818e-01
3.285246235959521921e-01 1.596130941051956964e-02 -5.722906452459854132e-02
-6.274062997321815799e-03 -1.961116414762763271e-01 -1.127343120851473923e-01
-7.868254574573262106e-02 -2.423035857765347412e-02 1.516588889428920617e-01
5.954595953692015664e-01 1.728061814943036845e-01 -5.886588887058902264e-01
-1.354888350795909746e-01 7.661468831852032979e-01 2.941590087032171508e-01
1.095142390869615207e-01 -8.564009259879458158e-01 5.555917995629289924e-02
-5.776003944586283190e-01 -1.385070909857119732e-02 1.794749864023283958e-01
1.540478152242053811e-01 -8.867622967063215622e-01 1.978645464477634397e-01
2.401021236758753286e-02 4.128371451782264501e-01 6.155887012582791362e-01
-1.512815311398765239e-01 -6.764352976272629547e-01 2.372145824068510878e-01
2.109254022709812770e-01 1.601645123330928955e-01 -9.815311326935611813e-01
3.358915855124215977e-01 -3.886188299541218916e-01 8.100443855030661222e-01
-2.742740123552075970e-02 -6.593703777728209259e-01 -1.163800534568182332e-01
9.754355656796967478e-02 1.688441393233511556e-01 -1.221160261544205067e-01
-7.132171823628581375e-01 9.481908150331307128e-02 2.295422649681046201e-01
-7.392904424837202226e-01 5.867475821485790277e-01 4.090085425250292728e-01
-1.384840109867421787e-01 4.765385380066607390e-01 7.440876138582582788e-01
-3.311261110771605842e-02 -2.271104642006165075e-01 1.627450358054107968e-02
-1.550307867515929028e-01 8.018536966605005478e-02 -1.276669911146974812e-01
1.199429444424801178e-01 5.380459593168577248e-01 -8.402690026242543020e-01
1.267288236176882243e-01 5.000700240533362262e-02 2.602577250682943655e-01
-6.426606965939463123e-02 7.512546323839925932e-01 -6.605919205364094715e-01
4.236106724558371117e-01 -3.434083210615635484e-01 -8.408198501587994533e-01
-7.634509597093366295e-01 4.220176996041754003e-01 -1.372145686951770360e-01
5.303117162309708282e-02 -4.303137108944053435e-01 -7.108388916006942448e-01
7.766715732484966161e-02 3.332370052716305819e-01 3.891493930432718407e-01
-4.285283309251134987e-01 -2.253239296605930864e-01 2.667708090915413832e-01
-6.058188590491987435e-01 -9.439324751160822757e-02 3.266634816733277047e-01
4.685321059829756218e-01 2.266913010055836286e-01 -2.990758986942664843e-01
7.267419684383306933e-02 4.299386389865998415e-01 3.430506572261574072e-02
1.800661088763667178e-02 1.169215690080047387e-01 -1.254742335392891317e-01
-7.692580287913015902e-02 -2.008996142018617537e-01 -2.548190554898888127e-01
6.850392905410989108e-01 -5.268674850001452414e-01 -5.051168925513040975e-01
-1.410867606077142733e-01 -2.158469256334248076e-01 -3.937974632777220818e-01
-7.495453898680257132e-02 6.959070425429012552e-01 -7.362635343245006458e-01
7.255086623793636225e-01 -3.018115545604859173e-01 9.634681900284088052e-02
8.190701949563762574e-02 6.623227438681272838e-01 -6.233860763879132960e-02
4.686787398157583051e-01 -8.070163037854374277e-01 3.856701059696660550e-01
3.464870948084628477e-01 -9.039804990566802090e-01 4.295975204432958550e-02
2.076241794527136642e-01 -1.009634259229133524e-02 -6.366809458501918040e-02
3.142998211212644222e-01 5.565804016383553154e-01 -4.921621500410917616e-01
7.560275993222195234e-01 -1.700815764112852957e-01 -3.921965385234747470e-01
7.721235973595399482e-01 -4.601226628045113620e-01 -3.462790570000218726e-01
-3.679802965480672983e-01 -4.940037656674521327e-01 6.254336115728891254e-01
-3.485285290737487052e-01 6.411907452505453131e-01 6.457926021337880851e-01
-7.407297162148869241e-01 2.857459501057850737e-01 5.989887515524366934e-01
9.143801232636218634e-02 8.249860583110718570e-02 2.586674551453135851e-01
-7.528627419150384359e-01 1.432847752066558344e-01 5.184777218980587410e-01
-1.962033184598785396e-01 -1.801778762306489590e-01 -5.637408254217078918e-01
2.448801996316238849e-01 5.916335141349807758e-01 -6.676826959358780345e-01
1.102206728966357956e-02 -4.428653451876211899e-02 -1.621977624381489569e-01
-8.122292998313195012e-02 -3.869342342151614877e-01 -5.910584253061962334e-02
-6.739055580243404897e-01 6.941363875270435413e-01 3.774805185122920292e-01
-3.238569324050463716e-01 -3.668394090232478533e-01 8.655811383533774661e-01
2.917506022186282522e-01 -2.775433342880248219e-02 2.401733901370257385e-01
-1.136159709998799117e-01 3.389675109983145834e-02 1.325657368645116740e-01
1.678414958850124872e-01 5.425548613101691675e-01 -1.471053555302543614e-01
-4.249483284585116594e-01 -4.294178568312199684e-01 5.064002309645814215e-01
6.981936014246263866e-01 -1.845843209669262575e-01 -6.296457342902835874e-01
5.572043801210420366e-02 7.926936695519574139e-01 -3.642887976417907292e-01
-5.831053790506631751e-01 8.046119713670567553e-01 -2.798413121631802558e-01
1.190576248880831876e-02 -7.585319023102142511e-02 -1.578464025477560317e-01
-2.096245286413384590e-01 -1.537137355770916702e-01 -6.230267206523487644e-01
5.013846308187378531e-01 2.876530346753728984e-01 -4.266070367624149595e-01
5.783140659365190901e-03 1.780409747108321616e-01 1.927291498508355294e-01
1.900717117845607818e-01 6.719243537744965522e-01 -5.618386679639022496e-01
5.576142400351802308e-02 3.542927070651441523e-01 2.420561513602220022e-02
-1.114791686441426316e-01 -5.300808725739697413e-01 6.816049878390685948e-03
2.797573561179908866e-02 5.539939873938619641e-01 2.082982329929243259e-01
-1.322127037919612613e-01 1.600940913532037171e-02 -2.039233527143471947e-01
4.560011689556533465e-01 -3.695318400334343667e-01 -8.146358625483359761e-01
5.390229559560536510e-01 -8.477574800165318392e-01 4.467267719806676529e-02
-2.126972660558715256e-02 -1.837589649281189397e-01 5.778217949268212028e-02
6.052876391290143987e-01 -5.991064581967631142e-01 4.422239646183351858e-01
-1.926164402169065759e-01 8.993086241567318506e-01 -2.434304314319044732e-02
-2.949039668499797151e-01 8.922026877975563347e-03 -3.205113784487640394e-01
-2.157773461440039842e-01 -3.277863355054579375e-01 1.533182273401576534e-01
-2.668885176064849096e-01 8.062334985870691639e-01 3.592321848921991023e-01
-6.460083397300132591e-01 2.596854250084456583e-01 -2.785794239780339243e-01
-6.287438476929441133e-01 -8.595310643215266222e-02 6.846286427989043410e-01
-1.085592532832556495e-01 8.610749884219623951e-01 -4.275733787306207345e-01
-4.273792744428143164e-01 8.038337071810465473e-02 -3.644561784228677603e-01
2.320600823613647515e-02 2.877857707936671283e-01 1.753048360430764230e-01
4.486269180820912084e-01 2.615574412662103332e-01 -3.099807432655686257e-01
-5.169126299996790186e-01 1.820389208911846468e-01 -4.722723718663011661e-01
5.561631201288962378e-01 -6.683538484004902802e-01 -4.960959823580290418e-01
6.211982571665518593e-01 -3.993707659683437550e-01 -6.819442064633967071e-01
-3.199885134941374831e-01 -1.112092668396999495e-02 -4.347359060894099292e-01
4.164969557324695870e-01 3.357291293316305714e-01 -3.401427958218340430e-01
-2.183111042376746358e-01 -3.066612001644583030e-01 1.551921598147770753e-01
-5.326983165805489889e-02 -1.268514077631079373e-01 -2.156463438352161921e-01
1.145782577582052375e-01 -8.681598295221935047e-01 1.185408257453069297e-01
2.970686492275484425e-01 1.352540700714074777e-02 3.777751277291147014e-01
2.302487651389004686e-01 3.818385064152626240e-01 -1.799320193568018644e-01
7.005624890912438840e-02 -7.686278687265706289e-01 -1.483661812857884899e-01
2.082334942943643921e-02 -5.710793613662412671e-01 8.410938470151496649e-01
5.538256406751127514e-01 2.332208654919511459e-01 -6.278022048978605385e-01
-3.919206719597410626e-01 -1.814944787513543545e-01 2.165281972562712320e-01
-5.982126631373482217e-01 7.742961605308333883e-01 3.368119655607844654e-01
-6.561562537566311137e-01 7.971177799151779597e-01 -6.093861071006833469e-02
3.703004139590464483e-01 -5.123872482796113514e-01 -7.423580660906943240e-01
1.432136682097099045e-01 -2.224693786045224900e-02 1.921615074005492141e-01
6.271209054162801833e-01 -2.386807206253424227e-02 -1.753644482162187435e-01
-6.259418114469847416e-02 6.022891053429824115e-01 4.711848159448927542e-01
-6.735934795593473412e-01 4.050726257358240601e-02 6.840789997902021469e-01
-1.403490429278791696e-01 7.926000985887138306e-01 2.424545902744357218e-01
-8.139533106822233188e-01 4.601882015252684033e-01 1.190150527056078877e-01
-5.874545594187500219e-01 7.829891626150560224e-01 -3.169807565375659109e-01
-7.489628579833615962e-01 3.546087408483660219e-01 5.664131036040069844e-01
7.062728880515467544e-01 -2.087419441718317004e-01 3.566644544642982379e-05
-3.847898729289719183e-02 1.335669771923714555e-01 1.526840205180929333e-01
-5.469334324431734951e-01 3.560777552425626880e-01 -5.880685924563472389e-01
7.309167555226141477e-01 -4.701581904188065764e-01 1.971488436302913649e-01
1.231773839205651672e-01 1.030267578495438485e-01 8.443582662431129426e-01
-6.704622655002685262e-03 -2.085933880993434963e-01 -8.822154955486588568e-02
-6.539311837488785972e-01 5.425199951186120417e-01 -4.241967654131766907e-01
2.312657263304938315e-01 3.141098185277175769e-01 -1.706050196603828562e-01
-6.298681678393963645e-01 7.412695687839313541e-01 3.612806654200950707e-01
3.060824297140392614e-01 -4.710779536794183070e-02 1.231682367977097459e-01
2.558025460665744322e-01 6.197005215803497169e-01 -4.759123610140084670e-01
-5.463812167958803645e-02 2.522066124931389777e-02 -1.748036844627258724e-01
-9.008697743562665838e-03 -1.044790753283509205e-01 1.230972292248708189e-01
7.912326488831942228e-01 -3.405089310623433119e-01 -2.584429485030919627e-01
2.281478488701311202e-01 1.587433158455506810e-01 -1.462621546824960928e-01
-4.945929689570939258e-01 -2.363099892832472571e-01 7.922693150759267944e-01
4.340875500058384295e-01 -3.395028724173702606e-01 -8.388096190739333657e-01
4.335505787771074537e-01 -4.039881037292684662e-01 -8.042064560564791131e-01
-4.004503963310914738e-01 8.505249254429501082e-01 2.977333708162478998e-01
-3.906116099827702248e-01 1.255856163200599895e-01 -6.799887205464859585e-01
1.752235301296221071e-01 5.026967472219369126e-01 -1.429496176540971109e-01
-7.149558860507206903e-01 6.759413529229135742e-02 2.935597123650163232e-01
5.626193204853696672e-01 -8.018747486808894820e-01 2.318094216317433398e-01
2.914732672035144079e-01 4.603756248613998237e-01 -2.784008880069888670e-01
6.317763162956053780e-01 -3.223141715280097852e-01 3.788605682529463392e-01
7.924760718067809240e-01 -3.544653174370491766e-01 -2.407431639478846419e-01
7.300953266005579811e-01 -3.814892694062574918e-01 -5.274656745333889951e-01
5.979228097030089284e-01 1.004729979916538646e-01 -3.235156939545513199e-01
-7.334445494452995762e-01 3.392845295202538414e-01 -1.580958555244748598e-01
-5.723506563019961080e-01 8.382412270346145666e-01 -2.077973720756982889e-01
-9.455744826251419322e-02 -5.227032736153016668e-01 -3.931915115633267954e-02
-1.657070102733634587e-01 -1.280739332429104704e-01 -3.515139895905384226e-01
-1.855597841660792391e-01 -6.527775426601863940e-01 6.297220515148831410e-01
5.137515942859325335e-01 -2.126798602208014033e-01 5.207799208586501027e-01
-4.076649877331064292e-02 -2.407350278792409481e-01 1.090096283198415013e-02
-5.153426710912386577e-01 1.257081377593216032e-01 -2.239323778131716292e-01
-2.348160263851581941e-01 2.809178781235763256e-01 -8.920614495218190942e-01
-7.983882895923199649e-03 7.674550922039617973e-01 -3.653450451785094939e-03
1.184238539662307993e-01 4.897844076252640400e-01 -5.098313935423572085e-02
-3.202587458486011451e-01 -2.039683986244488767e-01 1.939987016243597817e-01
5.327727009395730740e-01 -1.185502904968780552e-01 1.838771836638016244e-01
1.808010109167964008e-01 6.135145787233461379e-01 -2.248578176281277319e-01
-4.952088359339952839e-01 2.774893544792643163e-01 -6.314030342075843683e-01
-7.157484409208225706e-01 5.921411018067520571e-01 -2.690950121326164401e-01
5.392795661445090039e-01 1.528053585462249286e-01 -3.024345419438266847e-01
1.155430427903619550e-01 -5.373043724481306738e-01 -6.412454457960051757e-01
6.887583254905856878e-01 -7.053771511179461884e-01 -1.730707040155683163e-01
1.751543844297178132e-01 -3.121687467188722503e-02 1.831096147274481889e-01
2.953194805714715043e-01 3.985331757406739839e-01 -2.472239237106072796e-01
1.885072482411945527e-01 5.426021162298536593e-01 -7.992385471762041282e-01
3.105321393224652060e-01 -8.576995165172650315e-03 6.744828957221994381e-01
-4.150265425657642115e-01 -2.624645576717175854e-02 9.401123633554175907e-01
-1.647161541016464448e-01 9.314437578850298660e-02 3.922176190136794638e-02
2.777963953631596428e-01 6.132596910932411327e-02 4.995741207666907213e-01
-6.544555644900604263e-02 -4.361042032344947805e-01 -2.017439144015594210e-01
-4.917503124245609092e-01 -2.554930649549512212e-01 3.586683155374811860e-01
-3.664506025405340206e-01 -3.059879487100987117e-01 2.651857055323363910e-01
1.248846559951728580e-01 9.089850678459732158e-02 2.915237094858497691e-01
9.910151715674933581e-02 2.801173985248499587e-01 4.013623423750325436e-01
-3.107106901655185549e-01 -2.052244948361812635e-02 9.825726506340461130e-02
2.604569612050371963e-01 5.617283455989880991e-01 -3.248267885342773775e-01
-8.303860667952714381e-02 -5.443806196618992260e-02 9.956796013811168855e-01
1.657888795173317609e-01 -6.430455576826100972e-02 1.087339022179733827e-01
-5.282812528070464086e-01 2.824413112301961126e-01 -5.791375203555377826e-01
-4.354583946581701004e-01 -3.778179280106327975e-01 7.215172399847245011e-01
-1.195778462404934878e-01 -2.142796867185467191e-01 1.094501947907382394e-01
1.230005554357007369e-01 9.093675732801263789e-02 8.529426938409483405e-01
6.196072287625847830e-01 -4.848603906602603208e-01 4.595229721676994949e-01
-1.032833555156795063e-01 -1.389777751630700275e-01 -2.758211576974431423e-01
7.595168860112641029e-01 -3.426552009705831070e-01 2.149343013623212020e-02
-1.962823491022011313e-01 4.132769724961443125e-01 8.282810415969436013e-01
-2.064834445020457265e-01 -1.271511848255904575e-01 1.470193358535973882e-01
3.645905217874315096e-02 3.733865813428635105e-01 6.581293122339008095e-01
-3.185519093194487672e-01 -2.563045559035674881e-01 2.103943806561565655e-01
1.454581809348268195e-01 6.252428720459393685e-02 2.846097194619007786e-01
7.224716156058345884e-02 7.803308677562771356e-01 -3.488265894881308893e-01
-4.530342825462191914e-01 -5.374201345942784119e-02 1.460634624443401253e-01
6.810579363662689900e-01 -1.272396797581832051e-01 -6.544307948642666961e-01
1.999587349187745711e-03 2.118394306096429147e-01 -4.550153245852502776e-02
-3.418030994547992529e-01 -1.230166861949425483e-01 1.669910697340497574e-01
-6.541070059125219105e-01 1.679223761560641182e-01 -4.868482856922158597e-02
-1.026742830881441221e-01 -7.527812832564417800e-02 -2.473468699520789127e-01
3.252771955145167260e-01 2.586874837280527806e-01 -9.135958884365750210e-01
3.360629767612412500e-01 -9.575789510141322763e-03 3.955033607689083519e-01
2.830027647382381967e-02 1.830888219530394101e-01 -9.853258304617737995e-01
5.200045787512752593e-01 1.731023381989455767e-01 -3.017944085166638923e-01
4.533477000205097807e-01 -4.976500707277236590e-01 -7.324301485289441693e-01
-5.364981413855367254e-02 -2.783177687428869951e-01 -1.598875349514861793e-02
2.979691814891488599e-01 -9.068118104471599716e-01 8.273374894887323971e-02
3.715058517943441996e-01 1.858063907038296769e-01 -1.992716136206999500e-01
6.174159709359676729e-01 5.619342411877625842e-02 -2.894426901413204023e-01
-1.034121326676174478e-02 -6.936223966982295319e-02 -1.758677870123572795e-01
7.849473832387974248e-01 -4.114709102811049957e-01 -5.932731558965593371e-02
-6.735982824912779554e-01 7.658317056465168138e-01 1.931274703248796465e-01
2.261103279053503223e-01 6.140661050297823165e-01 -3.285781206974523472e-01
-4.104500537239702540e-01 2.959551798511068643e-01 -7.502670920674051613e-01
-2.367759919235040006e-02 -2.226623566086906869e-01 -1.307022183593945508e-01
8.904891420974342386e-02 6.700801977459838188e-01 -8.864770987790990264e-02
-3.280677284595375776e-01 -5.441113962171039153e-01 5.847389332525025907e-01
2.920945024037705506e-01 1.673532968974806023e-01 -1.622447234304497388e-01
-6.457333760097874187e-01 1.774272053903371282e-01 -8.916835803118285109e-02
-4.603531035660188980e-02 -4.830272545513973892e-01 8.971040189630415940e-01
-1.584689778986820285e-01 7.831612076187038918e-01 -6.260356902126313905e-01
3.010991689547179995e-01 -7.425119020641011980e-02 -9.601840006108715020e-01
6.392375131451838444e-01 -6.118599153786169476e-01 -4.787675792956557208e-01
2.570538405833366902e-01 3.590587194287987449e-01 -1.979442758909458755e-01
-1.048641636358023377e-02 -4.173641861311720019e-02 -1.752413008838602237e-01
-5.883922783560657788e-01 1.268661620986845928e-01 8.224356786794310148e-01
-4.611729637200388809e-02 -1.657908112727937699e-01 9.408572275408974561e-02
-2.002841963026137373e-01 -1.566865397706878604e-01 -6.550915066647132745e-01
-3.471334417402135997e-01 6.221831601123695155e-01 -7.286471207895445223e-01
1.132020464095204737e-01 6.541797310077458460e-01 -1.259130289602640729e-01
-5.020978606081164530e-01 -3.324282982186191338e-01 6.067143796840657188e-01
4.148422925164979569e-02 4.438732135134229595e-01 2.835369358077041713e-01
-7.451270948610195788e-01 2.706733220600746614e-01 -1.840865998211192039e-02
5.364964721731149133e-01 -8.440335925324083943e-01 -6.670069469854579547e-02
-3.304597695834065596e-01 9.281725053859563035e-01 -1.465590017486751995e-01
-5.703721657643805870e-02 -3.241656457947559855e-01 -1.094811811886687580e-01
-6.786700101343057234e-02 -4.122550586427803365e-01 -4.315932625294248148e-01
3.362696826058675925e-01 3.185270392428852793e-01 -8.764060564435883771e-01
-5.654799197391364302e-02 -4.416974861543182529e-01 -4.102107504797078974e-01
-3.425775501756804786e-01 -4.342936753859449883e-01 3.222983940875561726e-01
-2.879732951420823084e-01 1.982036326812055271e-01 9.507830241523923531e-01
4.609999759043031942e-02 -6.263914925639780806e-01 -3.925092861977092507e-01
2.330762834482361448e-02 4.144703983141129755e-01 6.142565548866022462e-01
4.939413315929133685e-01 -5.348446414066823085e-01 6.273475631350057258e-01
6.136946680994235376e-02 2.984481020321917977e-01 -3.511168776706737743e-02
1.907396754248639678e-02 5.599435124164862110e-01 2.476664340408108733e-01
1.417144049201039813e-01 5.676375541432091554e-01 -1.143935309284573182e-01
-2.171596934203482154e-01 -1.599925265667807850e-01 1.520232801176399640e-01
4.626675937061149879e-01 -5.408554850453642926e-01 6.586098183588257049e-01
-4.902763570524071302e-01 -3.498460200988838253e-01 5.961684818033980982e-01
3.814150248725026726e-01 -7.913316148378363168e-01 -3.760048178505344674e-01
2.576957751122427864e-01 -8.867133789624540574e-01 -5.319062947208850339e-02
6.577856262678860588e-02 3.772699928643967471e-02 -1.403547147089115321e-01
-7.380013371335990280e-02 -2.654645015857123869e-01 -7.488173032923343131e-01
-3.192167783938255066e-01 -3.787815179159112478e-01 8.600789939818727081e-01
3.806706795088371509e-02 3.933849342326041221e-01 6.156005749366182389e-01
2.600183280300925603e-01 6.118528657119810532e-01 -5.583659273330414674e-01
-6.898726038576233344e-02 6.319149704482632801e-01 4.298817578752444635e-01
-5.707023354705333951e-01 1.897210813556207687e-01 -3.233660693079565274e-01
6.476139241661180157e-02 1.615612216310920723e-01 8.565849406705500213e-01
1.795889880471012723e-01 1.340471496131080131e-01 -1.359769470302543415e-01
-1.107953950211535907e-02 2.280662831712628458e-01 9.189720540027758802e-04
-7.133832296924713656e-01 1.926614020376445427e-02 4.518144261217438284e-01
-5.161042479632495933e-02 -4.708305214951342688e-01 -3.310909677603561252e-01
4.554695183104994771e-01 -2.919084343223031786e-01 6.805503517370440347e-01
1.785735646740267690e-01 1.699507566666593195e-01 4.655491627736097482e-01
5.318826190313961227e-02 -7.257911691671163901e-01 6.792533293753799661e-01
3.711648508840236782e-01 -3.208385812746218646e-02 4.340780414636893347e-01
-2.608320674619837853e-01 -3.256342093117237657e-01 9.265464805175384067e-01
-1.122314162090881813e-02 -7.037576331568140553e-01 -8.654110190992968243e-02
3.411410149361179256e-01 2.941081112112727269e-01 -8.867681905638673534e-01
-5.643314739087454956e-01 1.898162076342149729e-01 -3.440269930975091706e-01
5.409296545645492227e-01 -5.155291944513101798e-01 5.758981538310093962e-01
-3.339214529064505887e-01 4.636445675363093377e-01 -8.084268243327599190e-01
-1.368012741376208874e-01 9.748121853432500927e-02 -1.024622792858409653e-01
-5.589945510016394170e-01 1.285034705544535125e-02 8.396602634386017838e-01
4.838651971024144349e-01 -7.874306119841214535e-01 -3.445410170333177979e-01
-1.926403735039911025e-01 -5.737151929288265562e-01 1.922981207717104346e-01
3.134242514196182161e-01 4.890686509976485130e-01 -3.376152444509984973e-01
-1.849991724057719819e-02 -3.229675794301348213e-01 -7.538283309208785310e-01
-7.830831964136544254e-01 2.288177439774461142e-01 2.237577215013651921e-01
-1.438592880375108574e-02 8.295262518966903809e-01 -4.119291625242881838e-01
4.873462296682216643e-01 -1.165858733816685089e-01 3.330092062853884927e-01
8.360430142502027484e-02 -1.089659547677308965e-01 -9.502910721392202609e-01
-3.347124848954032283e-01 -4.833631069939326452e-01 7.294306416054801012e-01
1.234515425098603458e-01 -9.411619803492039804e-02 1.521670396384224022e-02
-1.289074090327650135e-01 -2.432848800155426594e-01 -3.924535915511873085e-01
-3.955128191561569917e-01 9.236474397162568462e-01 -1.130577978797764616e-01
-1.892139122411330976e-01 9.533942883626944642e-02 -3.015614792082188175e-02
-6.502992782191224785e-01 -9.676010140888371969e-02 5.830673544742864811e-01
1.873944526805119970e-01 1.453696635199319132e-01 4.401942940746170763e-01
1.515933520066329865e-01 -7.300070943709324744e-02 -1.016659946210680780e-02
5.565179155449075932e-01 -8.342139329337974196e-01 9.468331229081594635e-02
-6.385754363336040296e-01 2.852232642129608475e-01 7.516864547199862967e-01
2.196873731096353199e-01 1.777914451820537534e-01 -1.484423690800019402e-01
1.499679629522438218e-01 5.446763428965958331e-01 -1.181530544926908677e-01
-2.564112604470092927e-01 -4.258073562922548017e-01 8.663168193306546305e-01
-4.920392988398277628e-02 -2.675155944772255601e-01 -1.106228833081259605e-02
-6.728423665296445755e-02 -3.772736784513923691e-01 -1.315161940868156409e-01
4.336006919666773318e-01 -8.050061197353039488e-02 3.727291303940910017e-01
-5.347778990795443166e-02 -7.408584451394280013e-01 1.050353500890620767e-01
6.358731007755991094e-01 -2.891327492250551565e-02 -1.818689090610376147e-01
-3.223428733313200151e-02 7.496598833081321578e-01 -6.515585094662835752e-01
6.516653842034672572e-02 5.614885409730293458e-02 -1.398165737747732174e-01
1.230653412895894028e-01 1.708061069146566135e-01 -1.277344587754294103e-01
-4.984737379388860107e-02 -2.967719115711862088e-01 -1.363977869349222993e-01
5.984857018522278249e-01 1.222705823261636959e-01 -6.754073791976045182e-01
4.473802531004248961e-01 -6.820335270299915376e-01 -5.430792585728085875e-01
5.853739034666812779e-01 -6.848374330568844925e-01 -4.425351383410821571e-01
3.096333261279278146e-02 -6.368386454491663240e-02 1.465835207955940578e-01
-3.554141407461764990e-01 6.200436633544616216e-02 -2.214731637354140081e-01
