4.517053295729055451e-01 -2.148610683616609118e-01 8.325147354587932869e-01
6.204200250010664108e-01 -2.634770289392700526e-01 1.580967140434003659e-01
3.381898060350804758e-01 4.182846101030052166e-01 7.763910872192565371e-01
-5.273646430974103794e-01 -6.952928326682125126e-01 -1.501921287014428008e-01
4.590005536231983596e-01 9.793907152279361650e-02 9.513795921169049263e-02
2.417540401081733625e-01 -2.081056573340550608e-01 4.066958836651871773e-02
-3.462742485517703583e-01 7.076305988109879430e-02 -7.707674950938159242e-02
-6.143127477079508153e-02 -7.831751657460096425e-03 -2.677240943101819592e-01
-5.895033500763417755e-02 9.395403120389009821e-01 -2.245247940028478884e-01
-3.725695859353270190e-01 4.675024494638093109e-01 1.318047459235790753e-01
-6.892664347290603510e-01 -1.962521432534120591e-01 -6.638240799503211109e-01
-3.678294513980484015e-01 4.062211701050661983e-01 1.051291534538686956e-01
2.979973495148814933e-01 -5.162754559413063049e-01 -2.193577247104509520e-01
2.786122636618985904e-02 -7.335220245509298242e-02 3.504112264360298434e-01
2.432855804012779288e-01 3.614237222711061404e-01 7.812324460634857415e-01
-3.644351606442728514e-02 2.206767194325103543e-01 1.658563671805083628e-01
-4.404784852098270753e-01 -1.190045600657186620e-01 -8.365317184676163142e-01
-3.086008125588096118e-01 5.829747103504987482e-01 -6.741005596723826931e-01
3.606961620097722254e-01 1.086885439236039003e-01 8.107238433209026929e-02
1.036287497004507660e-02 -1.732376077991924779e-01 -3.162229058968418771e-01
-6.556997423387636026e-01 -1.543791619464112419e-01 -7.176927227832869960e-01
4.920571519122807214e-01 -7.869685169210242082e-01 2.812611578288232717e-01
-2.269445298486743312e-01 -4.604361777783624876e-01 2.591020793993485949e-01
3.516623685265298643e-02 -7.018147767196848408e-01 5.409049814510741294e-01
-9.306277306620709677e-02 -3.415852389331387046e-02 -2.215940146969061220e-01
-6.241116357771845369e-01 8.683218776578851064e-03 -1.695801541803044488e-01
3.326966444484176222e-01 -1.668023230301064752e-01 6.365037345741240971e-02
-6.526783514291005783e-01 -3.614239689978720332e-02 -1.958582189733237833e-01
-3.714778325389652136e-01 2.939565084694554797e-01 3.002732288764939708e-02
-7.412143404657442480e-02 6.630127410625484830e-01 -5.634568810715200327e-01
2.322428392194746671e-01 -3.417766717895350803e-01 -1.316299575228599417e-01
-2.594492847502277155e-01 4.213902301887462731e-01 -7.496982767471959130e-01
6.758901577863455357e-01 -4.989165192160637252e-01 4.385449884504502016e-01
-2.868268858159702117e-01 -8.616981837947352840e-01 -4.108385115079490335e-01
6.372593140240853660e-02 -2.551875749981200037e-01 -2.857630741445579825e-01
-4.207466430481039965e-01 -7.146041344396323325e-01 4.208762431489360134e-02
-1.825512111856325836e-01 2.761153927911311201e-01 1.116037589658578494e-01
1.367681909443774213e-01 -2.226020966007300483e-01 7.497616720261133239e-01
3.651137775806179153e-01 -6.245022184172340785e-01 -1.613265357631907260e-01
4.744510024463538533e-01 -2.050782395279675818e-01 7.483592376156968096e-02
4.950631992827395633e-01 -6.184802480374098632e-01 6.150598214884316350e-01
-1.782434898100297704e-02 -2.048835042239567639e-01 -1.643822691716497197e-01
2.633941832127165150e-01 -5.430369463000147556e-01 -2.726957195571372283e-01
3.837523531841342539e-01 -8.751822086501903630e-01 2.651464369593882209e-01
-1.457713319797606100e-01 1.980187266387440359e-01 -2.656596146130388650e-02
3.290274977832800540e-01 -7.583066123088149091e-01 5.538598103028342656e-01
8.414463141624196896e-02 1.583926037899554828e-01 1.425030554738919153e-01
-7.088960564126224606e-02 -3.554612173233974715e-01 4.544528755633433503e-01
-7.101630743553164482e-01 -3.611281212623923542e-01 -4.955160772576974737e-01
-4.370693608986561118e-01 -6.383146041701041051e-01 5.186591097501948994e-02
-3.848033389216035105e-01 2.196557485980037694e-01 -1.957169197443673139e-02
7.191373582609581483e-01 -1.549352102698263733e-01 2.896310858976734459e-01
2.863219956167570301e-01 5.942511421242128167e-01 -2.363179603766236148e-01
3.419482508475501503e-01 -9.072582161646449705e-01 1.459438806184235049e-01
-5.925657019267892567e-01 -2.162991993390765977e-01 -1.371854094080278974e-01
-6.720671234753688994e-01 4.775076155448805815e-01 -3.819111095188222338e-01
-5.291222060119865622e-01 4.014723237366967235e-01 -4.048118728066710248e-02
6.119582287398696030e-01 -3.241191116999382338e-01 7.220819579787444153e-01
1.570652845915451179e-01 3.907966407771603090e-01 -3.235690794752969501e-01
-5.385291739986543952e-02 9.745880319226815081e-01 3.794447572354857356e-02
-2.542051020555245733e-02 1.757732519021667217e-01 4.133482726549994046e-01
-1.092763163597621906e-01 6.501965028459101292e-01 -5.884866419232408496e-01
-8.955850216090183169e-02 6.838702183135856316e-01 -5.577198493491078990e-01
-1.902575981501964386e-01 -1.340832210677827263e-01 -1.030491456869100514e-01
1.393706399698587950e-01 8.120151019235428702e-01 -2.977669815232091288e-01
3.781198658817255254e-01 2.293506661371656485e-01 3.089304375497060884e-02
5.674074196165253270e-02 1.837562462242959271e-01 1.235532823596536267e-01
-1.688484141529977556e-01 -3.131798964306936051e-01 1.339985816581902578e-01
-1.228822215393977901e-02 -1.293039931917603358e-01 -3.118436684724806285e-01
-3.871461882665663268e-01 -3.602523723556548818e-01 3.550601004416427398e-02
-7.271901042288533845e-02 -9.043344217741831059e-01 -3.594535345746576738e-01
-6.589090790199998438e-01 -9.191638955263395361e-02 -7.246289689155979152e-01
5.858593214604761457e-01 -5.401402685669318138e-02 1.505219319153980051e-01
-3.350001841622139431e-01 -4.131665445685310245e-01 1.063596745871389360e-01
-8.095926456186654241e-02 2.247857552359249222e-01 3.372830918589989763e-02
-5.321505438234193086e-01 -3.256514877173131706e-01 -7.402986344974184230e-02
-4.600946338863380614e-02 -2.888993456242918700e-01 4.589371977162264304e-01
3.341058451731510615e-01 -1.325478885356156378e-01 7.850694817107915779e-02
1.403789637998817917e-02 7.088971943918103147e-01 -4.803330337352002544e-01
1.837076874328792409e-01 -7.082611569973519261e-01 -3.584499373803727851e-01
6.394912026161009289e-01 -4.182841219843570491e-01 1.854137463045207601e-01
5.025283859618979720e-01 6.091501561979257851e-01 5.940236787850061706e-01
2.178633737626158723e-02 6.139559101534446395e-01 5.784036329235282548e-01
-6.104216518739821185e-01 -5.014637386047997580e-01 -1.735553509226661906e-01
-3.792544283780673320e-01 -2.812004275259291641e-01 -5.370545696287288250e-03
-4.626343321813277121e-01 9.782469714482548706e-02 -8.190983459392382759e-02
-7.054167965948678898e-01 2.473669896921954769e-01 -2.761877243496237977e-01
3.567281735418492694e-02 9.681778014430715285e-01 1.358165952947896771e-01
1.906795159111159266e-01 1.241594776910197491e-02 8.007545596481608907e-01
1.599409837784492583e-01 1.559493542401681754e-01 9.465905119371648135e-02
3.530692808615049638e-01 -5.471337808930847313e-01 7.206160778352942442e-01
-6.109977960976205047e-01 -5.978980241163759368e-01 -4.286196428615858256e-01
5.431569032456297075e-01 -1.718256861034092586e-01 1.137372985601204922e-01
2.743675933102682207e-01 2.826806823405231262e-01 -4.452857623452775859e-02
-3.687409353248805588e-01 -8.224064050680129911e-02 -8.066823878997803066e-02
-3.187608643151764176e-01 -3.981848237943743651e-01 1.088985315606997156e-01
-5.921406926101502278e-04 2.184636679131683190e-01 4.031120005079797536e-02
6.615156883733549487e-01 3.794585621241921558e-01 2.370687826409825505e-01
5.526329138606499436e-01 -6.763556075405647849e-01 4.661542412548412839e-01
3.872308122366211469e-01 -8.067253740260568184e-01 -3.209680822072563666e-02
-5.844139556307370587e-01 -6.540634862316456744e-01 -3.393511687669883425e-01
-6.733918994654758405e-01 4.450681303029987990e-01 -2.948628580762838181e-01
3.177789196386531789e-01 2.093571584998439039e-01 8.328488105146508724e-01
-6.557942291206311780e-02 2.833557624529731700e-01 4.454096620517348781e-01
-3.581599920793717695e-01 -8.266347559974717152e-01 3.297125379871171380e-02
4.806131277983834993e-01 2.101458177506890512e-01 8.230945217226760535e-01
-7.141589188926449339e-01 -3.317687036338284878e-01 -3.457469935227803215e-01
-7.293652481793315712e-01 -2.423483185352524050e-01 -3.444966800660422268e-01
9.084970737702025706e-03 -7.028692563010476013e-02 4.597814325133641744e-01
1.584128974953598334e-01 -9.775719117754457788e-01 1.625665512712239358e-01
2.175483394707627416e-01 9.388332134033507970e-01 9.256035072557897148e-02
-5.233750614505464777e-02 -2.535721286494945215e-01 7.334054582512185283e-02
7.447053248682994342e-01 2.802772125785501708e-02 3.416193512031958091e-01
-6.860445989782268938e-01 3.668055678878865966e-01 -5.543031699594159756e-01
-4.269668043493444198e-01 7.908952586104124327e-01 -6.461954112938188277e-02
-1.456665960138276705e-01 2.464788601000671986e-01 7.193372991373596370e-02
9.688671634010549705e-02 7.063697558623664996e-01 5.657048394332638841e-01
-4.788606379617123543e-01 -6.957507425742033291e-01 -4.220818147441345036e-02
-2.500523071372104944e-01 6.548898278371282355e-01 2.999980025210694512e-01
-7.518122546997172417e-01 5.049620448433530390e-02 -3.669030986932321214e-01
5.914205520417893380e-01 6.163306924030934608e-01 4.221731835423652157e-01
1.581312271304830819e-01 -1.162009821742319565e-01 1.466898989584219104e-01
7.140908675528995220e-02 -2.244533599064527374e-01 6.700480852270175591e-02
1.907039666241432119e-01 -3.031857016096795587e-01 -1.038947793700811528e-01
-3.509232869312799430e-01 7.403034408865913907e-01 -5.252999654225923853e-01
-7.820039665990299871e-02 2.979059108643747344e-01 4.253437224451283583e-01
5.465636914164343496e-01 -4.583777131615814071e-02 1.302516278847506148e-01
5.760131442117627509e-02 -9.121260030318428802e-01 3.412852828550371198e-01
1.063249293237783499e-01 -1.024575393412084506e-01 2.000406396430080003e-01
2.005398857390180631e-02 -2.535015902387257603e-01 6.076736677609793080e-01
8.338266345498690502e-02 -8.675990363082929369e-01 -3.273850913991424028e-01
-2.954871425350534889e-02 1.720578241848115253e-01 -6.140644855386294676e-01
-3.789387336562449193e-01 -4.697181333773894907e-01 9.860218927194776273e-02
-3.850647940232830857e-01 6.058716197817819171e-02 -8.428832410725118907e-01
-7.267421540529921398e-01 2.804626164985948300e-01 -3.573846364980786672e-01
-7.143825277455043699e-01 -1.629639679831822452e-01 -6.318829320601607735e-01
-8.084535704643597276e-02 -3.291514618051551433e-01 3.966683549814876697e-01
-5.303195443668193843e-01 -9.468789166233017307e-02 -8.133273408516409342e-01
2.977439376388705261e-01 -2.637837727365615059e-01 -5.860885072077920595e-03
-1.569572696793603839e-01 -4.094532351687897864e-01 3.209340539646224899e-01
4.358482104254991080e-02 -6.166436819589632412e-01 -5.268284010680894802e-01
4.278579369801141508e-01 -4.976321414904476548e-01 -7.072045472324409165e-02
6.806337468170776672e-01 -3.973995574266567243e-01 5.846406197043617636e-01
5.752147055150883675e-02 -1.854380695750849073e-01 1.698492173560512131e-01
-4.286509535664831949e-01 8.003798826245971387e-01 -9.458216905640028094e-02
7.008715343946017029e-01 -4.141522200924334096e-01 5.040112488076806674e-01
8.900771701440610487e-03 -2.169999722243486084e-01 -5.453660222567935367e-01
-3.354865058968394820e-01 1.321669085838185209e-01 -5.647889105154416112e-02
7.229531909588140515e-01 -3.224927759441392205e-01 3.444989232010567948e-01
1.945678510075185275e-01 -5.932396907989467838e-01 6.770286704786051546e-01
-1.825645204691044368e-02 1.722260013007086421e-01 4.809836646755935585e-01
4.228029474442252522e-01 5.469574611689341781e-01 -7.073647173410552158e-02
1.706266772222009842e-01 -4.752039488507820986e-01 7.188743187085978592e-01
-5.590009667439956864e-01 -1.322487151216129031e-01 -1.227046190736399284e-01
-4.459478555897254393e-01 3.202916482565236755e-01 2.382871628632028758e-03
2.122097484423127456e-01 7.195718856348325421e-01 -2.921983713004260852e-01
-1.149205861816278290e-01 -5.542326463976330470e-02 -1.932062668379614101e-01
-5.358368903029654684e-02 -2.913421790048943416e-01 4.339490284692157362e-01
3.671060971178222165e-01 2.332865408961087295e-01 2.556273540145093809e-02
-5.498246390327186095e-01 -4.440941688304178570e-01 -6.933685143055116074e-01
-4.006028014450313535e-02 2.511092278422589752e-01 4.905301131409898208e-01
5.527904687538572892e-01 2.882336659701210113e-01 7.700962576879906152e-01
4.200551788175621581e-02 2.254223655893467793e-01 -1.601033842926447293e-01
-9.987860671989313988e-02 -9.650306780903298298e-01 1.285230624174829028e-01
-5.033722523270178772e-02 -2.840462649008718837e-02 -2.857551231364988675e-01
-6.379528274682032540e-01 -4.770322356872567227e-01 -5.620588079823864991e-01
-7.691020813939021539e-02 3.775197403688321796e-01 4.925008369697894128e-01
4.706950125584963840e-01 2.472127704363581702e-01 5.909237189176534677e-02
1.229997502508453633e-01 3.047615066073594003e-01 -2.593566715657084076e-01
-6.915297140936446096e-01 4.273207330701288553e-01 -3.854897615810671252e-01
2.079253741904027453e-01 3.205551266127715238e-01 -1.409047474925813892e-01
2.838005528687791990e-01 -2.483273577407948407e-01 8.202029563783836963e-01
-7.163942453440468316e-01 2.855308233689548003e-01 -3.192547945251887342e-01
-3.548882888412380754e-01 -5.839802452865221483e-01 -6.892290999242961513e-01
-2.397109227401508502e-01 -3.513063114368747408e-01 -7.784837536032064298e-01
6.856830782386384715e-02 -4.553221108954944030e-01 6.592618150216446038e-01
2.809255652824754201e-01 9.060088928480001247e-01 2.323251772328579490e-01
-1.503931597995722576e-02 7.223346281272753355e-01 4.932848292650536259e-01
-6.617546104104656823e-01 4.751472953210594263e-01 -4.763813585758632230e-01
4.449322583644260143e-01 7.446413068448790584e-01 5.515446702791687583e-02
-5.774083433239307617e-01 -1.489512185006926781e-01 -1.324224576182702340e-01
-3.320374166794941573e-01 4.315289242610060305e-01 1.541038934343262889e-01
5.077146040599664345e-02 2.306048208684727818e-01 -1.005304480449017157e-01
-1.460020565458221009e-01 2.943530407651525627e-01 2.037743131794232943e-01
2.915258554150813169e-02 -4.156477580755186807e-01 6.276490984092412129e-01
-3.944147912983073101e-01 -3.095069074744042359e-01 3.566127068105443259e-03
-2.944571176457729811e-01 4.542326724395839288e-01 2.088293432086456847e-01
2.851405860242968091e-02 3.631713848461222138e-01 -5.467658804491407620e-01
7.158031002550740984e-02 9.672225987757991916e-01 -4.711779679931730330e-02
-1.356023564466551090e-01 -9.148407467086070444e-01 -3.504772938844279984e-01
5.883618059052524440e-01 -1.161098213433335719e-01 1.476004396052985335e-01
-1.638754096568663110e-01 9.035141189024978869e-01 1.713393939624415774e-01
3.033074307095192657e-01 4.625428320608948596e-01 -1.773224263700824976e-01
5.894555992302517033e-01 1.385471111880677841e-01 7.883120359352324691e-01
-1.599225770499770535e-02 1.794925763445438804e-01 2.905601261139493796e-01
5.853480056145902166e-01 2.387585133757372802e-01 1.344228113598887886e-01
9.898439645591056157e-02 3.640421944317733666e-02 2.269317824260501382e-01
1.004490785086038923e-01 1.264666903631974093e-01 7.241064873262140766e-01
-2.605233210989508774e-01 3.487720657829280757e-01 1.518176799880753824e-01
-4.685264012545093393e-01 5.500351051853658024e-01 4.040889399418396560e-02
8.315655138448620198e-02 -2.758963442681847122e-01 -2.666850265119077856e-01
5.485170139153081048e-02 -3.815171142036116181e-01 6.579023176133657058e-01
-3.745683950789990141e-02 2.239767644572904504e-01 7.957283296061584688e-02
-4.411454704658282489e-01 -6.236081358876210956e-01 4.977921340976535630e-02
-4.038033758749570157e-01 2.912070871477813738e-01 -8.018916107038771557e-01
-5.603724749190763799e-01 -6.847943720607611029e-01 -2.617740436950510285e-01
7.990583619982291608e-02 -4.121150139277947044e-01 6.771157608189994903e-01
6.860164376892699534e-02 8.226230520109810707e-01 -3.469076007151271068e-01
-3.531938881337789993e-01 8.626441522798931061e-01 -6.592570139739513391e-02
1.532941078587236328e-01 -3.189522361412296947e-01 -1.903548379625809861e-01
-2.004528368053077811e-02 -1.997117229620860579e-01 4.088903347282135115e-01
1.289071736861012729e-01 1.794334159941949058e-01 7.979206635714423956e-02
4.171847465852706049e-01 8.015326086548628381e-02 9.112739023142818473e-02
-3.392196439237728511e-01 -3.146912085224704558e-01 -8.060443702427765311e-01
-4.419154481723992500e-01 7.357031364592413469e-01 -8.798604990873435186e-03
3.672016526798440594e-01 -2.928676637350661749e-01 -5.745770268624566905e-03
6.398318813776400216e-01 -3.596472211522786511e-01 6.756437367307134290e-01
-1.252205560903742743e-01 6.285095311644058880e-01 -6.084798633878140128e-01
-6.520006920878399503e-01 4.889486628204557928e-01 -4.857940587542100563e-01
-4.650761970615688995e-02 9.533621781401432349e-01 1.567833293862572197e-01
9.967551476133119925e-02 9.372572971920203333e-01 2.565784776699496228e-01
-5.378965823762792836e-02 2.319672161563453572e-01 3.848085243763385010e-01
4.174187420214103827e-02 9.726182440127693063e-01 -4.394130926737494641e-02
-2.127266336580239392e-01 -5.644808820892502910e-01 -6.934486017229539723e-01
-1.704874807092588984e-01 9.454201359088485468e-01 3.820776807707320505e-02
4.239214210449184228e-01 -2.578579299765482169e-01 3.573977870692113951e-02
-5.502233623097304571e-01 6.266480334813864239e-01 -4.955685482926381891e-01
-2.546514409992672173e-02 -2.387621621008472750e-01 1.982660283855960659e-01
-2.477895544349551990e-02 2.211524247580559099e-01 7.287824746191291780e-02
-2.988142180276258664e-01 -6.764637505554439434e-01 -6.292370926068228121e-01
2.299879248382565300e-01 -7.143360515389537424e-01 6.039155355089285138e-01
-1.064566262104250649e-01 2.122909121475701974e-02 -2.048623248590893675e-01
2.042363673199606433e-01 7.468891855068300334e-01 -2.849554789679107358e-01
-6.036626768194660597e-01 -5.342226633181142992e-01 -5.590888397082651728e-01
-5.799834869895725831e-01 -1.205068110696855543e-01 -1.362913182465752271e-01
-1.455586119561042002e-01 3.652267103554653893e-01 3.454927378556236217e-01
-2.474737846060640900e-01 9.264939646698464593e-01 -5.312014242510374601e-02
-3.627221719300293551e-02 2.328879334433572867e-01 4.834788963478117707e-01
-3.109184462166023066e-02 2.111269700128931004e-01 -4.644708860813660106e-02
2.651042644875618026e-01 -2.858507513989382853e-01 -3.777123713613234762e-02
1.657159676209912502e-01 1.914531906123297378e-01 5.022714604648056275e-02
-3.287024161822095225e-01 3.973768922066230891e-01 1.340907736533863970e-01
-9.556278479930267744e-02 -8.010883869375372557e-01 -4.946232141141026495e-01
3.765099912917367897e-01 2.813990940314869960e-01 6.152803246098438377e-04
6.059113237394882050e-03 -1.494857456548874530e-01 -5.084910266226848607e-01
7.184339584297418924e-01 -3.849671977747959883e-01 4.460009743946403704e-01
-1.043569541741869444e-01 -7.497991985312316698e-01 4.044683887283239132e-01
-5.929502429945212594e-01 -2.006207634700243325e-01 -1.389179846252390771e-01
-2.427267264283323317e-02 -1.112165331654063833e-03 -3.484559592209740542e-01
1.021831750068511180e-01 -1.651830940333370301e-01 1.488697921837147387e-01
-2.051387730728395850e-02 -2.459360339954058949e-01 6.047830369798932321e-02
7.801741284535930465e-02 -1.749722258975218714e-01 1.608929525825965601e-01
-5.015638447622331603e-02 2.272018416213270053e-01 1.955885274371169935e-01
-5.747968635924560754e-01 6.012569616848900678e-01 -1.575870370937900167e-01
6.191913338525744104e-01 1.694085388562962258e-01 7.602391552666233343e-01
-4.926443422695658270e-01 -7.283170782263601595e-01 -4.476730440118714127e-01
-1.894919977141351630e-01 1.953839473786149750e-01 -2.215682973195448949e-02
6.012800105178842669e-01 -6.363631784170881156e-01 2.637588550774139229e-01
-4.157500909285258284e-01 7.999872728116786957e-01 -5.566386846957874224e-02
5.852269247648889117e-01 -5.795791943127637236e-01 1.448014069366699574e-01
-4.973574392442153824e-01 7.394348932857922607e-01 -1.616259108739781236e-01
-1.163264105156919664e-01 -3.851181459347852720e-01 3.767684782608931027e-01
-2.707500377708839112e-01 6.249502320626846297e-01 2.806369439917161257e-01
-5.307271086907541235e-01 -1.352214919548127281e-01 -8.087448001460060265e-01
-6.299290371573964542e-01 -5.144323821315700540e-01 -5.327191964591614370e-01
-7.091364296013583646e-01 -3.715205855094948495e-01 -4.808459286177930725e-01
5.191785160544063471e-01 7.010238770088170757e-01 1.752124806657537337e-01
-5.600535946069626902e-01 2.898515584145872626e-01 -8.895882174148123100e-02
5.370700893871935833e-01 4.485048730206251388e-01 7.012854815776077277e-01
3.992809992516902495e-01 1.008149390444580823e-01 8.498194828334777740e-02
1.265219812940445443e-01 -3.243261474656504162e-01 -2.744500015559550588e-01
3.043562468527470366e-01 4.530032165092972019e-01 7.604133255190039797e-01
4.256346026434689733e-01 -3.743089854436814079e-01 -2.151282339826838738e-02
-6.639100365023747896e-01 8.302080997068234103e-02 -2.049561858442004170e-01
5.984463718081588501e-01 -3.372065299454430898e-01 1.291226977807191922e-01
8.706658784563162112e-02 -2.653168527597307147e-01 -1.192884649672241726e-01
3.447699543978795522e-01 -1.816674814744354272e-01 5.651557217428074265e-02
3.719215766118429967e-01 -8.767361857353150878e-01 2.945953747149135937e-01
6.040578875391350300e-01 -2.370560304721392175e-01 1.455367980365138147e-01
-9.347484837725623941e-02 -4.311344551639620937e-01 4.558538350081407509e-01
-5.478622763932852191e-01 3.257458091858981414e-02 -1.204970583858984701e-01
5.058804434277454076e-01 6.249289892701450494e-02 1.130886622983509754e-01
-1.415977056629864617e-01 1.385673078656037838e-01 -7.506588761566610479e-01
-2.276574887277552639e-01 6.100275029026752671e-01 3.335494813767793665e-01
-1.451004145586062277e-01 -6.958344643823055620e-01 -5.972242742192781506e-01
-1.550567377931411917e-01 -1.132240139062303322e-02 -7.674944810854829047e-01
-6.080745523032632383e-01 3.878683268716200394e-01 -6.617389279547263303e-01
3.162094141341401099e-02 1.913892106334001975e-01 -3.875139176353118997e-01
1.251094769273626006e-01 4.683594801820348263e-01 -4.239255182882280537e-01
-5.151094585457562935e-01 6.769264006618099794e-01 -9.583251261013833733e-02
-7.396336298729243308e-02 -2.556796157655911172e-01 5.729591774456359310e-02
1.143807145719443197e-01 2.491564415476338334e-01 -7.987198151346673602e-02
5.380198121631050157e-01 6.159892073995639761e-01 5.457676973328912107e-01
-4.405800046676326964e-01 3.176200546018265181e-01 4.585958736562373815e-03
-1.043472026043275325e-01 4.209395809958341172e-01 4.647519025264061909e-01
-2.137928579862639622e-01 -5.589549783913652092e-01 3.246474886650627112e-01
7.884829559216727235e-02 -6.183425261651545601e-02 2.532555440781074640e-01
5.604919835247548221e-01 -4.014260026471361820e-01 8.279332499286901070e-02
-3.068321930653498675e-01 4.900004814792440627e-02 -8.722911948531220094e-02
5.682554407868434243e-02 -2.327048195725121005e-01 4.978663943495983263e-02
-6.531078046508141666e-02 1.470634094115986189e-02 -6.693740885091136184e-01
4.897859170978098864e-01 1.537560027647182082e-01 8.313824909177882638e-01
-6.953537273352774495e-01 -3.878048972220324853e-01 -5.198625453646268380e-01
3.281428910970369262e-01 -9.117846790896823039e-01 9.889632996587272018e-02
9.375244834137591576e-02 2.058783390033321753e-02 2.375389591342547957e-01
-2.065533752725165206e-01 -1.639631397852616551e-02 -1.306510142744223835e-01
1.480715256205493782e-02 1.645687856622228551e-01 -3.234529062023586699e-01
2.346954472425059057e-01 8.253194297678637104e-02 1.130185109855763592e-01
2.027816495818622333e-01 3.617451392417465050e-01 -2.093390258372576640e-01
4.446772026885933288e-02 -3.287619587576887104e-01 -5.182818763240942816e-01
5.775701260959005268e-01 6.301140577695802936e-01 2.377827552776019260e-01
-2.293912339368104625e-01 -6.771272437399309396e-01 -6.281423245277962808e-01
3.237283374126876390e-01 -3.086816335105217468e-01 -3.618928829334364800e-02
-2.759583512340145761e-01 9.166396399076093271e-01 -1.088488449959153920e-01
1.970926611334039846e-01 -6.182587834624284628e-01 -3.648759154307416597e-01
2.821867113871213140e-01 -1.618768049034742806e-01 6.998112949160716079e-02
2.251577206855320812e-01 2.178605153082974477e-01 1.346393154197106888e-02
-6.352029680104913645e-01 -5.468014385894787166e-01 -2.814515231317775146e-01
3.857535757557317146e-01 -8.735127066877094171e-01 1.246133810394447622e-01
6.544270931911017053e-01 5.069422716086962044e-01 3.343397652242989238e-01
1.450040692217628990e-01 1.978005609966471123e-01 4.582100305379882554e-02
-4.702569251907737918e-02 -5.120578103998307123e-02 -2.866488511847422593e-01
3.801911967541325710e-02 1.887574742090787905e-01 1.335955818491647851e-01
7.293315689419046510e-01 2.070647645968499984e-01 5.910936763201278810e-01
7.771030546401855310e-02 -4.530417669761065413e-01 6.672092433638674436e-01
-1.921789028848136863e-02 3.475567815877351752e-01 -6.119431601425578959e-01
-4.901352606255685029e-02 -2.714242442264940824e-01 4.165796260018366226e-01
8.340890166576885034e-02 2.704486272530255975e-01 -3.058313294123921056e-01
4.985773573362536903e-02 -1.813527229293785403e-01 1.881789352547548477e-01
3.310252623379534853e-01 8.726200915410544656e-01 2.897671854744926501e-01
1.794304035401793618e-01 8.481573386846261720e-01 4.353887006162383000e-01
2.232887828205940561e-01 6.960929327142173495e-02 1.226471290297222738e-01
2.472577694228206557e-01 2.401668896032055911e-01 8.098530877728395971e-01
5.576770696973095687e-01 1.395339530488543256e-01 1.278433133900201968e-01
-3.295213473853943198e-02 5.312442467710263294e-01 5.598189662677983680e-01
1.149118586413583193e-01 2.646371863257367951e-01 -1.385220581471505175e-01
-6.168250295764559077e-01 -3.854407496501092156e-01 -1.567247241596371465e-01
9.525689088434778629e-02 -3.607561749557847142e-01 6.984814434797749216e-01
5.649360455697620687e-01 5.610672261349385348e-01 1.302205370967374209e-01
9.877254506952135027e-03 -2.256367109678432126e-01 -1.549422147686143336e-01
-1.953063463620201556e-01 -4.508022201911155435e-01 2.966992285232977200e-01
-7.011727859359100368e-01 -4.083203031006258921e-01 -3.982145691160505208e-01
1.645314522816536118e-01 -9.366351287572574069e-01 -1.439532461387224294e-01
-2.021249491466519180e-02 9.829367187741230860e-02 -5.804439426802791013e-01
6.451021631683915292e-01 -4.930581384402160650e-01 5.579736913629455008e-01
6.426620566161790338e-01 5.204448852975676054e-01 2.985975269555726230e-01
8.765703955069834019e-02 -3.590391154235112459e-01 -4.431063820641296114e-01
1.708413985202795193e-01 3.296703284340911089e-01 -2.080588020488400303e-01
-6.508243519827818305e-03 2.306983247245181570e-02 -4.950181202678751169e-01
3.892953061181347874e-02 -2.194210444463432774e-01 -3.243518393402177735e-01
-5.624393489480140618e-01 -5.482641548760014416e-01 -6.017355438627473019e-01
-2.926223231310889350e-01 -2.954365268107171927e-01 -8.048903116452599260e-01
-5.553628570226854660e-02 -3.509119152667489194e-01 4.867016540552978054e-01
4.015865828888035005e-01 -1.185802253818038915e-01 8.520969109080576143e-01
4.743768351585883614e-01 5.766032686542936769e-01 6.470385991476864662e-01
2.412848386291891745e-01 -8.521316975494475088e-02 1.165831170792076960e-01
-2.604347333776513285e-01 1.003374973046755464e-01 -8.099305069164688953e-02
3.353677914287692130e-01 -1.302113754888542529e-01 8.474102024089288365e-01
-5.145904325225909570e-01 1.044908087617214820e-01 -9.802387480203293701e-02
6.781984830542022724e-01 3.764862793979808497e-01 2.729329413866996012e-01
-4.369955446667618815e-01 -8.110227287432428822e-01 -3.459969889135894316e-01
3.180988201877375798e-02 -1.254396277955079630e-01 2.983403845522638043e-01
5.706685764308323527e-01 -1.358682302855776236e-01 8.034799682644148122e-01
7.195252080155259966e-01 -3.799198778529038756e-01 4.062447036817996016e-01
-1.981054307440024698e-01 8.940494918172331440e-01 1.491071266793474459e-01
-5.098832371320241585e-02 2.232926603599571513e-01 3.561080119648759590e-01
-1.032308814357669330e-02 7.597941146754157993e-01 4.685254228252843656e-01
4.650552036765682740e-01 -7.791772392190562391e-01 9.046479433392336233e-02
3.007491436825971420e-01 -1.397750608355653908e-02 1.088601337606196068e-01
-4.833333655386536365e-01 -1.444294665452802995e-01 -8.243303959372753065e-01
-2.104386237209057708e-01 6.953267815782100680e-02 -7.999948498328373070e-01
3.245893310307059743e-01 -2.524104739287473254e-01 9.634490376979804038e-03
6.239783976212430749e-01 -6.086524582661381189e-01 3.304906531303677397e-01
4.037968769725556184e-01 -5.197362370919678121e-01 7.288131684054820481e-01
2.757470590926843768e-01 -5.497989672844912912e-01 7.174775244626719894e-01
2.722519227403985553e-01 -7.795064566270580864e-01 -2.211984598606981101e-01
7.549681529141616387e-02 -9.747722628568818992e-01 2.029814381459723316e-01
6.976115718055847514e-01 4.049255287527909197e-01 3.797672573613911085e-01
4.629955291539510076e-02 8.423435943667150205e-01 4.150438684977718617e-01
6.644571115505889525e-01 -3.258865681613943299e-01 6.632160895858236760e-01
4.426899659672586113e-02 -2.337442829762756691e-01 -2.649388731103020644e-01
7.022391431699439579e-01 -3.385848448134265443e-01 5.875722271326062618e-01
-1.460067790590661996e-01 -9.646577180576830779e-01 -2.198314410664856944e-01
2.402733091518388653e-01 4.683610446684285389e-01 -2.574541510140466172e-01
-1.739984198192763287e-01 -2.332325662018169266e-01 -1.104659110100090873e-02
4.745794136310210742e-02 7.631612285468584167e-01 -4.173875130817121248e-01
-2.944092168706522253e-02 -2.068349051656727389e-01 -1.403551036862289991e-01
5.791098288447419362e-01 1.540206361260422763e-01 1.395127443525991107e-01
-2.409278171197335450e-01 2.006611739251316362e-01 -8.001426912947599002e-01
5.290955721748978879e-01 5.054198524588534268e-03 1.241381373714486175e-01
9.995694242022160059e-02 9.005747766195922877e-01 3.416976189105129236e-01
7.264267823911343402e-01 -3.555072637365532251e-01 4.601499820279095765e-01
-5.807692324379139931e-02 1.541840854790443305e-01 -1.625645533951826371e-01
1.384483753142494999e-01 -3.874508943458606081e-01 -3.576959011294624236e-01
3.103156494552245515e-01 8.964600250866712194e-01 1.443220511147074725e-01
2.143766893797713069e-01 -5.319958866572949141e-01 7.130517895329361311e-01
1.178642148523782879e-01 6.407914498905618039e-01 -4.243192993274661484e-01
7.663081578383375003e-01 1.488731991360790763e-02 5.326402784891517417e-01
4.498916668397304752e-01 -7.222389808983228354e-01 -9.473542156187156685e-03
-1.695856935581418201e-01 2.480838191221287070e-01 6.359480702808273378e-02
2.375572081971215888e-01 3.544885254288103194e-01 -1.561441346168200017e-01
3.185870448823666656e-01 3.058304535683358250e-01 -4.431746384796907828e-02
-6.941048513877363657e-01 -4.193909194649796390e-01 -4.671754192663893912e-01
4.449795255034444952e-01 -2.003610449117508574e-01 6.629006850720629840e-02
9.116923830651690874e-02 -6.541480665179301157e-01 6.007635368316796010e-01
-1.895650549428988807e-01 4.522536086028849933e-01 3.464805645733473605e-01
2.892757679470119858e-01 -6.893059253261203390e-01 -2.445390280835675334e-01
-7.577985972351188870e-01 -1.376437019445790333e-01 -4.881894557988794570e-01
4.862135280445429864e-01 3.558458721230990385e-01 3.341602770220750834e-02
5.185396187239681431e-01 6.764061252087281151e-01 4.791101193908701150e-01
-4.584357966093579040e-01 3.847160933357182122e-01 1.942542858362784897e-02
-4.703982356748633714e-02 -2.377524496685048394e-01 -6.548585138826499286e-01
-1.535626131839314956e-01 -2.036129900475163179e-01 -5.484476835000937078e-02
2.395338185500203720e-01 -4.392296313018728138e-01 7.575043238356748976e-01
-3.552304442156776210e-01 8.710862569979770376e-01 -2.080822071208651980e-01
1.468239415746470933e-01 5.101627115784334032e-01 -4.029053705190013823e-01
5.007228902124201131e-01 -9.181715035467670483e-02 1.084772086179997125e-01
-2.866242701016448735e-01 -2.381774416312372189e-01 -8.147347502746495884e-01
3.336495131599426234e-02 -2.109838183378721921e-01 1.501866358835572679e-01
6.525724921921407518e-01 -3.181523809577543327e-01 1.944457167908121564e-01
6.855529739200214578e-01 3.116223506821089173e-01 2.640474000442090130e-01
2.071129661793783827e-01 2.346196153701427534e-01 -9.352048827668522218e-03
3.007353657838209293e-01 7.475989629767164635e-01 -1.700810559615058282e-01
1.242017057465493943e-02 2.020361689051903553e-01 -5.220571813444336851e-01
1.942202188243838043e-02 -4.849932458500439969e-01 6.091945626099255495e-01
3.194050846494106422e-01 -9.125377186112816341e-01 6.797645618465485151e-02
1.024624844703332788e-01 5.101743395924516200e-01 6.712456782970755986e-01
1.305110973718127398e-01 2.496802709600037251e-01 -6.653010866827645253e-02
-9.774955551527196584e-02 2.205230907825988240e-01 1.576084160398195586e-02
-4.171065851022454085e-02 -2.470662206794387306e-01 3.868424278768911595e-01
-4.313437263878961564e-02 -1.000000000000000000e+00 -4.604353876630168374e-02
-5.033617045420510916e-01 1.928456460038724674e-01 -8.045550221827993953e-01
1.717722511038570210e-01 -8.983846487608246889e-01 -2.069779068149257273e-01
-2.582872658789985842e-01 -1.032552895087603395e-01 -9.217801991280093199e-02
2.987314744217601792e-01 -9.217623474180374199e-01 4.671483225750192730e-02
2.014848349886899093e-01 -1.431996309513700605e-01 8.010618204238150186e-01
-6.404153574850474095e-02 -1.475278079484321769e-01 -1.917637616931490707e-01
7.594895229440016271e-01 -1.812958477468967489e-01 5.005718245262251731e-01
-1.591352072480053392e-01 1.477502083604993743e-01 -8.629801072260551154e-02
-7.490798636008777489e-01 -1.836750258341539321e-01 -4.005318322326787417e-01
-2.761706417311264872e-01 -3.761480373754184092e-01 1.246300232256380564e-01
2.692493494360753692e-01 6.857449469126707386e-01 -2.412547531420008995e-01
5.207384116989201284e-02 9.765861663914956470e-01 3.306014005974011044e-02
-1.345043044124510645e-01 -3.523863200328323786e-01 2.828974285239472253e-01
4.436016767929921167e-01 6.301990694925506675e-01 -3.326432546116888517e-02
-4.555851566497520211e-01 6.537820128867543046e-01 3.228110445833430597e-02
-2.021260498977151820e-01 5.403201693432562180e-01 3.618413606148757067e-01
4.026703162527787150e-01 6.258733261725432095e-01 6.406296036977647823e-01
9.247065208849141599e-03 9.735907106353992591e-01 9.544675268096800003e-02
-2.516055667669533369e-01 -4.125431846955522897e-01 1.852479483947825911e-01
-5.000994536853979600e-02 -5.371044516334241847e-02 -2.802202544129288597e-01
-1.559126831514272976e-02 7.962207722374594621e-01 4.332104937309258497e-01
-1.923553289162642232e-01 -2.283891655007512789e-01 -1.638569512006071011e-02
-3.274839282611551328e-01 -9.023959003557182612e-01 -2.387307183171627767e-01
2.410535879597771047e-01 -3.896729810142669503e-01 -1.866994126109951246e-01
1.435904921316573379e-02 -5.320994643212011849e-02 4.181346292859081104e-01
-2.205860355079887480e-01 -4.243947559649089984e-01 -7.518271876654539776e-01
-7.332718179916108969e-02 -1.014406696158019934e-02 -2.494468274039769728e-01
-1.732661623336682610e-01 5.792382679918814947e-01 -6.544989350360138625e-01
2.943643783466450836e-01 7.663853483357654373e-01 5.303876702987970759e-01
-9.205135060482096121e-02 -2.376150680860607267e-01 -1.073668907349093621e-02
5.713517233838575349e-01 5.684236199774469478e-01 5.605824096158402714e-01
-4.604777506533371811e-01 -5.278109943860888054e-01 3.042844446558451779e-02
8.320317047940743727e-02 8.196317733337535882e-01 -3.387298056949574199e-01
-4.878891739065636113e-01 -5.578030921703754919e-01 -2.203228675672254475e-03
-2.409686708684134759e-02 -2.471767079640065090e-01 4.924540360536108219e-01
6.319094587549234365e-01 -1.294733348462709654e-01 7.622966231209263865e-01
5.819183148666478012e-01 6.175642729067561953e-01 4.552194369037539934e-01
-6.838537359897882695e-01 3.854451002491575684e-01 -5.397248257233612234e-01
4.938313660596241328e-01 -3.734057490492779796e-01 2.890032461059967653e-02
-2.954728480618555239e-02 2.176087801344051831e-01 1.583428876642958838e-01
-7.558854709646127823e-01 1.028769361610384486e-01 -3.968861479388041125e-01
-8.974048725016078865e-02 1.209655343299958635e-01 -1.666467186493495733e-01
4.050946364609739336e-01 7.209358726083996416e-01 -4.126269398127933169e-02
-2.424104225198357720e-01 -4.566765064727845158e-01 2.358250609867811876e-01
-1.551724547228642281e-01 -5.217751432915485044e-01 3.938757215878157525e-01
2.834962775410204694e-01 -1.126056514974758255e-01 9.361790058072201604e-02
-6.844513311863327232e-01 -3.798058687318472959e-01 -2.797611055560246252e-01
-4.112615954253137640e-01 2.785930150105382294e-02 -8.440889168317394775e-02
3.114057363049668181e-01 -8.826798892095080173e-01 -4.249004688416299635e-02
1.642730684134363628e-01 2.486151840101746280e-01 -4.441517555841920095e-02
-7.571546361277922133e-01 -1.461476641990841763e-01 -4.374791470362135448e-01
-2.462109709069014718e-01 3.028961802973803921e-02 -1.083037491136845942e-01
-3.680503242763062954e-01 -5.727170190413041206e-01 -6.942175802891162872e-01
2.855333152992238777e-01 -5.064648313492623455e-01 -2.296905604702815518e-01
-3.571230004702110605e-01 8.990047687790814201e-02 -8.396159147124035993e-01
3.481540282107412621e-01 2.041292317097168352e-01 3.790989663757110550e-02
3.489645843244691403e-01 4.842435063150402064e-02 9.591921619155077683e-02
1.850058049028243529e-02 -1.638984170341125368e-01 2.811303713505255431e-01
6.596465431345173158e-01 -2.891713518021301055e-01 6.879406390749142064e-01
-2.111169118079805063e-01 7.331876879629388444e-02 -8.001235615093735820e-01
5.265860778694892996e-01 -6.921518630085758961e-01 1.127815530727575843e-01
-5.820661566801884623e-01 6.374977892145264891e-01 -3.811910921015891351e-01
-1.643626810276693218e-01 -6.876461780732237572e-02 -1.484204852505393857e-01
-6.506849345562977505e-02 -1.935626043803603258e-01 -1.248573659816821224e-01
7.167026738789393503e-02 -5.761822648711779626e-01 -5.101674602418834192e-01
1.010742566309505014e-01 2.509667240066628113e-01 7.207771607893399546e-01
-8.855838806248145234e-02 4.456941522601046146e-01 4.959046003928155311e-01
-1.400512328743000467e-01 9.149377029163362485e-01 1.734954329719588240e-01
-1.414979648090848863e-01 2.834374010430336099e-01 1.810322297296282634e-01
4.551046032435337313e-02 -2.086899378957148277e-01 1.376313972078079539e-01
-1.491849473849699015e-01 1.023448892665021204e-01 -1.306941645807048469e-01
1.442176323197680472e-02 2.190593350931330785e-01 1.455225744496091780e-02
1.383094365993537411e-01 -6.961290939564242219e-02 7.602838938204824482e-01
-2.647073802480708338e-01 2.335062150807483139e-01 1.782322159607021075e-02
2.991956893811393292e-01 1.101747384989085615e-01 8.489192383957407106e-02
-4.684850117624810018e-03 3.709131761411189054e-01 6.011562362357617539e-01
-8.311602685524269174e-02 2.138688080665066549e-01 -6.679992705609514442e-03
6.378291717824421947e-02 5.779786652097338440e-01 6.216938237444411541e-01
-3.070996264906747375e-01 -7.242097656138061224e-01 1.944212000643561755e-01
6.814110436743381349e-01 3.596715159804106388e-01 5.905694320226172467e-01
-4.165886809538627555e-01 -3.088034311421494205e-01 -7.596231156311319087e-03
5.845871975059752784e-02 2.140869904601749030e-01 3.198457542185777908e-02
-3.362333258865075978e-03 -7.877217472267360188e-02 -5.012618852677830361e-01
-2.358526965974221679e-01 2.626789477617948454e-01 5.964464853106904441e-02
1.143467083000148793e-01 2.519282689950860243e-01 -8.991684626129635427e-02
4.821678600274072191e-02 3.097589787641120140e-01 -4.923083415305795629e-01
-1.841336708887127416e-01 2.348661528746288085e-01 3.503243687836754550e-02
4.264598070378947114e-01 -4.482280841472617294e-01 7.610435408576612382e-01
-2.524098591456895857e-01 9.698662297089230555e-02 -8.477118028329948263e-02
-2.796727171265390166e-01 7.622427439674887006e-01 2.132311617544646321e-01
-5.576565306891824170e-01 -2.054777424855467050e-01 -1.131861999083816628e-01
6.723458911910679126e-02 -1.844372681705002959e-01 1.588996097846740452e-01
6.690725445253544734e-01 -3.681645074969076559e-01 6.298107225390883190e-01
-5.457507706884791032e-01 -5.836287830408163346e-01 -9.263145651844978401e-02
-1.050788333851839645e-02 9.434321695892723680e-02 -3.420731911110829748e-01
2.568666966896461165e-02 -2.179353609021321414e-01 1.425765390062414817e-01
3.366432186236416046e-01 -5.833164430870494410e-01 -1.934574686402091015e-01
-5.438832636011641242e-01 6.963822133391138758e-01 -2.523354290165755742e-01
-1.875849787561112703e-01 -5.927819995512302320e-01 -6.722945091061677259e-01
-2.290870074577902593e-02 -3.568218089381317709e-02 -3.491336307183985355e-01
2.330176023293440701e-01 -1.285099152461714744e-01 1.010535419316253847e-01
-1.408721618271944476e-01 6.650917190147279112e-02 -1.574885044082195984e-01
2.623634839579345665e-02 -9.703236625784541491e-01 2.042709333697200480e-01
3.585075606035268980e-01 8.649587229350262918e-01 2.455585124828507382e-01
2.580313264520602279e-01 4.704441650805363251e-01 -2.357377615288604733e-01
-3.048198970958304610e-01 -6.002499533904606110e-01 2.187594157381041460e-01
-7.292198195894705748e-01 -2.268561240490304665e-01 -5.659227648727764848e-01
5.855647080975201479e-01 2.735713894151237113e-01 7.542149039359367091e-01
5.167299263959536093e-01 -7.479622454293954892e-01 1.868312079336179599e-01
-3.794532158153444273e-02 -2.823549901919247263e-01 4.793099928244564656e-01
-9.109896148276373784e-02 -9.789323941040951882e-02 -7.069371189106758990e-01
-3.487234263189704087e-01 5.031815570203179711e-01 1.712921695242957676e-01
6.854635545174561084e-01 2.662266092907786263e-01 6.493369631247731810e-01
-4.995565549214323747e-02 2.574905951291502348e-01 4.642909877743872094e-01
-1.210525214006602651e-01 9.221449659068587934e-01 1.769402946327752468e-01
3.912270794870835178e-01 5.247124746166735854e-01 -1.040310265604381529e-01
5.659039633015198190e-01 5.337175499891221309e-01 1.192422204073758374e-01
-3.008337458041086543e-01 -2.595138048914338164e-02 -9.521137880206322068e-02
-7.020093894815876423e-01 -7.717955861117835326e-02 -6.717062165950115071e-01
9.938996674208987192e-02 3.080990482291594557e-01 -3.449483076941806670e-01
-1.711029097799694754e-01 -2.196654105289016223e-01 -2.974802717307632044e-02
3.478517970971108791e-02 4.994417110741729560e-01 -5.410400091175320281e-01
-1.892768638943453652e-01 3.859653959247810739e-01 2.897954549216917308e-01
-5.829408752047728903e-01 -4.025701903980686280e-01 -6.908451861746420786e-01
3.635773524483932317e-01 2.087990947339966596e-01 3.828760328994265660e-02
-5.635975839775348994e-01 -2.645798742253752667e-01 -1.087791348817472165e-01
-3.841013675894476842e-01 8.212880692577007036e-01 -3.580976981783351443e-01
3.767693693584924230e-01 -5.327317746167400392e-01 7.261825237633252605e-01
-6.855264890762478025e-01 -2.529739362310064466e-01 -2.447845046471834596e-01
2.020744019427382632e-01 3.002527998165202550e-01 -1.136079245525666304e-01
3.838051452515899298e-01 8.018404819523454741e-01 4.206679458681049089e-01
5.312176183037625732e-01 -2.071794049490974510e-01 8.099099820759219082e-01
-1.035694829268313660e-01 4.652991931334395370e-01 4.787767167359918696e-01
-4.826303214494682969e-02 -2.767402927918245492e-01 4.315000661163962969e-01
5.000495998502725303e-01 4.253508072299859721e-01 2.891926538448191808e-02
-6.608227201429522912e-02 2.354245562657814039e-01 1.339621043884176022e-01
-4.543248836158642057e-01 6.634122251781234825e-01 2.917910992846435222e-02
-7.760151047919848499e-02 5.880307285629393643e-02 -2.269794337326463129e-01
-4.103894031975042767e-01 8.295870142711904149e-01 -1.452182887474157136e-01
-2.685855207097204156e-01 8.979703684394204632e-01 -2.764211811172924138e-01
5.272094008663109621e-01 -8.746212202466192853e-02 1.186788972884790794e-01
5.053131859639227175e-01 5.341488412592982904e-01 3.015240213066361710e-02
-1.498785400238279997e-01 4.852479026221873659e-01 4.188374159858718193e-01
2.253068901426306392e-01 4.457812685162651500e-01 7.485514433924254085e-01
-1.027144642303149252e-01 1.153474557561761336e-02 -2.106323770270259743e-01
-4.988945301378976405e-01 7.264393390125470917e-01 -3.926055275042308890e-01
7.152171448478793492e-01 7.987894936436930327e-03 2.806255021135903305e-01
9.820362613145970643e-02 9.813242634065656722e-02 1.943545785584634700e-01
4.270096580491233862e-01 -3.189301801712136064e-01 7.299179173468619067e-03
-2.168713410156010435e-02 9.189912011110540346e-01 2.614003195116597067e-01
-2.566122016839069916e-02 6.627364258275731945e-01 -5.350419912941080103e-01
2.193265254849878845e-02 1.705401662912834349e-01 -4.310743410440854850e-01
-2.106941368851417140e-01 1.281750359887974811e-01 -8.060469868738126542e-02
5.581388285164411434e-01 -5.970130206788746285e-01 5.759216324739172554e-01
6.522935729451814213e-01 4.784482966701497086e-01 5.191926683134054921e-01
6.494142396840115738e-01 5.164463944225718972e-01 4.461782169327713210e-01
4.316603078336823246e-02 -1.917873731540185520e-02 3.250087453155653394e-01
2.211448393491347031e-01 5.739493632270893375e-01 6.890497255268781540e-01
-1.458616923297514911e-01 -9.665080810532911126e-01 6.501826279830134891e-02
-4.081845989922620044e-01 4.109844550066105162e-01 7.260262493324286248e-02
2.814264016621217598e-02 7.275409396199399026e-02 3.283080447675850722e-01
-4.637156989305393773e-01 -3.461137865904995170e-01 -7.820027515797105533e-01
3.287522651996044876e-01 7.529790281234403082e-01 -1.287432146463064475e-01
-2.363576501394523688e-01 -6.400486359680321868e-01 3.019787219213179164e-01
1.866807576295721471e-01 1.514399731193536436e-01 8.797833298618937259e-02
-1.973190827414871007e-01 9.405810957683456708e-02 -7.913969679960547454e-01
-6.581964475030234185e-01 1.269107088115000725e-01 -7.161987298659703294e-01
-5.237610123106409832e-01 7.066603337309864674e-01 -1.742228616758549342e-01
2.975780584005099927e-01 -5.889904590352925684e-01 -2.413776318961752265e-01
2.847239340434411514e-01 -7.086353707646690925e-01 6.103287400148248443e-01
-3.835138094341195569e-01 -3.652136765029910803e-01 -7.906343948070719829e-01
5.582267017869869674e-01 -1.743272470437799357e-02 8.188127317466180610e-01
3.187530380647582984e-01 3.048227558317048169e-01 -4.338849923335180714e-02
3.968024147103746402e-02 -2.303155224059486583e-01 -2.531698556086351970e-01
-7.110715101560498574e-01 3.419571404174813201e-01 -5.006540073925564993e-01
4.453604654929753555e-03 -2.309872372241685012e-01 -1.160072466946820563e-01
6.376489786501972346e-02 -5.278920922359329193e-01 -5.246135024477874831e-01
2.143532279632685555e-01 1.884561161674857821e-01 4.536988757016899299e-02
1.576513579471419402e-01 -4.373495248832044435e-01 -3.676894816710153946e-01
7.100912528909427701e-01 3.366532852929638442e-01 5.338672893355190796e-01
3.051912443494994021e-01 -2.373557160194196824e-01 1.765507505308459846e-02
3.834088991004124813e-01 2.348193399917169188e-01 2.957630229335572389e-02
6.013945954767571100e-01 2.810465270596335108e-01 1.450171014220084098e-01
-6.180302771378377337e-03 1.025511053607329054e-01 -3.492519276231028091e-01
-1.926500207528504538e-02 -2.453731414867921512e-01 4.323371326018668470e-02
-5.014401409330391246e-01 -3.088574046539447129e-02 -1.039079511375316373e-01
-1.082366745370804823e-01 -2.916625777513804918e-01 1.685425666787934706e-01
-1.290286642755866520e-01 -8.505689512389293938e-01 -4.484572588086747635e-01
3.577586622669273186e-01 -2.227534614995993478e-01 3.566590101760087200e-02
4.244711966709784901e-01 -8.000491465431867066e-01 3.071265010863500136e-02
1.040820664439069815e-01 -8.968222500336312519e-01 -2.727344063925171147e-01
5.080540422069214079e-01 -7.415296474627985912e-01 1.390294259977507829e-01
2.286342234619282432e-01 7.208383492455586183e-02 8.198639991621620160e-01
7.439756792794000040e-01 1.956753493321484183e-01 5.486877582797899944e-01
7.454327399236356788e-01 -2.644510432287842105e-01 4.995442679172190092e-01
-3.986835507018169356e-01 8.004421357029892770e-01 -1.549752556999884311e-02
