1.979660998756923584e-01 -1.294373008369816835e-01 -9.033958520381170088e-01
-5.819449554027884830e-02 -2.603844737630993666e-01 8.435484125847054759e-01
3.078527902899759194e-01 -1.156379631386189599e-01 6.872690021849420239e-01
-2.732586141273030123e-01 2.041449999603948129e-01 8.091001023854742513e-01
-5.338561907035581644e-01 3.033123053535992097e-01 7.312798660643781146e-01
-1.216931588502369738e-01 4.490873068445402211e-02 -9.317947932644408127e-01
-5.848656789496603503e-01 3.665154907969884190e-01 -6.115874797358370613e-02
7.890945892418785856e-01 -2.363834158880248060e-01 4.456688915087094610e-02
-7.603781293979674505e-01 2.417268528108680037e-01 -2.149913091779190877e-01
-2.294257722330109162e-01 1.590606543157017383e-01 7.069861865687625535e-01
8.426756030979551948e-01 -4.658836993325988218e-01 -2.696132889343979544e-01
-5.624048132768006969e-01 5.096182374732527443e-01 -3.488145990611833946e-01
-7.751973821383257857e-01 2.613316922118772978e-01 -3.069292841343218003e-01
-6.836274939245979843e-01 2.352337547476965052e-01 -2.192027501645401610e-01
7.933768277557647908e-01 -2.360134810975694497e-01 3.454958487308012333e-02
-2.249625251375959867e-01 -2.576491650757543536e-02 9.793049024058849694e-01
6.187007052018915765e-01 -3.334732492239805279e-01 -2.600282938858409013e-02
3.341209990185186607e-01 5.174377877161629585e-02 -6.694633322118503926e-01
5.292980352906904162e-01 -8.195059469072857317e-02 -5.122554394937921529e-01
-1.398396900788611286e-01 8.886349257287139147e-02 -6.855966362169008121e-01
1.733161783226573049e-01 -1.487013447036515668e-01 -7.864839158062494340e-01
-4.219137976353315445e-01 3.777977911748153228e-01 -4.395739946713014268e-01
4.127130444878000515e-01 -1.545153686456952613e-01 -5.398229326215703283e-01
4.125661358323919892e-01 -2.592757553066266096e-01 -5.775867450933561686e-01
5.933714057265163655e-01 -5.211133745994257493e-01 5.300963218060066318e-01
3.699960388415734491e-01 -1.626609047992232937e-01 8.659896064374558167e-01
-1.041345109489278109e-01 -1.443642089022593444e-01 7.056526900907673649e-01
2.766341754326804292e-01 -1.684196258812288016e-01 9.329982819518173320e-01
-2.598941826799543997e-01 4.036550783810745613e-01 -7.716869760501430253e-01
-4.367709886213392845e-01 2.261176961855020651e-01 5.028023322750427848e-01
-8.102107448943191015e-01 3.902641227883766328e-01 -3.926016218227335042e-01
6.684971543686337725e-01 -5.119889301964902772e-01 6.907966609161102396e-03
-7.124378710274197335e-01 3.734246857854432444e-01 -5.678790385991003831e-01
-3.035307243015561429e-01 4.693199844151535460e-02 9.548424091274064773e-01
8.592412948490798508e-01 -4.847258206535862701e-01 2.347600002085817039e-01
4.084690440457808963e-02 -7.962837546829498736e-02 -8.480511463433083597e-01
-1.766784165915097904e-01 2.836398930350820802e-01 -6.397610461458701492e-01
3.861565424585202688e-01 -2.945768638288137065e-01 5.085799196250339049e-01
-6.152511993863027939e-01 4.970527277038729874e-01 -5.562044051054070293e-01
2.846224673441185571e-01 5.553068888671602171e-02 -6.699009235778069504e-01
-2.868801516481809255e-01 4.149765817482923835e-01 -7.562345463430325543e-01
2.663545306391564838e-01 -2.849762834428494207e-01 9.310557514677469948e-01
2.818324713851397822e-01 -2.620924020192935688e-01 5.895093715255115274e-01
3.263186904593294302e-01 -9.996226370991620480e-02 7.390659379564371578e-01
-8.517462932614995319e-01 4.621942935681856435e-01 1.939134480973296604e-01
-7.976770903043230998e-01 5.310261640487448087e-01 -1.149221587700261643e-01
-6.049980770554429510e-01 3.133793765494203298e-01 2.816261131180484989e-02
-7.476377888839570440e-01 1.986365627120761923e-01 1.476127309513173835e-01
6.203250466896670368e-01 -2.316331266734991401e-01 3.854899819791319793e-01
-6.353897959102081661e-01 5.371191162485341453e-01 -3.595504441988895961e-01
-1.461854046266048146e-01 1.573024474385515889e-02 -7.982932266626802109e-01
6.166590566259482209e-01 -4.985012752682006498e-01 1.732141107008632053e-01
-5.927163162692850040e-01 3.515834050598802829e-01 7.845992911848112539e-02
4.045472580629634329e-01 -4.201829446564558923e-01 5.162503230580763880e-01
4.478580444894980084e-01 -3.978073305257299186e-01 4.394038935253135603e-01
6.673402960475198764e-01 -4.757628144222275091e-01 -2.756458010925847413e-01
-7.442123337265327265e-02 5.595808829917978122e-02 7.346937016826622369e-01
-4.279301294887131180e-01 4.666770156972203654e-01 -5.380761711342720854e-01
-1.508672115400422065e-01 -1.439456225340663698e-01 9.659904298471053696e-01
2.356343606401497537e-01 -1.786616631084511075e-01 -8.337190152209280614e-01
5.468877703733985296e-01 -5.388239259307288712e-03 -7.051256613029843745e-01
6.255176470280195966e-01 -4.399294846848007534e-01 -3.742031124007859089e-01
-6.233163376173350700e-01 2.822153008257540785e-01 -6.332010826261628977e-02
-3.665221881570789875e-01 3.245248651753507296e-01 -8.677777685246249595e-01
-2.150157602608888663e-01 3.842640347729577854e-01 -7.952928734347267659e-01
5.421013540696717481e-01 -4.224701013678218153e-01 7.377103170565771917e-01
-1.598278213445851470e-01 9.088967781114886194e-03 6.746213398207995260e-01
3.585095635837531880e-01 5.304565312178802922e-02 -6.742504286324033647e-01
-8.614835068441700772e-01 2.525218277437522585e-01 2.099042067936499056e-01
-5.018734807042667390e-01 4.180545359370400060e-01 -7.407825627973457783e-01
1.079836101795455250e-01 -1.516416866040092015e-01 6.714286279965517856e-01
-3.640614735599235763e-01 2.631185923277826744e-01 6.930750078178637974e-01
-5.654911790656382831e-01 3.164827209682115616e-01 -7.401119829441574760e-01
-8.842702768293069227e-01 3.466333032669172143e-01 -1.266805309689094661e-01
-9.038149361800883463e-01 3.928180604145558585e-01 3.771732039844585826e-02
2.427651034462479096e-01 1.663061269651189555e-01 -8.448940839531728919e-01
-7.258881263961133867e-02 9.626768588210957156e-02 8.611976889678417679e-01
-2.487733336794916567e-02 -2.701003594702581778e-01 7.967989465338223276e-01
-3.932945840262346282e-01 3.341299214631354153e-01 -8.521529968090247875e-01
-7.514500868986792037e-01 1.492174935536246250e-01 4.172112875609056415e-01
4.014865982861891558e-01 -2.493077497435549905e-01 -8.034767555147575013e-01
8.850494171498086704e-01 -4.786920951393207058e-01 1.276968768041083779e-01
3.351056486716068594e-01 -3.012262808622065413e-01 5.488578992631093501e-01
8.150385549277718855e-01 -4.955380288549982026e-01 3.373736728302564880e-01
4.872133721405961237e-01 -3.670387531694777050e-01 8.079624288592724968e-01
-7.794412549637840248e-01 5.107851463459245345e-01 -3.113692528787076474e-01
-1.032002630359156320e-01 -2.119576458345225067e-01 7.628672113800607502e-01
-8.015886184753969745e-01 2.137501429314129509e-01 1.285601309386144031e-01
7.055810606659494999e-01 -5.086150775526564471e-01 -1.719331536901854418e-01
-2.906095576347479947e-01 2.592695684873478901e-01 -9.182185284298943762e-01
-7.107524747750812999e-01 3.113745900747247330e-01 6.238194453990748567e-01
6.260636581327313488e-01 -4.597264047603367154e-01 2.753268918851256054e-03
9.152495232117316970e-01 -3.278555447463541994e-01 -1.098764780816101488e-01
-8.476405339565058483e-01 2.478758116553232693e-01 3.427222094331373592e-01
4.387073224832562790e-01 -4.539269004022030707e-01 5.075511974231243784e-01
3.456120879341159080e-01 1.825857088421955002e-02 -6.417743470475226752e-01
-8.549212212967668423e-01 2.902093532192638881e-01 3.709516224425734587e-01
5.196016001727925548e-01 -2.189287824225472912e-01 -4.121788767959028155e-01
9.079203698836484371e-01 -3.202806297378551492e-01 -2.027614539993678744e-01
-7.962151241943334901e-01 2.505824760167723597e-01 -1.644208587415387224e-01
5.329925011463865214e-01 -1.832193364282482806e-01 6.621962336357232193e-01
3.502906598046767045e-02 2.730114690971153224e-01 -8.335772115869183319e-01
8.317117594557357219e-01 -4.888737920848136853e-01 -2.237475114127646658e-01
1.057944689041380171e-01 -2.866568443538244915e-01 7.018275802403038943e-01
-1.493947469573320141e-01 3.361866879278210818e-01 -8.716693817259814070e-01
-3.337904007898545578e-01 1.551093865777271597e-01 -8.751415635018910955e-01
5.662855960796385479e-02 -2.497577908421071968e-01 7.057616713386766216e-01
-5.727868575399002182e-01 2.956355710897266009e-01 -2.268944854794571198e-01
-3.454499716735874859e-01 3.807614980184151343e-01 -8.322884485180634950e-01
1.836619818344052413e-01 -6.335617714085674257e-02 7.295106752088558189e-01
-6.108885087147973847e-01 2.748062874185809856e-01 1.344052913568660745e-01
-3.321283777887886757e-01 2.264539031445334527e-01 6.563696268680750956e-01
7.464964756490860553e-01 -5.445671107287609614e-01 1.302035647874533533e-02
-1.540735539686496347e-01 1.413690335895713690e-01 8.341397345756084158e-01
2.956292702868176248e-01 1.097389647046886768e-01 -7.265058822478563938e-01
-8.574174287290958762e-01 2.925017870157796129e-01 3.630924893534280828e-01
4.847002700216407334e-01 -2.057530838182104194e-01 -4.596537381422314272e-01
5.742422713845239945e-01 -1.315176864047318539e-01 -8.117319703322355418e-01
-2.046288547810389546e-01 1.333561196169080199e-01 7.041822845988451318e-01
6.137336118799866513e-01 -2.127144516678217689e-01 4.908987797581013113e-01
8.476589956187201985e-03 2.784196603688223748e-01 -7.834521914496784811e-01
-4.803098910254460230e-01 3.337710073070879191e-01 5.404730183729002935e-01
-8.713146764986923198e-01 2.949491845852487693e-01 3.046009018529782786e-01
-4.079065298059262878e-01 4.164375769787482251e-01 -4.825099586488187930e-01
-2.278764179330545758e-01 1.831192317486432519e-01 7.778039984562326037e-01
-5.195232820843804777e-01 4.443499989684656093e-01 -7.017267026017867115e-01
7.011771295526126879e-01 -1.363043845753263705e-01 -6.523438790699903622e-01
-1.153424584722845259e-01 8.814030766855079913e-02 -6.848820722972971398e-01
6.414732762413096756e-01 -2.777624390956859313e-01 -7.195851980572531836e-01
-2.577437995571043583e-01 1.444965787382477829e-01 9.069831801789528525e-01
9.978746200508777087e-02 -5.152970995541852894e-02 7.176426860846976119e-01
7.592415426928972311e-02 -6.152351934707592229e-02 7.058062250389381953e-01
6.133852772230872219e-01 -3.185636040187777573e-01 1.237360315594306787e-01
-5.618132721036347421e-01 2.793531359563632410e-01 -2.810497342388690867e-01
3.811702433235559795e-01 -4.265132938739354396e-01 5.577461333439575064e-01
2.923207228790807855e-01 1.122162981523292524e-01 -7.285182722113845433e-01
3.566599178894350741e-01 -2.393350564021124727e-01 5.536802397507252227e-01
-1.013524111817416806e-02 -9.192115483217214167e-02 1.000000000000000000e+00
-1.161488054702509432e-01 1.294788977236501770e-01 -6.654427150573984928e-01
-4.102891099495326599e-01 1.040318244330403347e-01 5.456188087474900250e-01
-5.628694778566761814e-01 1.283146373619615532e-01 4.266922467694127530e-01
5.934453044872396443e-01 -1.452382486815383122e-01 -4.007418054287897324e-01
6.081932356540418194e-01 -3.719874231031634615e-01 -1.105864497774462635e-01
1.011814417462717636e-01 4.275169750191916418e-02 -6.808705920802202716e-01
-5.763625593289333215e-01 5.196828433694917759e-01 -3.633358119123651919e-01
8.630842140089944881e-01 -2.601701351769700188e-01 -2.072474935976455906e-02
6.334253626720106611e-01 -4.619609678748973769e-01 -5.600024311759546625e-02
-4.570671749854878785e-01 3.462796318885330016e-01 -3.893873512736703568e-01
3.434654756559955002e-01 -2.549675417725595916e-01 5.540574758778151754e-01
6.690323542198139441e-03 -2.428257871783041227e-02 -7.412229292183094564e-01
-8.925722481425895083e-01 3.109169252285431950e-01 5.959138360299391646e-02
7.069734621482172132e-01 -4.174287043753133197e-01 5.937785636365290332e-01
5.468355590040070435e-01 -3.779710402919483903e-02 -5.779302076296316537e-01
2.019360189616502179e-03 -2.135698755424214057e-01 7.099292381778695704e-01
-2.382503487796352737e-01 -4.957812879057254402e-02 6.688640518522601663e-01
1.919385960891575316e-01 -3.180727306415420674e-01 9.161606993404399768e-01
4.924394469084045212e-01 -2.803065427436231549e-01 4.166716067256588940e-01
-9.253727294494186462e-02 2.905251980969280126e-02 9.696885005768519639e-01
-3.427810380057748074e-01 1.175900514916456280e-01 -8.202737716427707104e-01
-2.922371722675111139e-01 2.935375693390061477e-02 6.283508692102912629e-01
-9.457052028047532866e-02 1.808708096506271290e-01 -9.787666878240975921e-01
-7.103949769817741178e-01 1.510097137882862872e-01 3.294990942053347971e-01
-8.711633517354143708e-01 3.523071867268074975e-01 3.145200081501767220e-01
7.640000034305421961e-01 -2.164692377770601750e-01 -8.858676335417890735e-02
-5.450219548548123072e-01 2.212260613277071131e-01 3.502472928262046481e-01
-4.444566750267560096e-01 1.909938156563395217e-01 -8.031429440508935924e-01
7.777619299247112705e-01 -2.270857618785822596e-01 -2.197598526004607492e-02
7.824761816990359886e-01 -4.568088421895210582e-01 -3.769066933633105632e-01
5.623185133427094362e-01 -5.185726678778410648e-01 5.314326577032275623e-01
7.407813682906067053e-04 2.624422225336555115e-01 -9.143123350538425731e-01
-7.081964078841902488e-01 3.570151865804995772e-01 -5.745343271461781365e-01
-4.368584431380386213e-01 2.394988531897816741e-01 5.069173545765256472e-01
-3.128657331649495332e-01 4.126478048525292208e-01 -7.821379220981113933e-01
6.642175129539390488e-01 -8.031548509350423803e-02 -6.001095411905612576e-01
-4.581109202949687487e-01 2.487549444264707532e-01 8.071929214409181430e-01
-1.164185709294117271e-01 3.418122596247534228e-01 -8.275047382317844979e-01
-4.555724244751434976e-02 -9.226297462028200391e-02 6.881839837863005238e-01
4.676471946522079981e-01 -4.898399014258106310e-01 6.089886469304526262e-01
1.852224824314761820e-01 1.544308149267888952e-01 -7.317307715756189435e-01
7.730886830304142254e-01 -1.663372327087490055e-01 -3.483514610220961316e-01
5.552865983399905003e-01 -2.738382389623377766e-01 3.496203847675402598e-01
8.871684200813867438e-01 -4.646299782496801645e-01 1.630783264727956317e-01
-2.300271083051614596e-01 1.200039460896044907e-01 -6.613467415243368119e-01
-7.796336797630231130e-01 4.339670818857528367e-01 -4.358477017969021317e-01
1.611318635599382487e-01 -2.411885416369127511e-01 6.521082857649854736e-01
-5.848179613359186790e-01 3.635897224122557891e-01 -6.446203652941041862e-02
-6.232402532968029929e-01 2.796851671914467596e-01 -8.851836589243250453e-02
7.530674591216063307e-01 -3.032932574524293545e-01 5.025125384248531057e-01
-4.014655522331440074e-01 5.253255862028943790e-02 9.161504341506276905e-01
4.627180921127721502e-01 -1.537738110926135104e-01 6.920816039545654164e-01
3.551001068007545447e-01 -2.272666151927932587e-01 5.617953869487755103e-01
-1.197769598866533919e-01 2.702728721218400354e-01 -6.695800531838393965e-01
6.795474410618951300e-01 -2.168994731464629067e-01 -7.115974976836443311e-01
6.188714072989702775e-01 -1.887565528447924801e-01 -3.157131123247074456e-01
6.391670758284148102e-01 -3.882748142733599694e-01 -5.871301028154258805e-01
1.702802278382747059e-01 -3.210305916495859724e-01 6.812195087993868636e-01
3.964737463733691847e-01 -2.598814193086682600e-01 8.843517258785846824e-01
-7.128228962360231291e-01 1.596914545022707632e-01 6.317488301558017438e-01
-5.654567390656308756e-01 2.615601979805261545e-01 2.825070061085575013e-01
2.771710276439824372e-01 -1.400738611817195778e-01 6.541991283551178427e-01
-6.340518116636021384e-01 4.935210023081074149e-01 -2.151380209352173403e-02
6.641274381031104790e-01 -5.079747972120871591e-01 4.032132841906341421e-03
-4.738287889673465370e-01 3.327631268539188447e-01 5.739388564296007411e-01
1.383228043240435634e-01 -1.111941747580884321e-01 -8.964995818066869848e-01
-7.516245138017376703e-01 4.531561043481522333e-01 -4.667853558343603715e-01
8.234963316226076024e-01 -5.358197128034880574e-01 5.531894541906209883e-02
-7.732387020687190304e-01 2.036293495576192714e-01 1.382222435572408870e-01
-6.315332516826352993e-01 4.280306355632532145e-01 4.658224288599851493e-01
6.058884216593352079e-01 -2.955845766532755881e-01 7.180517309448501972e-01
-1.617239989375064135e-01 2.144269615015511332e-01 -6.370784887575929867e-01
7.310399522039633391e-01 -2.135413646829848466e-01 -1.208845049753196760e-01
-2.549984437026851514e-01 -4.093693086927872871e-02 9.679472003172775452e-01
-3.655444792818496325e-01 1.640446637310007949e-01 5.715427813731120965e-01
4.703661764587366845e-01 -8.900755415615947685e-02 -5.298246638604752201e-01
6.763606677350773033e-01 -5.346041588049830207e-01 4.418460275101078749e-01
-6.800275911233495396e-01 2.330534647965455675e-01 -4.653305723418728057e-01
6.799755070720098216e-02 -3.080660297999758268e-01 8.860129336918932674e-01
-2.666417335330119043e-01 1.228487050760816851e-01 -9.017124194912875534e-01
-4.287388586904457566e-01 2.657604065514044822e-01 -4.604442219546546200e-01
3.620976852941026336e-01 1.253060473542662139e-02 -6.360827579604031445e-01
7.164211411326385504e-01 -5.167333766025815622e-01 -1.438009206060426870e-01
-9.014823174759659663e-01 3.772132463223209498e-01 -3.158077900891154144e-02
3.204689168312570557e-01 -2.715485346043239323e-01 9.190549054358562175e-01
4.032573895543607456e-01 6.443125442835766215e-02 -7.120199347374926990e-01
6.187688622500318036e-01 -4.217940892001582065e-01 6.823823952602203757e-01
-7.737621032620271011e-01 2.526648292895721237e-01 -2.622356754272687218e-01
-4.226377648527176456e-01 -5.408252273977944002e-02 8.270904045196502130e-01
7.207423287011409663e-01 -1.202157257644127925e-01 -5.452989998947013195e-01
-1.315792853699299658e-01 -1.366922976199689277e-01 9.773018173136399644e-01
-6.002867408794587689e-01 5.023847598936731496e-01 -2.000335911284408241e-01
-6.580205684064381888e-01 5.375072326874069661e-01 -3.721734725059819282e-01
5.968174561531581768e-01 -3.624454856516398649e-01 1.179893145605132726e-01
1.741954266600416190e-01 -1.356299896760181645e-01 -7.460311965247715671e-01
-3.327650410953813531e-01 2.798139315928996895e-01 -8.973290655630670187e-01
5.186388044915003492e-01 -4.866786394914762170e-01 4.145276186890166081e-01
3.470916146411457959e-01 -1.444295128550285301e-01 -5.934734203873698322e-01
-3.532091590185437724e-01 -8.449029677281613693e-02 7.200311256513148850e-01
5.654864988558948591e-01 -3.691446089722758006e-01 2.216987907715680106e-01
-8.364825738995387283e-01 2.556832662454203153e-01 -3.759052061059073996e-02
-3.570601533105233899e-02 7.011952315666451774e-02 7.916961556887294194e-01
-2.108771079138393179e-01 -1.805716168893520823e-01 8.583189168181859507e-01
2.492866447491439708e-01 -7.921748231795644468e-02 -6.473482261159345663e-01
1.202363722109845712e-01 9.363912152800589472e-02 -6.840220015771771855e-01
7.851763939367484291e-01 -2.090366188198521102e-01 -1.394705656212238687e-01
6.493630708746662705e-01 -4.857121980606356471e-01 -4.372743014485849788e-02
2.261609210828605943e-01 -2.521782429007181081e-01 6.210517535891466601e-01
-5.825999660247382916e-01 4.015750505853586949e-01 -7.126589257727385107e-02
3.985117350390481872e-01 -2.574678835156092860e-01 8.830878784297087059e-01
5.967798146686787986e-01 -3.363812788109373231e-01 1.558055047152737127e-01
-4.295685609720328313e-01 -2.875374473142547349e-02 6.583103732860444701e-01
-9.937195996065371906e-02 2.798076329482558355e-01 -6.884414994817948941e-01
6.061197360389204425e-01 -5.278784273700699581e-01 3.295545643175694095e-01
6.079124927829199221e-01 -5.326699800555928510e-01 3.627207574659527256e-01
-6.273319032514595994e-01 4.306526472776604497e-01 -6.390663586545668462e-01
-5.296964298257613724e-01 2.728470378227740856e-01 -7.670810681616007098e-01
7.741802757482644237e-01 -2.740522254537990365e-01 3.925449449123091239e-01
-1.211017659890077508e-01 -2.093273418810055186e-01 7.728367170170811207e-01
-1.258968861572059839e-01 2.859205108158041631e-02 -9.095775841160205211e-01
2.324209737145993548e-01 1.721776774203873928e-01 -8.425383367821739355e-01
-1.394379964661222604e-01 -1.336937751345153302e-01 7.067084109458096064e-01
2.200387068877524277e-01 -2.719406139818660861e-01 6.255452086823695135e-01
2.773673091985276451e-01 8.326878781547179809e-02 -6.906353617338281126e-01
-7.745949914686965643e-02 -2.444148113276468359e-01 8.022759210067936797e-01
1.982001317779890914e-01 -3.630806088093137540e-01 7.047865135400032122e-01
6.805085583635444024e-01 -2.007224553993818827e-01 -2.206460477884245042e-01
-4.240691823539857741e-01 1.040900674917305813e-01 5.369274484146939752e-01
1.045048361902481820e-01 -3.335245759694357437e-01 7.742303621693211735e-01
5.619879735502918139e-02 -8.988624572446171634e-02 6.908075833995541704e-01
-6.770699105681559082e-01 1.891036809834951149e-01 2.209995820877178885e-01
-1.505693961629544662e-03 5.595002616431494352e-02 -6.911024671652722384e-01
1.751971909794327598e-01 5.778707290066469049e-02 -9.854543559524769902e-01
-6.061466684353901124e-01 4.331269046900164121e-01 3.549620327888122207e-01
-4.508434560949122205e-01 3.482109575555391023e-01 -3.977437855075944828e-01
-4.864426922109852391e-01 4.925962416647726716e-01 -5.875651501210371608e-01
3.382919863410131789e-02 2.371503641873724810e-02 7.725405951418703454e-01
6.104344308782823081e-01 -3.905916734037006011e-01 -2.584548933934879833e-02
4.144679432844786127e-01 -2.079257609196630552e-01 -5.414474693432341779e-01
6.071949661848258240e-01 -3.347725476221063423e-01 1.123990107679985612e-01
-6.062069878559052105e-01 3.208800270164026691e-01 -6.991722090125960243e-01
4.485441984532595461e-01 -1.673481796321826254e-01 7.852685924275053519e-01
1.504573407987258304e-01 -6.436373272174877869e-02 7.181937226777495020e-01
2.601336831158234664e-01 -9.475305823282786921e-02 7.087341518036884835e-01
7.948060402697610938e-01 -4.945878880356368579e-01 -2.578457920750744647e-01
-6.276702426033264892e-01 2.318872379309394605e-01 -3.210033029540179661e-01
4.679879171954716144e-01 -2.404979450274503938e-02 -5.922188243715383882e-01
4.695783459305673535e-01 -4.819880294856389025e-01 5.146956810959592010e-01
6.489065821709735227e-01 -5.299224775317303848e-01 1.907255010981744603e-01
8.541880079171115803e-01 -3.509369042958054852e-01 -4.116695391588187092e-01
3.473275486033234882e-01 -4.312455964257677632e-01 7.672606437612236041e-01
6.204441649001232184e-01 -3.168112292011104336e-01 8.740998066298437397e-02
-1.245396836157168091e-01 1.041544648783149368e-01 -9.664106091283271027e-01
4.845229949154729598e-01 -4.107707963400940576e-01 7.787810460859092565e-01
-3.299589909000892884e-01 1.293831754587123073e-01 -8.541009081447900053e-01
6.384406649109325427e-01 -2.775495623634343101e-01 1.707830485575252411e-01
-4.423925985440578246e-01 2.642704577020721923e-01 -4.492938935161869818e-01
-5.225485801679558007e-01 3.660614713772758488e-01 4.944499678081864524e-01
-1.534382251565288846e-01 6.212483682768110693e-02 6.920390493576625834e-01
-5.873588843914957502e-01 5.166628595493383269e-01 -5.079404302266472548e-01
6.127907153318296052e-01 -3.812713822796126584e-01 7.096065752730704723e-01
2.668500356937638096e-01 -1.542559533984468045e-01 -8.969157194052913562e-01
-6.118931314618648587e-01 2.117715602736592040e-01 -5.617721750133704006e-01
-6.360013325879860790e-01 5.377151070690842083e-01 -3.401690216756532159e-01
-5.621203486045215358e-01 1.931960509880329691e-01 -6.107559072330049910e-01
5.586117696844867808e-01 -3.823023290351458270e-01 -5.546752780994742560e-01
3.751810682631047666e-01 -1.825878032891922464e-01 -8.801262753679240936e-01
7.990393279771982327e-01 -5.362632202395661851e-01 2.381027756461329969e-01
6.945764133784416705e-01 -1.403297259696811017e-01 -6.690975691889422539e-01
-2.968197365424051215e-01 9.581643466913190854e-02 -7.095100734300684442e-01
-4.963226681451963218e-01 2.317760827427653714e-01 -4.407923455745107466e-01
-1.852490941271964231e-01 3.188932109247698266e-02 -8.217420746700461187e-01
-5.871392034288194228e-01 3.651502815077203312e-01 -4.470837885857316396e-02
-3.875867965608023047e-01 -8.344153919189835344e-02 8.114607065886663140e-01
5.758453437816303255e-01 -2.033031304462937505e-01 5.185343015812560186e-01
-8.510189597177701959e-01 2.412662579187771217e-01 1.769592387707151770e-01
-6.098396090442002038e-01 4.529242247448302394e-01 -6.319137882934465766e-01
5.075673714061814529e-02 1.054533953830106147e-01 -6.827755881266036608e-01
7.792765344421336282e-01 -3.031981200316480884e-01 4.463024577553728611e-01
8.290314178546838442e-02 2.177271706114287386e-01 -7.482068297684582037e-01
-6.416211768999121601e-01 3.465230882130808099e-01 -6.605732746617646312e-01
5.904029456472714710e-01 -2.026875271994549033e-01 5.853836316145236696e-01
3.807907251565557649e-01 -2.696998873916505168e-01 -7.176940068261636885e-01
-7.126372353663532611e-01 4.405840160476025558e-01 4.383258481005159468e-01
3.284618732705705257e-01 -1.544488868614688482e-01 8.933088004739035970e-01
5.950570240018482338e-01 -4.959318573854997747e-01 6.053900681616786184e-01
6.874636826370134068e-02 -1.388889125157651526e-02 7.430542720866738504e-01
-4.984233787596641374e-01 2.204031274200279056e-01 -4.586052347102756443e-01
5.998964810792426494e-01 -3.834622443160091709e-01 -1.981599377070026591e-01
5.919709742509481343e-01 -4.402244139798899836e-02 -7.237748523889795393e-01
7.676086539754971572e-01 -2.467642782323055395e-01 2.256988931797042353e-01
3.329280929219219920e-01 -2.257862911800070649e-01 -8.117358735439903494e-01
-1.289435416104217080e-01 8.635573892451297445e-03 -8.610678821602700816e-01
3.828490170424502792e-01 -1.981295049166263700e-01 8.788050640777081979e-01
-3.587066872083427560e-01 3.997713105873638151e-01 -8.078017913878136058e-01
-8.259084752086364167e-01 4.969324510626147995e-01 1.365048960516543064e-01
5.358409251257327810e-01 -3.599777497224562750e-01 -4.453663348456911031e-01
-7.944059441168991320e-01 2.577857087443799489e-01 -2.197786998479720755e-01
-4.532789457879299322e-01 3.114220410306726694e-01 -4.062883864428430969e-01
8.269994218388717622e-01 -2.371006801378316153e-01 -3.418151192754903533e-02
-5.660402196317823043e-01 1.458284961754820475e-01 8.099554484366533469e-01
5.106818237393029314e-01 -2.120971080409860821e-01 4.991902791342621160e-01
-7.434502820025074010e-01 5.276231717711857838e-01 -3.250237504806299249e-01
-5.781211298842983126e-01 4.062948201576279672e-01 3.418831693737695576e-01
2.827367057115091065e-01 -1.927657657256574564e-01 -8.460094098131766271e-01
4.453791653499049596e-01 -2.577962993442589057e-01 4.806819235034496263e-01
-3.608714080281819059e-01 3.950699845748643080e-01 -5.286574965766890344e-01
7.193145725206993024e-01 -1.693943644614493149e-01 -2.866001258266620000e-01
7.121858824446618552e-01 -2.373857120773602281e-01 -1.683093520235101961e-02
-3.065606866046960977e-01 -8.816674482103969979e-02 9.154694716580087377e-01
1.714175086659291136e-01 -4.998266538971729567e-02 -6.783662608844109876e-01
-5.692849572269987890e-01 1.073543304125753606e-01 8.020078350237270781e-01
7.326634777242303498e-01 -1.536768080934230452e-01 -3.451621640667182356e-01
3.513303619789239773e-01 1.082889977535846093e-01 -7.978729616253726897e-01
-1.257491124920231407e-01 2.611040324344772734e-01 -9.461617680709661915e-01
-4.893448712381247012e-01 2.988464332708803406e-01 -8.046897484419350821e-01
-7.208790506129841846e-01 4.285228773621521103e-01 -5.337804863119847143e-01
6.863643559285187434e-01 -4.010574830903483878e-01 6.261113363531506382e-01
6.441005278392237798e-01 -4.745975570207279226e-01 -7.791920418320383290e-02
5.559947828000207926e-01 -3.388328092711059836e-01 -6.813888988470498953e-01
2.299271989180110276e-01 -6.429425847364501900e-02 7.528556139220206056e-01
1.965795749001942316e-01 -4.916930792949326945e-02 8.835092584870805066e-01
8.567049515522960901e-01 -2.397506270986317911e-01 -3.401051634314914973e-01
5.522426957276408421e-01 -3.714421756140189324e-01 -5.944477839827714272e-01
5.115647089508562617e-01 -7.846476882448183421e-02 -5.221424442649714726e-01
3.156968973939477952e-01 -4.288254947904165393e-01 7.469893680012555937e-01
-4.761903959904228989e-01 4.919562601250474509e-01 -5.418605916749292817e-01
2.029414024960194129e-01 -1.218744558337871292e-01 -6.985195691155310360e-01
-2.472556572507947081e-01 8.664859874563951569e-02 -7.050201055919195214e-01
-7.023871550823963528e-01 2.032638004939196774e-01 1.469650406618865368e-01
4.324653688847361899e-01 -5.221624298229406852e-02 -9.024251257060146303e-01
8.026063987360687602e-01 -5.204062007800573930e-01 -1.395969411385732939e-01
6.185002782344294348e-01 -3.337404417178978511e-01 -3.049977036199439870e-02
4.710254934752790001e-01 -2.466281932307585467e-01 -8.126553954750761477e-01
-6.136337502484275896e-01 4.552979500176667083e-01 4.025079144221441196e-02
-9.095303469558878307e-02 2.782339705511478467e-01 -6.929962441457592215e-01
-8.705772589721650911e-01 3.462316011207987598e-01 -1.918666791416144823e-01
-1.694788388137872803e-01 2.223895454692174645e-01 -9.590785381844217916e-01
4.544575420954954370e-01 -1.684768457365073968e-01 7.788849918916509463e-01
2.036852613374055265e-01 -1.455602524754535110e-01 6.586532621142051624e-01
6.599883714910111943e-01 -5.310211133128368566e-01 1.563939793298554370e-01
-8.112448248672460283e-01 5.126881319665026471e-01 -2.115251357398795495e-01
-2.284164309576740826e-01 1.229867390743409894e-01 -6.587201935741209269e-01
6.044779415212260254e-01 -3.915961265541383352e-01 -1.761011859346240938e-01
-8.836352782286394092e-01 3.984704914833444023e-01 2.216946982276817857e-01
-1.500858171464778124e-01 9.401703028063022882e-02 -9.517097142399745247e-01
6.316003360051273274e-01 -4.576003548518363107e-01 -6.523153668835750263e-02
7.266240880845447059e-01 -2.408432057948284299e-01 2.984183521007793272e-01
8.160712247675653286e-01 -3.323175806619454442e-01 3.981847977084893575e-01
5.019230428925303134e-01 -4.889279298364187509e-01 6.450892589246698394e-01
9.041451940926683584e-01 -4.596801603290447402e-01 1.851216669002973825e-02
1.479172000274041887e-01 -2.043286009616367693e-01 6.556146078924296461e-01
-4.734274573316429313e-01 1.865077116679675906e-01 4.604748266128670386e-01
3.186795779559214448e-01 -4.202219115980815878e-01 7.831484084683264513e-01
6.742614499008130480e-01 -1.119416738043161191e-01 -4.482896287389927514e-01
-2.965072698320341815e-01 -1.224304718102562917e-01 7.547857896849542447e-01
2.737045348237976961e-01 2.357052900395089148e-02 -9.637318376688901456e-01
3.799621020106983549e-01 -1.917361533631442849e-01 8.777549192522897670e-01
2.820046902614549433e-02 2.016566727229901768e-01 -9.642174998166750388e-01
-9.389365155883391822e-02 3.306181860229518432e-01 -7.711419373702401714e-01
-7.138653203752168830e-01 1.227811067411749696e-01 4.631378690553212274e-01
6.329865673116590319e-01 -4.523217357760175861e-01 -1.953956850925992472e-01
7.314406461395112080e-01 -2.367566425305241973e-01 3.294055963119810887e-02
1.449758027961837170e-01 1.665731009817963404e-01 -7.268395900245242514e-01
4.738200666221615287e-01 -2.208231852640153425e-01 -4.711189940489788341e-01
8.726074434802212343e-01 -2.753758184941518805e-01 -3.455181571286942699e-01
-7.003297601115398008e-01 4.155447835835177073e-01 4.996924367378490217e-01
3.101434888487851760e-01 -1.778777589044835961e-01 -6.412290179588089334e-01
1.674495074149409679e-01 -1.440832430866409997e-01 -8.441474218095662563e-01
-3.180693581715113294e-01 1.019174357976569134e-01 6.046949248722346404e-01
-6.590143363154639111e-01 8.301928138070210905e-02 5.509154185606677245e-01
-1.923870176335792104e-01 3.529086772142558392e-01 -8.597568808738527135e-01
-1.560517469289093573e-01 -1.062159652045871067e-01 6.946787528977014237e-01
-2.834799794068341705e-01 4.160614199211495334e-01 -6.893440755304639511e-01
-3.932263431276086796e-01 -2.377032575583441429e-02 8.966009599556962195e-01
7.350936160155947530e-01 -2.405444556367810349e-01 1.120598876551315848e-01
5.689702154190451333e-01 -4.345736764782985317e-01 2.186581732032784053e-01
-4.600892382287076754e-01 4.199742078787201960e-01 -4.026948554026851257e-01
3.664077964124944353e-01 -1.195701561352274095e-01 8.019077029976729998e-01
1.016141700947446463e-01 -1.015588759741840874e-01 -7.752512107842737255e-01
-8.071356806361724701e-01 4.179958180543064672e-01 -3.909082642210263692e-01
-2.239801709202363655e-01 3.910348821451767876e-01 -7.266744786885214191e-01
7.648406354345718139e-01 -5.195990312546256984e-01 -1.699752605850532727e-01
6.713762821896853694e-01 -2.642299132409192675e-01 4.950119053542693243e-02
-5.340302681873614066e-02 8.288763634443321870e-02 7.999989752200624693e-01
-1.571552425422701460e-01 2.049497558822832022e-01 -6.393936906568322698e-01
3.707940544509061298e-01 -2.121791603278603555e-01 5.651139188799029212e-01
-3.678049400113377332e-01 1.622077253060356106e-01 5.691681082061528230e-01
7.213653943047311223e-01 -5.441305384821208957e-01 3.522592490885472216e-01
-3.859071142072280081e-01 -8.625649241011183743e-02 7.790348003071495553e-01
-7.542353306112647982e-01 2.415906312061896766e-01 -2.372518782195496279e-01
6.041497035946292726e-01 -4.174627176512706872e-01 -2.822161351882428448e-01
-2.852382981035206932e-01 4.156564028659786580e-01 -7.501348652712689358e-01
-1.414373954906918696e-01 -6.231284447677478550e-02 6.809257267908158662e-01
-1.965742586809957893e-01 -1.797877391933490332e-01 7.864557607753980273e-01
8.874435975431755885e-01 -4.857457613440850919e-01 1.529936229965352112e-02
-8.266151886401199578e-01 3.160209977543806392e-01 -3.018607930374550552e-01
5.065874432169532593e-01 -2.560598330141751755e-01 8.032279067999159583e-01
1.642297401472416485e-01 -2.497054129279618062e-01 6.519656095199412027e-01
-6.259885850031022825e-01 2.554433380794234321e-01 1.303020380435673531e-01
-4.808550097093094444e-01 2.517806538166215136e-01 8.009650532026719727e-01
-8.366506937967995716e-01 2.613354474394069538e-01 4.135100273914419367e-01
1.279448081539281690e-01 -2.298676908587943615e-02 9.094362446560949609e-01
4.968546686918192679e-01 -3.795915489744995652e-02 -8.497857996548490167e-01
6.362760629176855698e-01 -7.398862013285659178e-02 -5.393748127738944298e-01
7.702702603103964707e-01 -1.732496852089359385e-01 -3.029438579265159026e-01
-6.586409418608950572e-01 2.219843793629873718e-01 7.176198230191632721e-01
4.833831823978566589e-01 -2.435430475151244556e-01 -4.589001011728082169e-01
-1.300337438898840070e-01 7.767250876697617823e-02 -6.930988377878755102e-01
4.042083682441558468e-01 -1.869359427942999252e-01 8.553588159763058085e-01
-5.330381774744731294e-01 1.999155996375352462e-01 -4.905924694314912071e-01
6.466516016195438254e-01 -5.203954199805522762e-01 1.476938096750013141e-01
-5.241863012213984208e-01 2.182064672042031417e-01 3.829770589644140855e-01
-7.909600572558761478e-01 3.929413777942335484e-01 4.489234711823007484e-01
-1.681213180851595657e-01 -2.922388751143531818e-02 6.726382825191259407e-01
-8.783209207209903280e-01 4.538400840051989849e-01 1.002029222727745389e-01
5.017454040661850634e-01 -3.259890325818958767e-01 -6.905770836083903186e-01
-4.355292647515394688e-01 9.560247020874163004e-02 5.346414339662060033e-01
-6.981837002487081278e-01 4.757765921473723347e-01 3.269617237845749980e-01
2.724797781704755839e-01 -7.463558645874744657e-02 8.307420836198138314e-01
-1.869743080806022806e-01 3.188388530235055501e-02 9.762437150039106060e-01
-6.098884068399588188e-01 1.832345303372401590e-01 3.070794892510997909e-01
-3.132694972757875118e-01 1.932399696255065191e-01 6.416336199901916393e-01
-3.585596850499725430e-01 2.636308084807022500e-01 -5.183479066678021718e-01
5.957071456529173803e-01 -4.575735832218790211e-01 6.664756982843345057e-01
-1.522172257696070286e-01 9.326618286365084831e-02 -9.503267021283945404e-01
-2.794171232869593346e-01 1.786767683747726154e-01 8.706650546223649867e-01
4.496043494723790945e-01 -2.042362504933371292e-01 8.268726711590138612e-01
5.134923478853263834e-01 -4.701876679924544278e-01 3.918177279641190669e-01
5.364874850571655918e-01 -2.031651691882917915e-02 -6.110245073624397394e-01
8.324820490975330944e-01 -5.165168852777664021e-01 -1.017710581692742311e-01
8.098149074476658216e-01 -2.648750589342144801e-01 2.320336671715322874e-01
-8.608336225213957249e-01 2.533773200669058867e-01 1.538557430600318021e-01
-1.131341352259723626e-01 9.579225132267313314e-02 -6.804452317939972961e-01
-8.381675668236725218e-02 -2.362437929182498730e-01 7.889666914383474117e-01
-7.660089835590429275e-02 -1.019613125410288312e-01 6.892418877304042901e-01
-4.921783332663142163e-01 4.755616423156571182e-01 -4.188119051959067196e-01
8.591336304296156579e-01 -2.421253214338425219e-01 -3.328717736293466678e-01
5.901724469327439548e-01 -3.277834276641857780e-01 1.926330519862814450e-01
5.158376987945114678e-01 -5.072305045450761218e-01 5.310722847157806070e-01
-4.109627842684698829e-01 4.612998033795890351e-01 -5.591161199825239736e-01
-7.815668221480223110e-01 2.217063139340156031e-01 3.271834585517722355e-02
1.469153306743864185e-01 -3.409726089242063468e-02 -6.836138299399366902e-01
-2.379801569113234871e-01 1.972258147090046043e-01 -9.428199565269355098e-01
-3.979994487216704790e-01 3.035409853860070520e-02 5.938295262332050628e-01
-2.538422422880968754e-01 1.964739115997001517e-01 7.524896335526684021e-01
6.560796777558772219e-02 1.076415857105058327e-01 -6.838695280361379858e-01
-1.281781794896310056e-01 2.335052943553609650e-01 -6.528558777643944655e-01
-3.862626708313524615e-01 3.834739412124839597e-01 -8.203462683566487001e-01
7.728046329274448900e-02 -1.526515281148869418e-01 6.764203048876213931e-01
4.353092413069803990e-01 -2.143310236298597571e-01 -5.182609542517122581e-01
-8.176480689160886550e-01 2.772000542289375091e-01 -2.292388493224519208e-01
-7.360036825077763689e-01 2.303365337250191380e-01 -8.718093637874128887e-02
-5.775527993694009599e-01 3.077877131481953840e-02 6.982111057608398896e-01
-8.888894264255987887e-02 2.158548977991097198e-02 -9.288063282258333109e-01
-3.336729212144523560e-01 1.021713983468064552e-01 -7.259373635999670782e-01
4.364763423916958596e-01 -2.185869138625962937e-01 -8.438698756158423686e-01
2.059298375871999598e-01 1.784601253792089948e-01 -8.810447181192166966e-01
-1.205221196186379434e-01 3.036338219797350413e-01 -6.924345390938629885e-01
5.998933289105238265e-01 -4.201530910009226849e-01 -3.753493814574852538e-01
-5.621555834084394077e-01 2.925811590275860796e-01 -2.565221744067052168e-01
-6.568225710826302022e-01 2.375142144818739032e-01 9.260497436709100305e-02
-5.340536770221721019e-02 6.568328463344748347e-02 9.171413250725262145e-01
-3.507845241109092127e-01 -7.118279351138785682e-02 6.963844749553348423e-01
6.464544724111954688e-01 -4.126649732330450182e-01 6.629555154084217916e-01
-7.712459944513642141e-01 2.332205485707257442e-01 -8.378788475420305415e-02
9.148484849120827045e-01 -4.187667754043430390e-01 -1.116302777672508739e-01
-8.862862212377972115e-01 2.937588908482299810e-01 1.054999989280726580e-01
4.663286135908121244e-01 -3.276845691529643445e-01 4.152140297610045772e-01
-2.351286187653062465e-01 -1.047780879741592036e-01 9.503699938493025412e-01
-7.148292474290103282e-01 4.250817422709470272e-01 4.723290607850936240e-01
-7.113118984424593449e-01 2.856066402715068953e-01 -5.295938737346793657e-01
-2.809595877817746556e-01 2.191265848467025545e-01 -9.261465146213201383e-01
-2.822128337161819989e-01 5.906940751551620480e-04 9.638169514534298266e-01
-2.179716054989324150e-02 -7.494719968377436259e-02 6.903487289414759198e-01
6.818337957315314668e-01 -1.008970298602160781e-01 -4.966850919737740844e-01
2.410229160114430724e-01 1.456511216380053375e-01 -7.504373077349403287e-01
-7.880475979558718702e-01 3.381155855924094511e-01 5.087522682750227343e-01
-4.102297026495655974e-01 -5.301906237116466719e-02 8.487663020740702224e-01
5.622358787659340607e-01 -1.931767893004678327e-01 6.246357784186676865e-01
-6.001482324789118028e-01 4.269465239396362799e-01 3.353523090284635938e-02
4.680620055723845874e-01 -3.691042485853005539e-01 8.172483192050974399e-01
6.943458841022144279e-01 -2.457490046175830611e-01 -1.401617382899431052e-02
6.956124227627884515e-01 -4.984023906178383645e-01 5.203410719053861433e-01
-5.618184694793477707e-01 3.501622323350203070e-01 -1.800167849392663999e-01
-8.141340473149080159e-01 3.122722460390895405e-01 -3.323614101753904482e-01
5.397511433603792153e-01 -3.890649780253228052e-01 2.787746247233098273e-01
3.806819086705991173e-02 2.339463929407073206e-01 -9.323376815475454826e-01
-5.848386416245773267e-01 3.606234550015839924e-01 -6.769878297672608791e-02
-8.868005638360722254e-02 -2.451428039483765919e-01 8.447695638381221839e-01
5.253012430015676637e-01 -3.640507510340265651e-01 -5.364631198600589013e-01
-5.571502957871632411e-01 3.820389649915671704e-02 7.660887932564025560e-01
8.291638950015985943e-01 -2.085503994332759126e-01 -3.806060774683250325e-01
3.413064623509736578e-02 1.849042715499643608e-01 -9.729064599001000513e-01
-1.881710135338345580e-01 -4.881866795075463783e-02 9.865013807806527479e-01
-3.299831146110112079e-01 -1.145393923485201054e-01 8.392743821893761114e-01
6.450872339932405275e-01 -1.108677074473277957e-01 -7.239508186132087575e-01
-6.050981650752280672e-01 4.306088683621174806e-01 1.785723886363892454e-01
-5.381766100960559962e-01 1.631001411239380375e-02 6.225324887145186059e-01
9.132995212681025432e-01 -4.264163547483817984e-01 -1.021702153468512647e-01
-6.341688961289659865e-01 2.559154065779276066e-01 9.801238726620077613e-02
-3.791378133973210551e-01 -8.458557042361534994e-02 8.307716917322117700e-01
6.690309987320977037e-01 -5.149433780709872233e-01 2.275239141995939393e-02
-3.125383704820438591e-01 4.299906150051509557e-01 -6.983219653913914637e-01
-1.700892280006393031e-01 1.426058425042857625e-01 7.627360602863815231e-01
-8.745662856822117304e-01 4.490553638468166575e-01 1.438688958704026355e-01
-6.734562787505973258e-01 4.778487799155987092e-01 2.885099467340090929e-01
-2.025957667277098473e-01 1.675140198699786032e-01 7.767348934666872262e-01
-5.497784082277022977e-01 3.813149163370010419e-01 -2.011486732951313083e-01
8.865410259202337606e-01 -3.357649141014785177e-01 1.795060429900066368e-01
-8.946757444048311081e-01 4.184272626135852047e-01 1.095679023703372140e-01
1.895016548820570579e-01 -1.340501538342198651e-01 -8.921708910013286253e-01
-2.982687297933335202e-01 4.056348255742466269e-01 -7.931542055404716685e-01
5.224631502753828149e-01 -2.989503650463633533e-01 -7.450528041051525108e-01
-5.894654666664856935e-01 3.107952367491649825e-01 -1.420888999319772639e-01
-1.829466159301594286e-01 -3.481870033129195324e-02 6.708853207416733966e-01
1.178688610912167756e-01 -1.629473766889405206e-01 9.866045105636658263e-01
-7.565443821678516922e-01 5.311860029327857280e-01 4.951800070569735424e-02
-1.580580460574832480e-01 3.262042822237921635e-01 -6.823362896829382462e-01
3.716740991953725315e-01 -2.382489262747146952e-01 -6.201063741305582466e-01
-4.454977652553850365e-01 2.780871595674176411e-01 5.185231027233264678e-01
-4.009579346439760550e-01 4.635490963922605512e-01 -6.540971185417036038e-01
7.726311678175004083e-01 -4.618126060607405936e-01 -3.738339576259234187e-01
3.406112873808749275e-01 7.442090019122338251e-02 -6.959131288942425053e-01
5.625843918514878972e-01 -1.944977827078369359e-01 5.626650514695983318e-01
-5.731209178013335626e-01 2.484041668569490768e-01 -3.304100951276411346e-01
-5.670181039808470658e-01 1.979308451777313793e-01 -6.230576480124661032e-01
3.264561626458378218e-01 -1.843042836021635544e-01 6.051132185036584010e-01
-6.802676907960201191e-01 3.308588291731226483e-01 6.339997580074904215e-01
-4.033861915562271250e-01 4.455955294435527403e-01 -7.266487230509559581e-01
3.335359409876157422e-01 -1.085353434409829093e-01 7.152583366040864421e-01
8.743455248875681152e-01 -4.136045493303626142e-01 2.738434589009872688e-01
8.604116488465471946e-01 -4.928333745282066913e-01 2.068098632268947634e-01
-5.372362015210532249e-01 3.294281954149754776e-01 -7.642475753000581573e-01
-1.114003290435221505e-01 9.211940278027082318e-03 -7.712904654640627689e-01
-5.928316845953276459e-01 3.322919824661526578e-01 6.789969444527622633e-01
-2.200301732385372966e-01 1.142760684896219486e-01 6.758166969878559582e-01
7.902414730018624267e-01 -2.059318125870643612e-01 -5.327575145761418440e-01
3.691948965997255971e-01 -3.853622394444845001e-01 8.407042135247072556e-01
4.555557259804486891e-01 -2.603181194584501812e-01 4.701819324908672049e-01
4.118696292405198967e-01 -4.571715403460598348e-01 5.649268956692581334e-01
6.347216346582154056e-01 -4.526000283359433718e-01 -2.710480402739369743e-01
-2.052525614651870556e-01 8.136008157180134315e-02 6.704485494553413805e-01
-5.665497464021549412e-01 1.791830749937601275e-01 8.052469670149766667e-01
-6.581281619780665615e-01 2.074172960071352656e-01 1.919758248797937550e-01
6.745345039109734708e-01 -2.612056260014145037e-01 2.422522015262634082e-02
5.840686535043301264e-01 -2.024888798593312556e-01 -3.397891556044764783e-01
5.610471718706482314e-01 -5.216557576901882376e-01 4.825931735172099279e-01
-8.428293435542218992e-01 4.849016646781945661e-01 1.380374183740484817e-01
1.425279292544240073e-01 -1.026106769515712225e-01 6.871272541467157158e-01
4.514260679369122009e-01 -4.452466613856478905e-02 -5.735609181854758321e-01
-8.337922544892082399e-01 2.269415325317959420e-01 3.556423543433235301e-01
1.676714839013123404e-01 2.064288001375205739e-01 -8.396803697538876010e-01
7.344838693238599225e-02 2.451255955931196662e-01 -7.874347248457282955e-01
5.323219611917279215e-01 -1.839838241898877624e-01 6.698237653722290963e-01
7.473381670249115150e-01 -1.944494507450532927e-01 -1.949388784395823804e-01
-5.973781966552206280e-01 7.352447697244819669e-02 5.108254092584737505e-01
8.213571235331269538e-01 -5.334457809656549809e-01 -3.024815285340745098e-03
4.549080650701475825e-01 -3.852028321714657255e-01 8.131250377624352765e-01
-4.691008448185745028e-01 1.127888098268872707e-01 5.029880567952881298e-01
5.868198541866820328e-01 -2.828767075133479802e-01 -2.596997962396033199e-01
1.932638951361104196e-01 1.929141537226499725e-01 -8.444896232106119394e-01
-6.650707779858804347e-01 4.420398420902358905e-01 4.375553976926151445e-01
-4.958930126347468326e-01 4.841963189772932608e-01 -6.303260253618132580e-01
9.608909651993341461e-02 -2.069694169149229601e-01 6.732807050206227606e-01
-4.870133899446540959e-02 -2.902959661308862280e-02 6.968175374710441350e-01
7.638752943206071899e-01 -2.665769497970976176e-01 -6.007426650872003115e-01
8.712276900075741626e-01 -4.188545338162638632e-01 2.817637406259168031e-01
-1.333411537371280986e-01 7.036774405187897971e-03 -8.276834338841089211e-01
-5.081539615727025394e-01 2.223371591386413271e-01 -4.484622223231641280e-01
4.510347611383203614e-01 -6.860406591943164767e-02 -8.935738345694704821e-01
-1.389946872127303112e-01 1.068599338911582416e-02 -8.431844194361399758e-01
6.673138508110365574e-01 -2.284765893711096507e-01 4.066175323161100308e-01
7.817973018430259824e-01 -2.466472624629562349e-01 1.738430718362884986e-01
2.448463798911668377e-01 -1.984880906572900339e-01 6.237209682929621968e-01
5.531304774926355527e-01 -3.257968807263467714e-01 -7.037615484349512007e-01
5.678380039520450895e-01 -3.076139820712343043e-01 -2.984843745219931122e-01
7.656804609830243358e-01 -2.225391246911695153e-01 -5.126741274115766828e-02
-1.243183486294078821e-01 1.203285919915484392e-01 8.663684491324518122e-01
6.515178392406931751e-01 -7.930428826971970546e-02 -5.407221878842112250e-01
-8.203896221059586713e-01 4.077640579758985417e-01 3.809948781615884461e-01
6.321993508361493097e-01 -5.280686315581027968e-01 4.931617315352372910e-01
9.766013335338268042e-02 1.274047969410506409e-01 -9.852726954629646983e-01
-4.690201532292167519e-01 -2.157099035606455453e-02 6.648317559833516466e-01
-5.282197871897279517e-01 4.627639852878144833e-01 -3.121997939835854385e-01
-1.839001841917636548e-01 -1.571141463925230519e-01 9.375434253998352618e-01
8.942858567878323450e-01 -2.910924723523662938e-01 -3.421674370463316517e-02
-9.951126980117953186e-04 -1.228732188545301474e-01 9.998697581830661152e-01
2.910775597861152073e-02 -1.730551840970978236e-02 9.645528816676319783e-01
