6.129821371634529559e-01 1.990280550814874372e-01 4.781397288126600087e-02
-4.959161369969570382e-02 -6.580306814659055981e-01 -6.234621924080913785e-02
-1.005273860468970937e-01 3.640657643518562248e-01 -7.640411816720988902e-01
8.160972316266670301e-01 -4.760805545716428333e-01 -3.818811293803454077e-01
8.274461383945519444e-02 4.341953607695107076e-01 -8.336045928837316765e-01
3.247797855720835347e-01 -8.955423899202946680e-01 1.050633037487493397e-03
-9.028902178038090698e-01 -5.234527533931467025e-02 5.808085725904269525e-01
-7.646318641023739371e-01 5.685313711228917599e-01 -3.098447631233664512e-01
6.388104869125261764e-01 2.076237145298034381e-01 3.459033611421397092e-02
9.001636403395767427e-01 1.965227408811446586e-01 -3.617130524653301982e-01
1.011865597470974626e-01 -2.022919614829681578e-01 -1.563316754992090385e-01
3.659386934455048923e-01 -6.859707878622938182e-01 6.323450435166395600e-01
-2.196334489590544975e-02 6.391212597665185680e-02 -2.851121513025043352e-01
8.437005798342720464e-01 -4.659422646779905475e-01 1.885207921363852845e-01
-1.406620440893753196e-02 -4.330638131934634594e-02 3.145440625104339305e-01
2.928056789964216811e-01 2.515421723334749018e-02 -7.766727122888897883e-01
-3.753365104687528819e-01 -3.439588699629230611e-02 -7.372762757010509205e-02
-4.323005230377648944e-01 4.410574814874932970e-01 5.596446085179098695e-01
6.580251525634475129e-01 -3.060985247099875725e-02 -7.373408450291839555e-01
-1.824822649534310892e-01 1.182411382904188651e-01 -1.105393746526848464e-01
-4.665007762033173688e-01 4.716258524600512314e-01 -5.891581639316976204e-01
-5.556115189023866918e-01 -2.625320113123970067e-01 8.420892604913650104e-01
-3.521568481571969444e-01 -7.997867959079898448e-01 3.008604689895628681e-01
7.498399985749151231e-01 2.996684976433677816e-01 -1.034084320226502790e-01
2.098857799894453813e-01 -7.878113311870442725e-01 6.474650473957103136e-01
-8.873105056034897853e-01 3.093835814845179999e-01 -1.435592019706625200e-01
4.264477891093047812e-02 8.262951739729749168e-01 -3.002882364825913003e-02
8.707951632261611355e-03 3.795553260075849589e-01 8.403884192005697806e-02
6.666148939758783643e-01 -2.552105906147502101e-01 3.605067910482896987e-01
-2.638361446472671790e-01 -5.313879301327842919e-01 2.096481369764944050e-02
5.566449894253502340e-01 -8.536242951612862395e-01 2.811359766562082640e-02
2.861437447261711009e-01 1.902957399295213403e-01 1.130896876827909570e-02
-9.361565831629081735e-02 -1.914146340707863492e-01 8.178548648251565689e-02
-2.809731713712912970e-01 9.931669568093118294e-02 -2.327562150458424572e-01
-6.183320635536930787e-01 2.374000571741954335e-01 -3.654903552226228536e-01
-4.627090806254545718e-01 4.648862952255825576e-01 -5.903514777050619111e-01
4.174587672536939631e-01 3.555770745663920651e-02 1.505926903008675544e-01
-1.999842815894190551e-01 -8.016659138830092290e-01 6.644393359326505877e-01
-5.555430387303360584e-01 -5.070248183600939429e-01 1.366187381417920399e-01
7.008139377274342774e-01 -5.195360669664709219e-01 -4.404075713433281414e-01
-1.224426719841723299e-01 2.358448528719278570e-01 1.646717051523388375e-01
1.291632942726936017e-01 -2.254758227929283265e-01 -3.324658244033018017e-01
4.536414235320768151e-01 7.201060168485867719e-01 -5.757638878199964338e-01
4.426521437845869489e-01 -6.904181554396711107e-01 5.775337683827242996e-01
-2.047217002949105469e-01 -5.993717084989146071e-02 8.512356399202161694e-02
-3.175929897778361211e-01 1.711231600263296848e-01 -4.416415597660318659e-01
1.509345867643406003e-01 -9.171043709395940158e-02 -1.615953320031392193e-02
7.038588135550126468e-02 8.132721290976634432e-01 -3.525800805130462762e-02
-6.927190118437320798e-01 3.506417170150915585e-01 -3.761420855089948612e-01
-8.261520355416895889e-02 -9.199347605008347806e-01 4.396656308589144135e-01
7.856726046058138957e-01 4.164356097347582941e-01 -3.948660602975096467e-01
-1.226868632361201306e-01 5.251947214517366236e-01 -7.747175618623656224e-01
-3.113504094584756965e-01 -1.566428059256350924e-01 1.552540206104915770e-02
-5.432774606212823487e-01 3.049785854818077291e-01 -4.630845024564345658e-01
-1.872890130416888510e-01 1.104160766178648584e-01 -7.446662590612024291e-03
5.978819590126940309e-01 5.927739800237935563e-01 -2.565283411614286968e-01
8.617430977231961275e-01 2.690839383042309407e-01 -4.414382880003260845e-01
1.902446064141940507e-01 -8.436142715444708284e-02 1.440888557752797172e-01
7.231284555440342654e-01 -2.051089936639163003e-01 2.858317707151949993e-01
5.326693594288259836e-01 -8.550297629191109250e-01 2.809090897988475999e-01
-1.389620007120503375e-01 1.679557377671955509e-01 3.168289210646877962e-01
-2.053167815669824370e-01 -8.665162107816558601e-01 2.655187092341629307e-01
-3.806899865915792103e-01 -1.349509498915696937e-01 8.584105905105914314e-01
8.877020464727329585e-02 -7.617815338762702615e-02 -4.731493969972936919e-01
4.118828991091350589e-01 6.322404481811099153e-01 -1.164950385088237284e-01
9.139802929707443457e-01 -4.671821181764448938e-01 -1.043942341156509357e-01
-8.595444924250005281e-01 3.602908098587182528e-01 -1.951797026935550017e-01
5.565584572309757450e-01 -3.575377809817641417e-01 4.977296103590567178e-01
7.114799751854617993e-01 -4.699308013371039650e-01 -4.796781926712562760e-01
-8.380793913551963514e-02 -7.838839373927494192e-01 3.773807509943119531e-02
8.047093166551329002e-01 -5.922082916376953943e-01 1.859078239715823977e-01
6.908581519250162062e-01 3.101447728847714358e-01 -7.108766835766774372e-01
4.641692129107772846e-01 -8.306613611955582233e-01 4.300827754258103042e-01
3.251458557999113430e-01 -6.948340986423220955e-02 -7.374940301352785887e-01
4.825267405717889591e-01 -8.055431690249927890e-01 -1.591025876531078076e-01
-8.707913347499576240e-01 -3.084625475882867285e-01 3.878861190182822938e-01
-4.076101602494539011e-01 9.352030433521527630e-01 -2.867762398606513163e-01
-4.934983660408358563e-01 -3.103317629472455708e-01 1.987024231541606109e-02
8.880701773465642379e-01 1.781418958352135595e-01 -4.692153371355872182e-01
6.572683183068289692e-01 -5.120673358377062501e-01 4.381454497796440917e-01
-6.957520622001177601e-01 8.857733696310145233e-02 -2.036724753406966570e-01
-7.340675273775473242e-01 7.215364582590647613e-01 2.101149459751475712e-01
-1.917507689797563752e-01 5.832377223307428915e-01 2.877960418347552118e-01
9.407179556697084499e-02 3.461246085121614247e-01 -8.295364514058151117e-01
4.682754970208051204e-01 6.261609978319606640e-01 -6.920390427326371663e-01
6.362485487222429015e-01 -1.997870566606979315e-01 3.458190558949665316e-01
-1.109068306068871912e-01 9.599434914333362379e-01 -3.819185906735902969e-01
-4.519333389994161648e-02 8.645642200768983709e-01 -6.036789698523259418e-01
3.647992044909685871e-01 -5.959214157401097889e-02 2.539470332286682397e-01
4.950999554107897160e-01 -3.477733265629068260e-01 5.373239149520581126e-01
6.679865909712722205e-01 -1.326653767686759300e-01 -7.010400992964612721e-01
-3.462722601792885269e-01 1.330012755475675768e-01 -3.448902346410989694e-01
-5.194519276757727372e-02 6.080685517605354667e-02 -3.783806586102437808e-01
6.174636328833927462e-02 5.068828605285431443e-01 8.579941461112519652e-02
7.407690889804754431e-01 -4.713776397709764643e-01 3.466973643842634623e-01
2.457728573681615125e-01 -6.176640746818690131e-01 -2.984710347942954867e-01
-9.764115306761538271e-01 -2.768892554475508097e-02 3.510659040129308628e-01
-3.179352979651113575e-02 1.189591672325227556e-01 -1.783404332761599487e-01
-2.686223852844662474e-01 -2.447657105334863636e-01 2.851426711108483517e-02
8.322779180427751777e-01 2.867811694208646789e-01 -5.198230746930510016e-01
5.858466012884965268e-01 -4.151156383220159229e-01 4.948424717390853544e-01
8.654774659514948842e-01 1.380208938629919058e-01 -5.491247446655465048e-01
-5.093273041683723523e-01 -2.129454881472981342e-01 -1.820939514871258366e-02
9.450592713717524684e-02 -4.975299684307291082e-01 8.015075607555344206e-01
3.204977037593335631e-01 2.173892603945199731e-01 -8.436020513609348015e-01
-7.244000477558693030e-01 1.687120773845464383e-01 7.079747587704273704e-01
1.190692142498758072e-01 -1.591590201857747688e-01 -3.849282278701811610e-01
-6.946131991299450137e-01 -1.361074969904521037e-01 -3.547848481770977946e-02
9.006862807523861869e-02 1.067847564393088894e-01 -7.267948290473996709e-01
-2.570365161543510801e-01 9.757433682569695288e-02 -1.987827145926039374e-01
-2.784563165039428134e-01 1.264021355611152919e-01 6.964429848015654123e-01
1.994515805099900119e-01 -2.305639999784629413e-01 6.434023189146390598e-01
-3.376373717602487723e-02 -1.798286009916540487e-02 3.427010452813471497e-01
-5.603006898127189661e-01 -1.747179008551615897e-01 -3.774506549140005385e-02
5.469718896109434514e-01 1.281623254589698280e-01 1.018436929773928884e-01
1.047733312962822877e-01 -1.713137224328302177e-01 -9.309783456702398763e-02
-8.653892688999937910e-01 5.103846466932502324e-01 -1.656301797442718549e-01
7.666808113696362004e-02 -3.969686778246809267e-01 8.004195882985651878e-01
1.438759847807308534e-01 3.519963515181457892e-01 -8.410644739831625305e-01
9.083069289767983778e-02 -2.155625444579569727e-01 -1.218737435298421351e-01
5.571375636938687981e-01 -1.755192442380089923e-01 3.709419354582352835e-01
6.101741598404208933e-01 -8.224798774848697258e-01 1.255973753351248209e-03
-8.987706334001751562e-01 1.933560889160185203e-02 1.874969507006277181e-02
2.899690196484120408e-01 -1.701429166666269532e-01 4.943444218907440124e-01
3.077616472707753181e-01 8.036218606855086155e-02 -8.044219752848823513e-01
5.841102653527586314e-02 -1.566860533103367481e-01 8.981906920833768182e-02
-1.723642721300056857e-01 -5.466761206850906385e-01 -1.625046712281034977e-02
-1.672194394214417401e-01 1.310964828168399432e-01 -2.375773688789322227e-02
-3.223650924007387397e-01 8.193911899509352947e-01 1.760828926067207478e-01
3.538555820904339400e-01 -5.603026922833875823e-01 -4.068455563655830609e-01
-2.139617603338927754e-01 -7.341739440467784927e-01 8.252257079405755924e-02
-7.529949023707931399e-01 7.606773088599297905e-01 1.495258664347184907e-02
1.231273023937076994e-01 -1.342583246814370579e-01 -4.604528988113618659e-01
-6.377269020084000428e-02 -8.263045870797469661e-01 6.876971788418437259e-02
-3.544178935151359178e-01 -4.093758270993606563e-01 2.847679994247570220e-02
-6.023365361396207929e-01 -6.429480798564062294e-01 4.950221913804951357e-01
-4.360592249798282416e-01 -4.603099780405477404e-01 5.944921190870444683e-02
4.027878485270691700e-01 2.666948059859990394e-01 -8.450542044960563937e-01
-1.766925361444893761e-01 -5.482161490404101611e-01 -1.400389554140016833e-02
1.548470456946494933e-01 -8.232851306272526148e-01 6.337613774075391282e-01
2.214510006171119261e-01 -7.178886865742285794e-02 -6.800953218246331700e-01
-7.173845736008410690e-01 2.060136774921459968e-01 6.957359712534084695e-01
7.044151674387622020e-01 -7.060270798711371087e-01 -1.829941632795991369e-01
-4.080796358224341169e-01 9.309215510419464046e-01 -3.049546358289553782e-01
-1.459624217489263465e-01 1.602585769489986434e-01 9.222555349252738177e-02
-1.219771720958659905e-01 6.066128924321114585e-02 2.552120749441513792e-01
7.141779219894763830e-01 -3.979573539814905137e-01 -5.356913025748333279e-01
2.502039130857848237e-01 -8.780591452267433317e-02 2.764734489870462886e-01
7.722741156840952081e-01 -5.977506552260644090e-01 -2.833219524022486668e-01
3.952299153978058865e-01 6.906479779215993764e-01 -6.776913639101947995e-01
-1.072315186063890202e-01 7.247741110958601241e-02 3.262402409581881546e-01
-4.824256941100929508e-01 4.039810726970443078e-01 -5.583118288884991731e-01
6.036434630936953205e-01 2.081832285323011733e-01 -7.875666611604604794e-01
3.003474905374057813e-01 9.707123873871305320e-02 4.091854090234110786e-02
8.003645632473569416e-01 -3.963911446615642764e-01 -4.729278333581327654e-01
1.183499593215289053e-01 -1.906033214082356042e-01 -3.118980436064551776e-01
-9.143218217420137073e-01 -1.904044803991565560e-01 2.678553751193740728e-01
6.703726890945277406e-01 6.143016731496419441e-02 1.244900171110304293e-01
1.646982895609050146e-01 5.143303774074989843e-01 -8.339083145825324506e-01
8.504540921481651417e-01 2.754550578395190685e-01 -2.503808993955297102e-01
-4.202393337168462972e-01 3.700846710406533457e-01 6.058291575396994588e-01
-5.775876199735250349e-01 1.339415103859321055e-01 -2.925533555537168651e-01
2.019347551845570091e-02 3.841497155444011935e-01 -8.146666849329559090e-01
-7.468135653225635995e-01 -4.913635922668764255e-01 3.974237624393858748e-01
-5.329796811304190335e-02 -1.221905055558504261e-01 1.557860643953250801e-01
2.820406637547324680e-01 -1.011459878898650910e-01 3.325951244235836879e-01
-4.656926686001733873e-01 -3.917968363557099848e-02 -1.130454514385930836e-01
-3.880164348556455756e-01 -5.094653556505447378e-01 8.360271291071532662e-01
2.190281858978481919e-02 -2.924358487686170016e-01 -6.562747065180778161e-02
-5.679941800805643481e-01 -6.688513476976122307e-01 5.169841750717323325e-01
3.673555071456470755e-01 8.104725299046744436e-01 -4.380908683808060755e-01
-3.041768922919176887e-01 -1.916514368478301478e-01 2.099825957429226134e-02
9.126068185487569151e-01 1.628859384133376498e-01 -3.537181516619049559e-01
-7.385696684730305162e-01 -2.150917968998337093e-01 4.163473436011627671e-02
8.445146881434342778e-02 3.321374909333600633e-02 -1.781572992465440541e-01
4.501089842165765798e-01 -2.525156142241127277e-01 5.009970695735915802e-01
1.567477992088180949e-01 1.467855735037960352e-01 -5.614256328972375143e-02
5.215009793842110275e-01 -7.267550511056747320e-01 -2.704965752932227407e-01
-3.186732497293714994e-02 -6.421144100328304294e-01 8.007264646481099257e-01
5.983108050858354510e-01 -1.426288437972930978e-01 3.212994826947626614e-01
-3.488340635787181565e-01 8.294405089135440390e-01 1.702216203524627713e-01
4.317981446608305102e-02 -1.832740767015890171e-01 7.135259572316734467e-01
4.117791423854565147e-02 -2.234619725715429259e-02 -4.387480483184790225e-01
4.152928283679167554e-01 -4.349952656907996040e-01 -5.308300102106036089e-01
-6.532286805362368387e-01 7.854045314649453768e-01 1.706125405296349262e-01
-2.694231996536431972e-01 3.169711042248067323e-01 5.281051342032619944e-01
-2.653672170065700039e-02 -1.511114372003850327e-02 3.743730784526703159e-01
-2.879098860643380942e-02 -7.549238068623301823e-01 7.318138733357633097e-01
7.486864445313597960e-01 -5.941540960399487314e-01 2.948816878362220950e-01
-1.072671479759530339e-01 9.496772085801076513e-02 -3.104961146857407872e-01
-1.824602346815955567e-01 7.035217933146460656e-02 9.406491062698719985e-02
-8.984459030788677358e-01 2.020739525280019766e-01 -8.983582492680192155e-02
8.266381431624391096e-01 -4.491652429714927397e-01 -3.963314159860845676e-01
-2.439250710828405055e-01 2.149890826636227312e-02 7.510451172567981226e-01
3.259329932639731808e-01 -1.505447985395757249e-01 4.379284301655104183e-01
3.061981592303378297e-01 -3.395891551912587625e-01 -5.381017577974049892e-01
-1.904288636198794571e-01 7.824612330809255223e-01 1.563687950776008473e-01
-3.241457413213863492e-02 -6.661677931436505995e-01 -7.038072616284550553e-02
-1.510690434067035459e-01 1.294713476178943612e-01 1.590371794048966170e-01
-2.432520716280749118e-01 -4.830760377033797570e-01 8.104513243090513686e-03
5.445316615189010889e-02 2.790664290770608069e-01 -1.050572553768213194e-03
-1.376358511161910048e-01 1.054820489737833406e-01 -2.839672855660138051e-01
-5.460434855132978438e-01 -4.112551578577376410e-01 7.462373420542932345e-02
-8.844000147826304170e-01 -2.678304984368483632e-01 3.129982515201761850e-01
1.745834913831420254e-01 -1.150688348383160226e-01 -5.930377587890549584e-01
2.353748387845165102e-01 3.430277192695257993e-01 7.562778316019007005e-03
2.789779451642434571e-01 7.889910884254813794e-01 -1.697927920038682925e-01
3.986398715396336639e-02 -3.161412582987208619e-01 -1.086080258943086796e-01
-6.795346230771970308e-02 1.233651365625022256e-01 -1.814605529113476057e-01
-2.333147134393840638e-01 -3.937109364702941483e-01 8.398985786243869794e-03
-1.363952642055657194e-01 1.187487860177187243e-01 2.476188825711801433e-01
3.310285599650893418e-01 5.087958385393989147e-01 -1.955900487538540788e-02
7.211341132887499894e-01 3.184494249234002261e-01 -9.218135559332817086e-02
4.116809425051835142e-02 6.719952067271715013e-01 -7.717063187993967732e-01
-6.477631330498024864e-01 9.173251625204414950e-02 7.659949171747735264e-01
-7.366696670904222533e-01 -1.689667275669753665e-01 7.405452876099967614e-03
-8.403895609663007971e-01 -1.666533858651445821e-01 6.486753592954791481e-01
-3.917809456364905185e-01 7.422355317427499211e-01 2.869512515538659714e-01
6.318494863082367574e-02 -4.008398330851050545e-02 -3.245416871021578609e-01
2.579332880667317140e-01 -7.569784805417659745e-01 -1.892290343321654245e-01
2.292775463603103081e-01 8.575787289163692151e-01 -5.248797453553072367e-01
2.105088363051397515e-01 -2.739503244278475580e-01 6.740347599562513947e-01
7.158613995632984173e-01 5.066017010973039580e-01 -4.625486084070146720e-01
-9.851341755408302148e-02 -2.343824478672540679e-01 8.226759063887219003e-01
3.243086107999474006e-03 -9.297429956435390164e-01 4.556947630034829944e-01
-3.836274500685461497e-01 -3.976416535889172321e-01 8.686668787975151407e-01
9.159626333030855827e-01 -4.459681401940396306e-01 -2.224977966362860077e-02
-2.586533283825520613e-01 2.712209720876001540e-01 -6.198181898214063512e-01
1.526888272584527861e-01 -1.409927883261459791e-01 -5.258222551281901413e-01
-6.148393942358917341e-01 3.563725735322477717e-01 -4.417628627901458160e-01
8.209575079130813219e-03 2.322101152333893304e-01 -7.601698717790676962e-01
-8.022617709474291203e-01 8.787916292289156550e-02 6.850050633948785439e-01
1.836899076938768027e-02 2.170902185705796406e-01 -4.504054678753213053e-02
-8.900174915314554847e-01 -1.537624606425557205e-01 5.725110522208016750e-01
4.191571441348064531e-02 -2.423203027602374368e-02 -4.137561679625965660e-01
9.211321570302531958e-01 -3.136047580450549987e-01 4.311384319207673538e-02
-1.533756465048906614e-01 1.229974049800585389e-01 -1.617267873379697463e-01
-6.191222888349838527e-02 2.255723655036931397e-01 7.877615790705588816e-03
-7.779025979709737193e-01 -1.461541888539425738e-01 7.217490871173979361e-01
-4.405535569898957893e-01 -7.617475091340101256e-01 3.663866278259780285e-01
8.463552726363769985e-01 2.640905540393450601e-01 -5.066093202941066576e-01
3.833830493923305327e-01 -2.371839313356193663e-02 -7.755184409277964264e-01
-1.206976195634838628e-01 5.490908833886520846e-02 5.890166939408509883e-01
-2.938945573944464276e-02 -4.003814533902065598e-02 2.969421547117348514e-01
9.529019113004089103e-02 -9.499721131464259338e-01 2.476183338920800447e-01
5.211623132334368691e-01 -1.279052381205190159e-01 3.384542713015950555e-01
8.625841290165001674e-01 2.508242959962901919e-01 -2.447784384358426268e-01
-4.110771671906670588e-01 8.103766295185120538e-02 -2.416323655481545651e-01
7.193326905917146741e-01 -3.452405228090065226e-01 -5.693930854539208664e-01
-4.989244589058404733e-01 7.402987394007224387e-01 3.049433187325766292e-01
-9.888140977378662155e-02 -5.509337288481699346e-01 -5.516022155813785771e-02
4.603642845564279162e-01 -4.927484267376266991e-01 -5.000930216442434073e-01
2.498135745412781994e-01 -1.152106325396137256e-02 7.151085222721212387e-02
-1.951768687861053786e-01 -8.560958007817354165e-01 2.256933090040167955e-01
-2.460376760707996269e-01 1.186242585756145107e-01 6.766881078121126381e-01
7.536721019924262632e-02 4.900956024697576963e-01 -8.291359796144908145e-01
1.634252521188918617e-01 -9.091414312395980080e-01 6.715059574507366291e-02
-8.820356618169554741e-01 -2.422043454497060377e-01 2.509477225974703907e-01
-2.072353569183730537e-01 1.115136481892061437e-01 -2.758009157217991003e-01
1.910632292341174487e-01 -4.527849329790366584e-01 -3.429668265007926320e-01
-4.775535053351692705e-01 -2.810715171185815264e-01 8.730108168973009508e-03
2.821466862281264976e-01 -1.558494216174886315e-01 4.726590728633965899e-01
-2.764231330638550754e-01 1.927464697206638863e-02 -3.118791805296030478e-02
2.587630683001481136e-01 8.669890716527309804e-01 -4.252273244974087429e-01
1.694595992509075610e-01 -6.366534824305361551e-02 -1.014407377576634871e-02
7.001261288201499067e-01 -3.809680294559850133e-01 -5.551699395635996126e-01
-7.452731041241890120e-01 1.272938072685568800e-01 -2.033929687209955761e-01
-2.623011213802306507e-01 2.965602498429747991e-01 -6.381964043574173129e-01
-7.114591052220062828e-01 5.412856080467269848e-01 -3.832952281377386416e-01
1.251960088407332583e-01 8.730995809721981971e-01 -1.603999115551391907e-01
-8.524216147962578038e-02 5.670011345955092846e-02 4.417191397544911746e-01
3.110688305945432663e-01 -4.688281650750496937e-02 2.015052057588064549e-01
-7.696696924472244961e-01 5.186999377546042123e-01 -3.169068654457894985e-01
3.853186664587382460e-01 -2.454208236238927254e-01 5.337325750639264621e-01
-9.295254752847338375e-01 -1.647591410979637183e-01 4.435977353443929516e-01
2.959421255426478419e-03 8.798541056342937261e-02 -2.075103719994058349e-01
9.097748421746444658e-02 1.032840698627453119e-01 -1.205276002110105132e-01
6.505101964836736972e-01 -4.852725274620423024e-01 4.460829463317821930e-01
3.930609393379350669e-01 -1.929983047147824926e-01 4.696893544900961337e-01
2.887453983374126398e-01 -9.279275599618389547e-01 9.444576193764767091e-02
8.851641344330878347e-01 -2.413222826897499229e-01 -4.741750623137259146e-01
-7.130494974670568142e-01 -1.385062308235311679e-01 7.720657212548834858e-01
3.073924004836938728e-01 -3.571611154211726258e-01 6.649794021662169818e-01
7.753811842246592645e-02 6.415931239010479181e-02 -6.803672389144134192e-01
-8.612100508660108789e-02 3.397518143421924264e-01 1.663399537891795121e-01
1.422146578976278830e-01 7.082716297308529543e-03 -1.039895372500920789e-01
5.256162160051917054e-01 -2.424692773247325850e-01 -6.795331618706806909e-01
1.832581872941150269e-01 1.095299229805132973e-01 -4.743708641889375632e-02
1.833033588591329865e-01 -4.870483888141710627e-02 2.883002061687408180e-03
-4.827500589400485764e-01 -7.408898435818260797e-01 4.524177265484991550e-01
-8.011115960254276969e-01 2.157633376946769266e-01 -2.129364400018534109e-01
-8.175764636629513360e-01 -3.825582196588324657e-01 5.052411329744243007e-01
1.080444420845567272e-01 -1.403813460638096422e-01 -2.475021957552244745e-01
2.690026109775581764e-01 -3.571315526502287230e-01 6.882776922736882907e-01
-5.901613325586357872e-01 -6.016716935412059764e-01 2.661524951173752651e-01
1.183138654240958876e-01 -1.304290729926217973e-01 -1.281707850167227158e-01
-5.122753555424418570e-01 5.956476441283352630e-01 4.569235624245149285e-01
3.802709758277432739e-01 7.891044202594019175e-02 9.838583270892184429e-02
-2.423336466565893799e-01 8.522109187090821658e-01 1.036084904609735347e-01
2.579764051867243779e-01 1.153811261690828593e-01 6.505476850627604432e-03
-1.500321513090480674e-01 2.765346877407403592e-01 3.046497177044685256e-01
-3.724805031995578886e-02 -6.817445917205866568e-01 -6.033043247760851158e-02
-9.473837948602382986e-02 2.294933243884807461e-01 6.506038877529277120e-02
-9.187614131690376995e-01 -2.034908990204579160e-01 4.218625119102577536e-01
6.973811068884429032e-01 -7.007141130612357660e-01 -2.033299763151117379e-01
4.015819597046708656e-01 4.579915456525962547e-01 -2.530870858158165704e-02
8.220014564539287472e-01 4.417588017421186786e-02 3.189566060845250989e-02
-3.598262257454579172e-02 -1.558011623627117981e-01 1.207899897448178189e-01
9.015876366032515854e-01 -3.924222126672475830e-01 8.038748472466858419e-02
-4.521558808845020372e-01 -5.247914308622826374e-01 8.068373608562008359e-01
1.408201997360453983e-01 -6.344762236027307045e-01 -2.105821955739981266e-01
4.286103599548483079e-01 7.636285081070471881e-01 -4.988764183172704758e-01
2.212004856236892691e-01 -5.266188385784827813e-02 9.672679698870613463e-02
-1.794378121397328385e-01 -6.953183256215822450e-02 1.069384486960859720e-01
-4.133640791483299548e-01 7.816431527608996843e-01 -5.431434186828815180e-01
6.779762625811039389e-02 -3.673734830771984566e-02 -2.961555808432197456e-01
-5.720106909592199695e-01 -4.146638390532927376e-01 8.698826239392531967e-02
-5.075478324465377833e-01 2.059087871377825174e-02 8.144934274458631718e-01
-7.563531213172390855e-01 3.796490095084329441e-01 -3.253455959673997588e-01
3.245226528381306430e-02 -1.252372557528052543e-01 1.693883979959406039e-01
-9.792803557393047198e-01 3.425956031097646681e-01 1.032841027778301779e-01
-9.657852075264615477e-02 7.374759248129629796e-01 -7.137628881252794377e-01
-2.994522955760990923e-01 1.286608753071726563e-01 -3.452166992803022971e-01
-9.146347412734397997e-01 5.397072918906569150e-01 3.133544537161521426e-02
9.504323500299669547e-01 -1.570430559258239600e-01 -3.688710095327774052e-01
-3.634398554672360060e-01 -5.236377832423069062e-02 -5.246218551191392243e-02
-9.239973933503378145e-01 5.285072637631567094e-01 1.010024572951636335e-01
2.741200933234212989e-01 -7.838073334835236883e-02 2.557338232595974259e-01
8.786613591311352722e-02 7.444420354933455053e-02 -1.433398040787922101e-01
-3.178365513012922361e-01 -2.123051242223552570e-01 1.750535113638596735e-02
-1.109828877241354483e-01 9.111194616473392016e-02 -3.737403966414177825e-01
6.003589447711974447e-01 2.186342414736247575e-01 3.896942058603525966e-02
-5.359345943918791821e-02 -8.459246377002701545e-01 8.700358659548235174e-02
-5.484256140999815149e-02 3.396185110027943321e-01 1.209386461830733311e-01
7.585403347242462013e-01 -2.690664109899926770e-01 2.860982952530414791e-01
-1.389452707151608013e-01 2.794005115368550785e-01 2.648426708959755738e-01
-6.468235677132699868e-01 -4.021186780515092346e-02 -1.186023482700619136e-01
-5.123721882617405798e-01 7.363377487095145169e-01 -5.003727276307244898e-01
7.345580331698448040e-02 -9.187613082911011420e-01 1.366716624731861840e-01
5.933695931608387597e-02 -1.045295890415740836e-01 5.957359681061064061e-01
-1.677677949410561753e-01 1.297229542116344891e-01 1.841385543657785007e-02
-1.332388416304403078e-01 1.839196202858049967e-01 9.251042679589373263e-02
-5.289198694353135499e-01 3.982604825638953461e-01 -5.235034467876571451e-01
-1.497189481690584523e-01 -6.343937186858348287e-01 8.126413451010590094e-01
-8.146703302674446201e-01 4.175367441880782904e-01 -2.635121833893132592e-01
-5.320086491081210678e-01 8.946150731696432823e-01 -2.334343895685082534e-02
4.811552078829862272e-02 -3.032507858347345819e-01 -1.118286131842952114e-01
7.233647288291426003e-01 3.553315161654180265e-01 -1.273915366795896342e-01
3.919616264471117995e-01 -1.325903354605447448e-01 3.821607656342854709e-01
9.542861975791321338e-01 -1.258650033010130231e-01 -1.035376190689958203e-01
3.624807936463338431e-01 8.036823209899843778e-01 -4.980993263956531303e-01
4.167698051762378508e-01 -4.016816065488907489e-02 2.379373616113550360e-01
-4.603612936981053561e-01 -2.738991689786291484e-01 6.392386674103907145e-03
-5.774445937629825165e-01 -6.278647061596144274e-01 2.915790870491002384e-01
-9.636371900292850512e-01 8.059310168746933178e-02 1.023040485226481694e-01
2.450097940145684328e-01 4.341395046221320775e-01 1.173140193165146845e-02
1.992096333306062617e-01 -1.855709258820240626e-01 -5.515777667974680609e-01
6.342425929302392129e-01 1.063949392829735136e-01 -7.711566425112209577e-01
-7.176309836155101395e-03 -9.338911299051545489e-01 4.304049708126438389e-01
-8.163824491581737064e-01 5.238277818718092282e-01 4.085478202127087455e-01
1.838982531877934035e-01 -8.729555535805912092e-02 1.407999693404325403e-01
-7.465729464499766543e-02 6.024765487415334464e-01 1.792015129577478050e-01
-9.469562057338511973e-01 -1.336084554108422362e-01 3.290782981466593426e-01
-7.658032304858507222e-02 8.946796605788157053e-02 -2.867874859104276308e-01
1.351651008853739233e-01 -6.547940007888247704e-01 -1.951997030684633760e-01
7.412276792403645898e-01 -3.715235241446697145e-01 -5.385740985038899309e-01
-1.862815334307091342e-01 1.004909975329299349e-01 3.699257511044262009e-02
3.884612748738938692e-01 -2.512687722091687670e-01 -6.492179665001999167e-01
5.393588905929443122e-02 -1.236285544217024662e-01 1.702651233630784744e-01
1.994478380075700302e-02 -1.380707035674408056e-01 1.457707565872465305e-01
-2.974644262132008499e-01 -1.880850235678365456e-01 2.330661668535304737e-02
-3.377575529903543289e-02 1.181180190784518191e-01 -1.807392569655751069e-01
8.159954903730882725e-01 -5.203928543496537662e-01 2.186253594971043768e-01
5.105232378162695150e-01 -2.727069630743650386e-01 -6.617097869253518727e-01
-5.269395505062735019e-01 2.973161181310381429e-01 6.821719206686498449e-01
-5.167197194357825429e-01 -6.955148575244644860e-02 -1.010722441861202914e-01
-4.149729770701415243e-01 2.057041435707970545e-01 -4.432595107940299206e-01
-1.944659788051530114e-01 -3.717717738013215922e-01 4.368092520225808247e-03
5.394348775592651135e-01 4.870917761574260901e-03 1.985482334325897325e-01
-8.352066856384083859e-01 -3.658517945227612866e-01 3.705965147548926919e-01
-6.742743439230355351e-01 -3.824011869341033543e-01 7.404541110166473761e-01
3.059313671833163162e-01 -7.503737073380795097e-01 6.301442974109110473e-01
3.311246030780453653e-01 7.549616468984425843e-01 -6.409748211292227715e-01
6.436717878855067188e-01 3.026344818352694754e-01 -2.842100494800433794e-02
5.952623732956778824e-01 5.985241106357548357e-01 -2.623266398916492270e-01
-6.727923589248873126e-01 4.000330721465994999e-01 -4.108608149992536429e-01
-7.603495337326088288e-01 4.691905139810033099e-01 -3.328399159017580433e-01
1.108310408213892678e-01 -1.824816269453091444e-01 -2.394920948990051646e-01
5.666259749200019957e-01 -2.782648923685316356e-01 -6.570012997172525182e-01
6.611892648137931427e-01 3.183263832446106001e-01 -7.329380871766920658e-01
-1.136386759733513108e-01 -8.330105171486930360e-02 1.559488620660529345e-01
-1.900289507589096039e-01 9.466384874569143404e-02 3.667283690233480442e-02
3.616948275718880890e-01 7.886281894038802420e-01 -5.480684026913357210e-01
-6.642611284862395826e-02 -4.666148516075192300e-03 2.994998877087519662e-01
7.925982228751889958e-01 2.187819443311691536e-01 -6.337452082373048468e-01
4.491574387631832033e-01 -9.070811212013499825e-01 1.278661892908018460e-01
-2.334907939784240660e-01 -3.850238124105589965e-02 5.488870901031556865e-02
-9.643995391119107863e-01 3.773504992864034069e-01 2.855030156638482253e-01
5.196254149330727934e-01 -4.277010204197174148e-01 5.500949557147348790e-01
-4.004735872571030808e-01 7.548981048836110597e-02 7.828815634216272912e-01
-9.456640390259440920e-01 7.620011147072285225e-03 1.138602385231654163e-01
4.032863011734202363e-01 1.983200819602452258e-01 4.706246027893309924e-02
-9.393406927145546703e-01 4.511013879561710516e-01 6.457877196645598131e-04
-9.835556463441129660e-01 1.154809391110399840e-02 2.648285498616426703e-01
-1.627628438578841708e-01 1.811499446356504978e-02 1.470127799202882446e-01
-9.559706420305584817e-01 3.454280582947553968e-02 4.812142664683286553e-01
-4.539881741685033306e-02 5.952415595065212867e-02 -4.753380937315341281e-01
-2.494096830029114698e-01 -8.479570957258668606e-01 2.742977512450829880e-01
8.706949442214998447e-01 -5.099677549843190105e-01 9.063450428526073632e-02
2.719084380972835446e-01 -6.652348187742179730e-01 6.938992123209458684e-01
2.964950054289586245e-01 8.920363971855133078e-02 4.169932430784244193e-02
-4.923850201429949003e-01 9.128805318910627742e-01 -2.315080167797803068e-01
-4.175094197219501591e-01 8.109068525193205423e-02 -2.430102121815224392e-01
-2.767412632335666811e-01 5.843049526311528963e-01 3.588525456360427413e-01
2.370806050830626954e-01 -3.127837476424807917e-01 -4.891399641299247758e-01
-3.910495000936459187e-01 9.842060893791979362e-03 -1.279935993558728446e-01
1.168857617410871130e-01 -2.785609052924917783e-01 -2.641825730513226445e-01
-2.155014397620181044e-01 4.713170052268909616e-01 -7.344487020325802806e-01
1.577853389870134959e-01 -9.251959591970915220e-01 4.667275548734562407e-01
-3.134373643509688612e-01 1.319090358727255108e-01 -3.505792041059109798e-01
-7.895151136363423028e-01 7.115134251325834214e-01 1.154529278285530702e-01
-2.329689060952090940e-01 9.389637992616108042e-02 -1.218202352175306730e-01
-1.950079821861049889e-01 4.879354361130993079e-01 3.307155771337322303e-01
-3.047942387218776639e-01 3.264470962021900902e-02 -8.455509430811274096e-02
-5.119706725028193989e-02 -8.047001181648250068e-01 3.627437619877943442e-02
2.427017508826158909e-01 4.767775764211868439e-01 1.105426932503225136e-02
-5.463731970577514474e-01 -2.305722610635805581e-01 -9.556368811915998823e-03
-3.875364888176469069e-01 2.560151740769159301e-01 -5.189836975186986612e-01
3.138847492632770853e-01 -7.697565011818316427e-02 2.718302463189911089e-01
-7.220114514374561532e-01 2.089183350497553771e-01 6.923199985991445038e-01
-8.310170710691335838e-01 -2.116877300864416778e-01 1.221132276218394458e-01
-8.058356879539414486e-01 6.651522715017567089e-01 2.075173642562612442e-01
4.225479137699791332e-01 7.716290539311245755e-01 -3.512842600762489109e-01
2.562568640656888719e-01 -9.141849169666065311e-01 4.486236100821127115e-01
1.274702437175171676e-01 -4.183656855213023218e-01 -2.702153107856428149e-01
4.334849510444211407e-01 -2.303858712420528421e-01 4.898715311120125926e-01
-4.491574937163257397e-01 -3.424950363545086196e-01 2.612244207491223880e-02
-4.185746038923963130e-01 -6.285070458405855875e-01 1.369864737398357457e-01
1.285619831261732016e-01 -5.192527466862040253e-01 7.877305453172267491e-01
9.170911073237774103e-01 -4.138628464892002978e-01 1.555562050334825287e-02
8.153624000465669042e-01 -3.964756082673300819e-01 -4.574856144096987043e-01
-5.587688288463403818e-01 6.355552023077000179e-01 -5.109225734127591512e-01
-1.102935487491714661e-01 8.152433623361130671e-03 6.445769512689737413e-01
1.559979890921147361e-01 4.757184059135724508e-01 3.828668733073959524e-02
-6.213762237526809784e-01 -1.461068261818075087e-01 -4.901735351485280584e-02
2.269443492261001560e-01 -4.451047509805765579e-01 -3.881475908300325850e-01
-5.064574509306355443e-01 -3.435314379638835791e-01 3.398832750944548453e-02
4.258756834237431010e-01 -4.469306387449403090e-02 -7.717959698145335778e-01
-6.799811944537192954e-01 6.358555432606627367e-01 3.870124087975355121e-01
9.244162832507414607e-02 -2.635241432738313350e-01 -1.810999458571393994e-01
-2.840693665294718451e-01 -3.403246080860415912e-01 8.799035419859342344e-01
5.491918764095145011e-01 -1.186248298539591267e-01 3.191639273760769613e-01
-6.463919669584262673e-01 5.709236363292463645e-02 -1.981913344008942035e-01
9.565494768193479880e-01 -2.716322479822693148e-01 -2.678943108913022786e-01
-8.836643840433119346e-01 1.402723629059468178e-03 6.134889080302348141e-01
-8.047967971822279631e-01 3.101730702135366280e-01 -2.518509205246727278e-01
-5.797638119403632218e-02 1.785076947413845316e-01 -7.227311157361721028e-02
-3.792327249963237668e-01 -5.393937373348109965e-01 6.783608548873032440e-02
5.582575146282958700e-01 6.649525458025338231e-01 -5.007492467671134095e-01
-7.116999169888746923e-01 4.601642060017032132e-01 -3.856750944297497874e-01
1.166448244146445906e-01 -3.369923443505999372e-01 -2.610363161417681432e-01
9.465703231690831831e-01 -1.957103425093940363e-01 -3.657391851030932228e-01
-1.647428466965341065e-01 1.325601400862317925e-01 -3.872364928178032711e-02
9.304917571902173723e-01 -3.137690422132468626e-01 1.497488739451575263e-02
4.403972063588463270e-01 2.700924262317185298e-01 -8.391077589677070625e-01
2.347378785009893165e-01 -4.233570613836805663e-01 -4.098372780291507644e-01
3.837047521659084914e-01 -4.283181814573276402e-01 -5.222333870238783371e-01
-9.338002668170090059e-01 -1.681870102557207203e-01 4.011434922725648500e-01
-1.021319443694153339e-02 -8.135696388567349446e-01 1.877385320415526221e-02
-4.018806076547804668e-02 -4.210658881161721649e-03 3.689744814646551685e-01
6.825379674038980493e-01 -2.683861391484546055e-01 3.550908097622650361e-01
3.161646359403171846e-01 5.546334924960351354e-02 7.563730333719130561e-02
-2.054151038258949791e-01 9.334361708350538134e-01 -4.526149011340271366e-01
-2.465961840398899763e-01 1.719655984113515612e-01 -4.968066605516237577e-01
-2.886725223789821104e-01 8.921671826970931085e-02 -1.999247279414510803e-01
1.553994271246528780e-01 -1.110094964781425386e-01 4.650643316676878469e-01
7.162016525077309972e-03 -9.222983117900219741e-01 4.842531659892029272e-01
5.772395703420184487e-01 -8.094643836952281069e-01 -9.636989195469054803e-02
-3.742313712144283797e-03 9.007230944853655830e-01 -1.040706787252115989e-01
-8.984593124648735385e-01 3.605856296194898114e-01 -1.319373783211926221e-01
6.253996540054901354e-01 -1.784708743389021579e-01 3.364494792549891367e-01
-7.345816818266012183e-01 -4.655900692904030302e-01 5.892892641193173686e-01
6.336551339249160142e-01 4.810834028531385531e-01 -1.588405122561527549e-01
-6.933881667502639345e-01 -2.326750409292948490e-02 7.757284352115744186e-01
7.001261840599920516e-01 -1.060317808589920224e-01 2.362958074058769398e-01
-9.322777735678088734e-03 -7.516131789107065586e-01 -3.690888226862022031e-02
9.692198719115266425e-02 7.191784685057336923e-03 -6.379442416633085422e-01
6.587591677532663725e-01 1.944362657173112907e-01 3.580614231225788535e-02
-1.804476085678149433e-01 -1.166429956974635029e-01 9.149291521563909790e-02
-2.900044510004842757e-01 2.785039042158086176e-01 5.823470471439979868e-01
-3.870452583864759100e-01 -1.604303010620726777e-01 -1.447926671066030423e-02
1.810373253624704970e-01 4.315574303449244975e-01 2.604170134225176902e-02
8.445384264821863551e-01 2.395252088793709266e-01 -5.345962003272698437e-01
7.692818090198528802e-01 -6.515715522662817172e-01 -1.904759950563991167e-01
-3.343013047939989713e-02 2.763338981199329747e-01 4.261433967769190367e-02
-6.761665245292418358e-02 -7.038395091951350491e-01 -2.967448455365737439e-02
2.831416550950285327e-01 1.274976123267220207e-01 1.993351225282408504e-02
-4.096113997314197452e-01 6.885523136792032206e-01 3.469198289474068053e-01
-1.607743130263434850e-01 9.585771400009197585e-01 -1.572554057900433233e-01
-8.017588251469058569e-02 2.350003132607494105e-01 4.684178746867417170e-02
-2.880432051150818434e-02 -8.600824074735341496e-01 6.144433275791493232e-01
-3.739596581447954815e-01 -8.060079323673213780e-01 3.805910134830756686e-01
2.144335055883975494e-01 6.569807314742263094e-01 -7.744141441487566446e-01
-1.394385126297775224e-01 1.670052789042161812e-01 2.539470934163746696e-01
-5.645078648974920510e-01 -1.527013086853025170e-01 -5.023177964269993218e-02
1.156007467404006062e-01 -1.098199989082976058e-01 -1.699832563631276383e-01
3.823465868899839637e-01 -5.201720852189850586e-01 -4.519694231120209849e-01
1.048789027284317971e-01 -1.323545264583546044e-01 -3.458001134286408651e-01
1.557183811275505980e-01 1.058325354605032728e-02 -8.312274241630109028e-02
2.559407367057487878e-02 -8.347679351535469694e-01 2.024416678870707281e-02
-4.377055257368505092e-01 -5.116112168090174855e-02 -9.306549584915949080e-02
8.189788323489654021e-01 3.600083705110555532e-01 -3.443974592595202000e-01
2.519610437396230251e-01 2.648431241737840280e-01 1.244862686502578751e-03
1.301933114716180007e-01 -5.744601972218356112e-01 -2.295783052870267738e-01
7.101847659074648211e-01 4.333555916509750916e-01 -6.123774004188792253e-01
7.719584378405197622e-01 -1.221113074330234909e-03 1.108460088339283806e-01
-1.758047627914017530e-01 -6.292466936377030251e-01 8.146217203632033499e-01
-4.379429197022955550e-02 -3.077209964695813427e-01 -2.021319493110482896e-02
3.785706477593637209e-01 2.289714564250201409e-02 1.455368725043887090e-01
5.415083013468309225e-01 -8.594350131317005648e-01 2.431336729175729294e-01
-1.202927602269713014e-01 -7.771063647773347460e-01 7.107375022957482802e-01
-3.164176990289584435e-01 5.155503977529840576e-01 -6.870841638221271142e-01
4.309859237201785209e-01 -5.754920304676579557e-01 -4.241284541035831857e-01
-1.244618163024254764e-01 9.689072934406592896e-01 -2.606372432813252593e-01
-8.302598296990330862e-02 -2.147275779450471822e-01 8.078229181400700121e-01
-6.180780591720542727e-01 -2.214384089690417667e-01 8.198126528203840691e-01
-7.006034648882942806e-01 -5.151526591387949328e-01 3.057344257203342686e-01
1.475238791373221225e-01 -6.703133233693563398e-01 -1.948969969518704881e-01
5.928731637747415295e-01 -5.078662924323138483e-01 5.002545982927153467e-01
4.744876991624208395e-01 -4.140780035086347871e-02 2.465282505424438164e-01
-2.386324636212898975e-01 1.838848356996693467e-01 -5.263425299279713698e-01
1.297175059040885960e-02 7.232483794501255725e-02 -2.222284991089472916e-01
2.693972676601220639e-01 3.489999273189586804e-01 7.429504906991545206e-03
-4.782216437779467366e-01 4.726450214671572558e-01 -5.813040934332912579e-01
2.294747239980727826e-01 -3.857750780449656358e-02 8.181637329434450490e-02
-9.999937602572940287e-01 1.481741028679738337e-01 2.636704492104867681e-01
1.837216411346451750e-01 -9.354098994411502721e-02 2.549898883128404736e-01
6.364189774093523266e-02 -2.293913057429325941e-01 -6.071408859886994608e-02
4.993534417807492520e-01 -2.219035800985766638e-01 4.444250053356983421e-01
8.901661545272110398e-01 -5.131242664565056621e-01 -9.281638106422627696e-03
-6.645983061099683953e-01 -6.432358652695753520e-02 7.950249397984295863e-01
2.597779067892084723e-02 4.881525985760259978e-02 -2.428675423771821940e-01
-2.668846695915179090e-01 -1.642890552685966343e-01 3.605683307664478421e-02
-1.651264222692530592e-01 -8.983962563572580606e-01 3.336279362922984770e-01
3.617227315627987716e-01 -2.592101554576823827e-02 1.974115547323325448e-01
3.452602448044953670e-02 2.572384384961663717e-02 -2.671632981838022447e-01
4.294879188432055295e-01 -2.152399031069677504e-01 4.762937171767661071e-01
1.187663157165299958e-02 -6.248486250337107611e-02 3.028491368386840854e-01
-4.834201518931212013e-03 4.995799809020085025e-02 -5.535190803136396109e-01
3.380428002138728405e-01 2.112066642236667680e-01 -8.431958964520915867e-01
1.871478166628708917e-01 -4.244229634178015576e-01 7.554749044347230935e-01
4.908174321799178563e-01 -3.831505298727109765e-01 -5.878961690018904562e-01
2.685806110469744490e-01 2.210991564906572560e-01 3.631387799478976320e-03
-4.872199933038778852e-01 1.959877028895051776e-01 -3.959993615699616276e-01
-1.373266630505511621e-01 -8.592295988000875351e-01 1.741233727940540987e-01
-1.795980945472706522e-02 6.527263510560475934e-01 1.220922226310504205e-01
8.246483758036331491e-01 7.282998627409993653e-02 -6.230701371448942316e-01
2.862386940728360862e-01 -5.072916402369345157e-01 -4.031141281826501332e-01
-7.253254025676634242e-01 6.554854129794045470e-01 -3.186027873660812193e-01
-7.100698303774684028e-01 1.476821936205226782e-01 7.227045468001946915e-01
4.709707963201962833e-01 -2.386336822148989734e-01 4.760566489875956986e-01
1.098405830146159806e-01 -1.686769605023852869e-01 -2.128313290724202500e-01
6.019025848172083748e-01 -8.376042174558695486e-01 1.160886129073579881e-01
-8.624051765765383681e-02 2.908572145297008138e-01 1.291217936867695426e-01
6.330889067100006207e-01 -1.245809923416671128e-01 -7.171104151553860939e-01
-3.721072598498404993e-01 -2.249217682053327172e-01 5.082631677588785209e-03
-5.883687288144063415e-02 5.948302069900966993e-01 -7.833243330710404351e-01
-1.500598064830954426e-01 -5.004928154312399124e-01 -2.867148169852129155e-02
-4.741493525087930871e-02 7.180777813804889442e-01 -7.353609760700425824e-01
5.959567406199854644e-02 7.877646110702631876e-01 -4.249546280018353869e-03
1.511945123649836020e-01 5.007453105152964712e-01 4.146386589602395201e-02
-1.328721464701155541e-01 1.095966277407631195e-02 1.955670494356946953e-01
5.367137382255460221e-01 6.874510867553998983e-01 -4.810418038547581987e-01
-3.643576195760637321e-02 -1.729010841638904672e-01 7.593779115111889411e-01
4.119568425562419867e-01 -3.554948015766808411e-01 5.974779425331315785e-01
-1.284173597177990234e-01 1.815297319239911056e-01 5.092242685424271803e-02
-6.852863282720753069e-02 4.263027525616931435e-01 1.768659098367012794e-01
-7.314553103495655684e-01 -1.349461223625880169e-01 -1.955946820967439936e-02
-1.420295211968214677e-01 1.606866445876461991e-01 2.006163119580686716e-01
6.541771987361110208e-01 -4.763161549207108741e-02 2.157256827210682071e-01
-1.171751861217061597e-03 7.343276821452204839e-02 -2.362688964464426666e-01
-3.953301145673018824e-01 2.957142102525405214e-01 -5.509608984156489919e-01
2.388865172639861034e-01 -4.287769766125575921e-01 7.297459842403386521e-01
3.283197398727010774e-01 -1.433701059613928519e-01 4.231377756891579467e-01
5.515348812956019087e-01 6.797506841982379200e-01 -4.383853183812388976e-01
2.032439098019453438e-01 -3.336449222379445079e-02 2.437989525260808241e-02
-1.422322161004147545e-01 6.830356309342232590e-01 1.983688944180360125e-01
1.333900843359187571e-01 7.579091842688272240e-02 -9.829698644554499265e-02
7.378564862775158772e-01 -5.299211875830828200e-01 -4.042820262276264898e-01
-7.614888472147874898e-01 -4.753822584479169833e-01 4.199610426092431070e-01
8.936539040199480421e-01 -1.284093866823697860e-01 -5.071721008245136941e-01
1.523320351630663705e-01 -2.678971107942911684e-02 -6.603832911447446996e-01
-8.784191698509349333e-01 -2.308200737058025143e-01 5.454168032094597329e-01
-1.656026657387917878e-01 1.637905326740967116e-01 5.017355189571850449e-01
5.980503131893261104e-01 -8.199782393682775172e-01 2.469505833334677825e-01
-2.622714055877941042e-01 7.129927353783759025e-02 -1.004295203965361455e-01
4.248886325433272326e-02 -9.394496392659770212e-01 2.319655653858922473e-01
-7.012828339776699949e-02 7.048056339169929407e-02 -3.975554554815323716e-01
-7.476067373107703196e-01 2.457034532671585891e-01 6.623534123506606974e-01
8.407432022467046240e-01 -1.133454709234960056e-01 -5.829417662980133086e-01
1.612249695364867952e-01 -1.266534267361315580e-01 -5.598968136973689891e-01
2.490552396553725734e-01 4.031677677566666285e-01 -8.513147919532076946e-01
6.571115112365611965e-01 5.031671989848301996e-01 -6.180848212652357843e-01
1.028653147517565591e-01 9.147729099545719167e-02 -1.185131797978094259e-01
-6.269580753926567995e-02 -4.727765731313390840e-01 -7.474062609507525767e-02
7.020646397354893264e-02 -2.541664414770900340e-02 -2.678059333104544359e-01
-1.389927667150673007e-01 1.372013595469196434e-01 2.409565535462856456e-01
2.362858361324928214e-01 -2.894871940165169022e-01 6.688557961177130640e-01
8.860558132516752061e-02 -2.555302103682599024e-01 -1.626495594649181864e-01
-9.138102719231533388e-01 5.491730796534639580e-01 1.011042605989494192e-01
5.522881004520512338e-01 1.407449778185224654e-01 9.344826305178284553e-02
-7.063480900881924374e-02 1.454300940952641674e-01 -1.318504082430741464e-01
-8.982576939727744680e-02 -2.518728350078173750e-01 3.710570468051394011e-02
-8.526042453874509430e-01 1.593370033520130624e-01 -1.281127870964169080e-01
-6.052231943260449887e-01 -2.503218567115601534e-01 8.229899738891143235e-01
-2.123947825307121451e-01 9.822846796995238217e-02 -7.034793463661949409e-02
1.134424016985466528e-02 7.414988349492981357e-01 -7.277998630913019573e-01
-1.847943183866008754e-01 9.296167315096333372e-02 5.953585637539115377e-02
2.969474952857038552e-01 2.256736417765681513e-01 -8.435819654480072316e-01
-1.489672513497571071e-01 6.246408103470916240e-01 2.325861396918498525e-01
-3.291235403322197162e-02 -6.595212153693794654e-01 -7.274823096815297152e-02
6.274948427748249236e-01 3.916968142605109504e-02 1.556147054690067977e-01
5.744623367399366298e-01 6.010827903937955297e-01 -2.342992655735507412e-01
8.423033581615926302e-01 -5.387217285431386005e-01 1.456044482424519726e-01
2.942055695010517558e-01 3.923027260721385634e-01 -8.510140267998974606e-01
-1.079387654454806861e-01 -4.035658859708651236e-01 8.593476514376707787e-01
-7.644127528854618436e-01 -2.276346910657559008e-01 7.182219184472802276e-01
