-3.185906903298151294e-01 2.242529235487831230e-01 4.063935211951084092e-01
-6.781105314125543959e-01 6.121965808305080969e-01 3.909239783059345053e-01
-4.368101627196563363e-01 -1.667862016752589271e-01 -4.835301408173226650e-02
7.106979826903250252e-01 -8.398818337650725691e-03 4.453054754200481691e-01
-3.255945531353642841e-01 -1.713352815696153053e-01 -4.894613202768033355e-01
3.969614074209497079e-01 2.488853560596283529e-02 2.346790573352180997e-02
-2.199188141627149984e-01 5.113717507509374371e-01 7.404172611875289856e-02
-3.392695961435413521e-01 -3.690837609364605587e-01 -1.186413782442674730e-01
3.309964650647000406e-01 -3.414208005733099238e-01 -5.746998041901536514e-01
4.716351378970846109e-01 1.588974696495114580e-01 -4.397435927438976544e-02
2.470418613840768551e-01 1.745359356471943568e-01 2.783570229123333850e-01
-7.038024715885862204e-01 6.122419752868354381e-01 1.052856638520079935e-01
-7.895101814187541200e-02 3.617765767412749467e-01 1.867538277038859607e-01
1.794847680245093557e-01 -4.966845854889791467e-01 -9.260456962268084902e-02
3.925722999079082620e-01 -2.016639057868254981e-01 -4.050576164265438095e-01
-4.093384398313350547e-01 3.329707790731282757e-01 5.595803281205414814e-01
-8.127154740322597437e-01 -2.313546270128884752e-01 5.018855208873928414e-02
9.011143196836244318e-01 2.314222078911228053e-01 2.639342686052771891e-01
-8.674686517293027643e-01 -2.225103253483728949e-01 -4.381627818640163596e-01
3.752459596243568063e-01 -8.046225123732461126e-01 -3.991167250213464857e-01
-3.430633633677173666e-01 2.524743409197148236e-01 6.100727186720374118e-02
-1.763448984962693034e-01 2.945646552410518537e-01 2.221560741459757404e-01
-3.830632060318549525e-01 7.643245151530301262e-01 2.072719972621298312e-01
2.966666002577524330e-01 1.277148910635022561e-01 4.105460221572269641e-01
-4.539107665244062062e-01 7.299093089848928129e-01 1.637318415012930239e-01
2.606943864384309029e-01 -8.133404614887365103e-01 -2.711467533865161705e-01
6.578043837686695650e-01 -9.303191004461804081e-02 3.990396185618765301e-01
2.315289227562885022e-01 -8.256095709866672072e-01 -2.968317192523611814e-01
-6.284279731272268688e-01 6.729100096205538062e-01 1.606289218658592532e-01
3.739874710459801799e-01 1.421353070892407144e-01 7.375733938024547909e-02
-1.612629461457004698e-01 5.233807903378914217e-01 9.530491327700292559e-02
-4.548884679412090737e-01 4.256560215609865305e-01 5.922578461021796858e-01
-7.417515823556962706e-01 1.460423618382566402e-01 3.522921040415211147e-01
3.776615698696524914e-01 5.790576789565501925e-02 8.491225037726715663e-02
1.281220444843914341e-01 8.198375194092107909e-01 4.461627941740657910e-01
3.872786478686418010e-01 -7.008671535780590378e-02 5.807371114400727841e-02
8.332120332168848620e-01 -4.367513717826540520e-01 8.587052766445149934e-03
2.310600248083526653e-01 -5.915666354249530245e-01 -7.948032662837152540e-02
3.149343870785553112e-01 -8.179398684998628877e-01 -3.130393490578868287e-01
-4.831926069171402216e-01 -7.110217004069293578e-01 -5.088098658766622151e-01
-5.836586069179219294e-01 6.404501553529169389e-01 6.667481171495122372e-02
-8.599162304966043724e-01 4.363295287404064804e-01 -1.160964731708906406e-02
4.491707091390900741e-01 -2.165659477507551889e-01 1.726918097054979950e-01
-9.011484099038710172e-01 3.640641862311581184e-02 1.817087531838881831e-01
8.063740993962733583e-01 -5.155176321703422992e-01 -1.288869141390499018e-01
-4.815355952424102415e-01 -4.650538610588955679e-02 -4.455029069420757826e-01
1.727843336126275720e-01 4.968132513215829382e-01 1.303170636322275033e-01
5.555423489808496429e-01 1.342306110463530600e-01 5.516606056852680906e-01
-5.337550486960707108e-01 -5.325739451502743416e-01 -1.230101324114327016e-01
8.341597788798551516e-01 4.607406239604844300e-02 3.974030294579293798e-01
2.836633973321924795e-01 -5.828323169859211950e-01 -5.821514601659411037e-02
5.766164300597894643e-01 -6.781118079120141973e-01 -4.296685732414142200e-01
-4.493951411696955889e-01 5.759677720319575922e-01 5.983960694255876511e-01
-5.238101065454082716e-01 -3.127759056307117813e-01 -1.486559519754072738e-02
2.898513090961464186e-02 -7.745388591419575253e-01 -6.304325694385572998e-01
6.007680485590539687e-01 -2.095891406963871217e-01 -4.306918529804167894e-01
-8.705506398778927180e-01 4.521410092059502950e-01 5.581056863195123230e-02
4.843579436147538719e-01 -4.256444229706500826e-01 9.868996807151289574e-02
2.214177684434694704e-01 2.071056597409834388e-01 5.179337621911859202e-01
-8.367172059106433579e-01 -2.274133012252694541e-01 3.861400448910101701e-02
5.108577473176556527e-01 2.921647337819430756e-01 -1.132039702438938575e-02
2.490985298953831972e-01 1.562593003436880956e-01 3.666155043085314591e-01
-6.576830375779739724e-01 -5.297169091592374146e-01 -1.592482214058997814e-01
5.223352981669572570e-03 -3.065114142714765455e-01 -3.013251779020226229e-01
-8.947895464625643669e-01 2.393917817432017203e-01 2.608959396437570133e-01
6.352967464519929663e-01 -1.221305507638944729e-02 -2.677253099185741836e-01
8.096746474885890832e-01 -2.478140880766097065e-01 -3.321149382449301024e-01
3.919272512812301268e-01 -9.796147882192568490e-02 9.861951254450518345e-02
8.617638851589850546e-01 6.455875871088100071e-02 3.739812012324153501e-01
8.591718138617239209e-01 -3.817776911324065603e-01 4.976136304156360962e-02
4.548868030029588061e-01 -1.451931149886631633e-01 -3.492206967660378414e-01
-4.789228040783257145e-01 -1.698622918469143428e-01 2.646059669368294818e-03
-5.936594739876608351e-01 -1.219777551046639791e-01 -5.487951217755697719e-01
-1.698873365681534964e-01 2.972713918274638156e-01 2.225609057072218677e-01
-8.796561520092678332e-01 2.255418644113369175e-01 -2.353659958075832170e-01
2.762717307335985639e-01 -2.574774152398113247e-01 -1.488942532150421272e-01
-2.210987782917136213e-01 2.459985869228794031e-01 3.080073726871564999e-01
1.018279210145819208e-01 6.123884995481102544e-01 1.456520562553701159e-01
9.645882248619230825e-03 6.047267537886821254e-01 1.356735766685167044e-01
-4.368050814673075655e-01 9.049779351322996546e-02 -1.527463217749488733e-01
7.357061051902848980e-01 -3.499060362022300974e-01 -4.175999517774890979e-01
-6.454471916178712299e-01 -2.473648771717064931e-01 6.208505574810551514e-02
2.112248477107753486e-01 -3.193262383145896166e-01 -1.594925763049149514e-01
-5.665760165912733237e-01 -6.589116042411364248e-03 2.134645962327211266e-01
-9.902162390028212968e-01 1.611344206868906559e-01 -7.114009767712965726e-02
5.029552939515185006e-01 -5.239369871937214762e-02 -2.556613948276004189e-01
3.945863576860099697e-01 1.413780668327054568e-01 5.304781296023292070e-01
5.433435789818289452e-01 -5.250360317013207379e-01 -5.548180084585417893e-01
1.064971934037621665e-01 8.234129202320733532e-01 3.987834309652777409e-01
-2.510738107653226470e-01 -4.850236094249456564e-01 -1.391688435302143867e-01
-1.999930970206927061e-01 -2.278674496105647651e-01 -3.658094742763320362e-01
6.879661816976870292e-02 -7.664419644680940946e-01 -6.340342172845677693e-01
4.109989090231918815e-03 -5.316566250135551508e-01 -7.203776162158027629e-01
3.151522685763434306e-01 -8.011185639800744163e-01 -2.571252039751195095e-01
-4.547876268201959116e-01 1.030398632700809392e-01 -1.998426070946894562e-01
6.608322734999910741e-01 5.307471000473441558e-01 4.685810215173413229e-01
3.267656099458128849e-01 -1.916305712402675554e-01 -2.950792584664909124e-01
-4.307407187234471579e-01 6.579426090855373666e-01 7.206282399512388415e-02
3.191259067896715651e-01 9.334379247892853060e-02 3.001999640441808115e-01
-3.398424811900214726e-01 7.162326378608414590e-01 1.348831311553965184e-01
-5.987959268147865499e-01 -8.657672453654517708e-02 -5.253965195046325087e-01
3.750584261998697877e-01 -8.058871329569519126e-01 -3.888115804209631987e-01
-1.092296908064642469e-01 7.359533496788374096e-01 1.808402769341845573e-01
-4.837744790359264080e-01 1.245616189825837945e-03 -3.863784554683463157e-01
9.371224053216233862e-01 1.048464935276057497e-01 2.287554155136318768e-01
5.895247922852913172e-03 2.801155248966781253e-01 3.026233254642690107e-01
8.749806506654365101e-01 -1.142003387091421185e-01 -2.159535416626284787e-01
-2.246316122838896145e-01 -8.090997638472308129e-01 -3.470790299078210794e-01
-8.700456006059873459e-01 2.674687944220796587e-01 -2.074784045054451631e-01
-8.625219043312817302e-01 -1.756964183594008078e-01 6.413179575078568895e-02
9.524276870699791009e-02 2.994188724138782121e-01 2.402411129876695639e-01
7.319721849682516712e-01 -4.209613978714140115e-01 1.266097891416965437e-01
-4.192100484042164954e-01 -3.127613626894179544e-02 -3.203831968559235910e-01
4.147627622552262361e-01 -2.726457824068466151e-01 1.003419867525782716e-01
6.937489770817730772e-01 -1.566479463505202063e-02 -2.683718788903252106e-01
-2.186689915096702297e-01 7.826831506544693617e-01 2.227076919114463205e-01
7.270384076112530458e-01 1.335628982525964570e-01 -1.483829639799680855e-01
9.348017853277665878e-01 -9.321781157011978236e-02 -1.077202504050055049e-01
9.500054442439778146e-01 5.443476727967954537e-02 1.922264048924450797e-01
-1.990854577576831874e-01 2.509294580879176673e-01 3.252026899218132816e-01
6.313097628879178469e-01 4.976870483083415952e-01 5.389178655406402507e-01
-2.917305705273595673e-01 2.573545332200743441e-01 1.451372411729352219e-01
-2.520724582114686196e-01 -2.176387112120344025e-01 -5.146655909373666349e-01
4.425007874404713881e-01 1.104705830985795029e-01 5.182516040090181519e-01
5.317367614800386777e-01 3.999293008705973040e-01 6.341857488724200742e-01
-7.092672569684925765e-01 -1.377099717824586955e-01 1.486055514533959065e-01
-4.899955896756317264e-01 2.454409505714039430e-01 -1.693053285074833381e-01
-1.209018887202708142e-01 -6.541909154274675453e-01 -1.672011354113538961e-01
4.948117181699442368e-01 1.837586904609285754e-01 -5.154775793251277494e-02
3.646467906407916404e-01 -1.637227941461371350e-01 -2.814149722666692277e-01
-2.993727197101847537e-01 -2.168890588363329708e-01 -2.219693116376635633e-01
-8.835400267981887712e-01 -2.064039176524178065e-01 -4.182196772065366330e-01
-5.862015562070896704e-03 2.708957768135053512e-01 3.289663875923614089e-01
-3.789244650930205238e-01 1.542833363295503524e-01 1.385142208398091601e-01
-7.227114005166208610e-01 6.128107932897042948e-02 -4.221954501039500984e-01
-4.917553599802597097e-01 -4.471695619732992122e-01 -7.745586779588502224e-02
-5.493433675296125612e-02 8.133481363633117134e-01 5.351702564760965064e-01
-4.354899475699459677e-01 4.488001842365949012e-01 6.047924395506784068e-01
-4.279360819278233419e-01 5.408704809482195452e-01 -6.987364306481306728e-03
8.909441874691622631e-01 2.556909837835289467e-01 1.421758805253729441e-01
-2.736418212463616051e-01 -4.911508473812857822e-01 -1.348677123276945111e-01
5.567017409524689375e-01 5.863420288387873880e-01 1.973033955769235293e-01
3.873252485653251864e-01 -5.538474888371872074e-02 6.498658750001977402e-02
6.304414024276873418e-02 3.115453924377546979e-01 2.378493932386659682e-01
5.095662497571161742e-01 -4.134920718551181595e-01 1.180660016604360707e-01
-3.619821123924099604e-01 4.135349369149640131e-01 -6.502438005310032937e-03
7.188582451935057183e-01 1.709321008441566370e-01 -1.213245133356023325e-01
7.148740363750383242e-01 4.660545517430490503e-01 1.597554300182511822e-01
1.824164159646289862e-01 7.635141918173604658e-01 2.692122463407671806e-01
6.185836828356069406e-01 -6.479674196490557980e-01 -4.144262741662458338e-01
-2.570404627986453971e-01 3.066637896290057008e-01 1.301259286333286136e-01
5.927140220377950797e-02 3.775206001969025893e-01 1.815095952305095239e-01
-4.255261051764482327e-01 5.830995167005832008e-02 2.221821485458225567e-02
4.203928864605700477e-01 6.544899158497423652e-01 5.834231515575533100e-01
-7.111047696624261949e-01 5.228557378676669254e-01 -3.585121880963242774e-02
-3.238001440801508424e-01 2.507234077232858294e-01 4.690465923326649356e-01
-9.650864540371831835e-01 2.375037616813797658e-01 -7.742602770137083090e-02
-1.105538115605224775e-01 2.675921359220228002e-01 3.353495124639233049e-01
3.154902345020691445e-01 1.461394549774946428e-01 1.770252506746257948e-01
-1.990589511622240515e-01 2.495617751060278666e-01 3.378207831186824106e-01
9.969120362988677375e-02 5.293985413527433348e-01 1.343398817681399071e-01
-5.919958079092653147e-01 -2.858174128659511370e-01 -6.240761570657706869e-01
-4.150932640298997667e-01 -3.029535782147061984e-01 -6.546527324508966128e-01
3.656065059510675286e-01 7.467158120301549129e-01 3.676513711707924403e-01
-1.776395943145672451e-01 6.828392901875672827e-01 1.318200343416787990e-01
-6.195315055013590477e-01 -5.937934313148197224e-02 1.923541644420151964e-01
-2.233601383238563165e-01 -8.224007344835706501e-01 -4.035142221483743463e-01
-2.058791339213060789e-01 -7.719717431226253979e-01 -2.683678694728752201e-01
-8.231930497742834252e-02 6.110999372566660037e-01 1.227087354430525801e-01
-5.479833819447290644e-01 6.843252825582826215e-01 4.608879349130864944e-01
-4.468652663694223925e-02 -5.117385289049469765e-01 -1.494987354973283666e-01
-5.013049999053491579e-01 7.173586972645247251e-01 4.619797522654071065e-01
7.118289711393663843e-01 -3.914676671994144486e-01 -4.405717529292860757e-01
4.354510436935699058e-01 5.157003482726546517e-01 6.569309540661056879e-01
3.696680389574630854e-01 -4.287230614310086896e-01 2.409110055944295795e-02
3.309455193189174693e-01 -7.737683826649972563e-01 -2.053690988024831354e-01
7.315982226877044692e-01 4.591717662161950431e-01 4.387669334104625229e-01
-1.243637830125740168e-01 8.368825815109077748e-01 4.441051174581863159e-01
-4.931122144526036699e-01 -1.199612387552825149e-02 -4.131562345916410250e-01
-5.187810080938216606e-01 -3.621953656790381088e-02 1.380462948448118732e-01
7.859141060040699678e-01 -4.409903422967353381e-01 6.746716158260064600e-02
-2.076153411696996659e-02 2.737903625716990863e-01 3.240627261766548806e-01
-7.510610210718766666e-01 -5.271351844874950787e-01 -3.925079022224699510e-01
2.601885404865358353e-01 7.043517274190166377e-01 2.186944629127090256e-01
-5.502510969735476820e-01 -4.274099333815825630e-01 -6.555286772393774664e-01
-2.057387895521146093e-01 7.407185774367558428e-01 1.718809343374421983e-01
-9.608719231197539179e-02 4.219709363740652974e-01 1.418375686797785640e-01
-3.342751804795289217e-01 1.982491573277720132e-01 1.829894141670999064e-01
-6.351699219419945086e-01 2.337127500152808013e-01 -2.835810644802657099e-01
-3.813023690872616722e-01 -9.005585657779009712e-02 -2.048276798890875938e-01
3.295904117258514066e-01 -7.960430436881195115e-01 -2.498825925335417808e-01
-8.962978308228040092e-01 4.208694415968398106e-01 1.424460093191553256e-01
-3.377953455136478711e-01 6.395883403260893552e-01 7.272972169337267589e-02
2.687269430032050987e-01 -2.548800755095424475e-01 -4.508851499499255677e-01
2.896427148897778858e-01 6.215502354520904271e-01 6.683671836849472969e-01
9.512861827267847514e-02 -8.183475548525767085e-01 -2.739556226398575656e-01
3.660259755209235855e-01 6.046155188491096899e-01 1.555043990072421944e-01
1.656855979360336295e-01 -4.261183297112222101e-01 -1.182681110707272804e-01
3.993815111920213656e-01 -2.624208498884605389e-01 8.044602950523263574e-02
9.048199317961089783e-01 -2.652667604976271520e-01 -1.935526611734622593e-01
2.233458622630158374e-01 1.978141279221949655e-01 2.739775587098723375e-01
-6.623611236659414647e-01 4.888606881849742458e-01 -8.636424036208409372e-02
4.585831404111104237e-01 2.148117246539864855e-01 -1.115939484260006567e-02
-1.093108722630897894e-01 8.265392019997851447e-01 3.187167645314885056e-01
6.993704471857375982e-02 5.815326817315199515e-01 1.371575487841899255e-01
3.306439654398217465e-02 2.581462739007855944e-01 4.962472949128718946e-01
4.485811974522268541e-01 4.455330985239859265e-01 7.033304512693508426e-02
-2.096246307141650389e-01 -3.722335421292791713e-01 -1.781373908092987179e-01
-5.742232209031922219e-02 2.921438341495048996e-01 5.490416757608773679e-01
-7.336143538523814955e-01 5.898407862199891438e-01 3.248990301271141856e-01
-1.339376592591168258e-01 3.620893387802254226e-01 6.250557948579248402e-01
-9.768150938333939326e-01 -4.643633411188831384e-02 -2.421850674922185476e-01
4.200830479734892764e-01 -3.456957893354712930e-01 -5.626020439319585620e-01
1.182478298069326861e-01 8.131880626659622191e-01 3.515807148090394074e-01
-9.963117250151162230e-01 -3.235708849330424467e-03 -3.795460034673181493e-02
3.876731300805064673e-01 -6.635917030875405909e-02 2.594029831523012031e-02
-9.222386433348243040e-01 -2.951121043221037188e-01 -2.212708994674756902e-01
-9.911686251474165488e-01 2.722291000071770661e-02 -1.779775451522751517e-01
-9.271430808712157745e-01 6.888484843778049094e-02 1.668497868561787945e-01
3.767147876831100084e-01 4.087651133487889277e-02 3.531804201762749340e-01
4.934032426397581550e-01 5.240371834363305448e-01 6.270815449759452598e-01
2.445164981384758129e-01 -8.267397689988262854e-01 -3.047059398809818798e-01
-3.439147561953914134e-01 -1.989109711331085439e-01 -5.514746058548011254e-01
-5.530006779824974128e-01 -2.901444940819415397e-01 -6.350645528246828819e-01
3.205637163627509389e-01 -2.210966622005043347e-01 -1.028121398113417545e-01
-4.668766116607414585e-01 3.492131097838252485e-02 1.434782329390127675e-01
4.175229694406495939e-01 -1.526226736125372435e-02 -7.098528362399021685e-02
2.129862994250152422e-02 -3.220307577906912910e-01 -2.720673583571104337e-01
-5.708838312943177451e-01 4.554986256594799054e-01 -1.052783082246600832e-01
6.746886139818917272e-01 5.670115155354110009e-02 4.908686089218480819e-01
-9.740218001949686455e-01 -1.436213095385799887e-01 -2.204649318010772630e-01
-3.920588682946670733e-01 -7.365541522554727161e-01 -2.934775257399513393e-01
9.139062959865928981e-01 -1.906381620181060998e-01 -1.770188285271249717e-01
6.728624966782832395e-01 3.407988205288399741e-01 5.604398826191082650e-01
-8.107429646132862100e-01 -4.601280926670257565e-01 -2.478726757104166012e-01
1.882016142514695428e-02 -8.425717164957794436e-01 -5.166655846855143785e-01
3.384896352761294636e-01 7.496564735721737704e-02 3.343383260865175899e-01
3.727571587228669658e-01 5.913066173045133933e-01 6.542125548005360836e-01
-4.516896588112941369e-01 1.064330806835048077e-01 -1.882930001762670169e-01
3.959877919802249346e-01 -2.909012661122423876e-02 -2.988333648005899942e-03
-4.007712486636724192e-01 -6.534251954758807379e-01 -6.453678183135393986e-01
6.425429429340437926e-01 -2.254053977601917780e-01 2.985603964190405857e-01
3.967103814953069629e-01 -2.216908549311061294e-02 -3.335640440103655627e-04
-4.764766940019939945e-01 2.263224293336429938e-01 4.578402766203316099e-01
-9.817892177242429352e-02 -2.596319121393664830e-01 -4.136005904325754101e-01
4.644378635089893015e-01 -3.728940010475028655e-01 -5.660736228602466502e-01
-7.336641676500349485e-01 -4.706511700141507437e-01 -1.402120604743896382e-01
-6.459345970954916138e-01 2.184481109769242368e-01 -2.986833233463313531e-01
7.439672655981350857e-01 -2.806939162610230243e-01 -3.973115806150431806e-01
1.493365242818542882e-01 -6.140772701033764269e-01 -6.967826830197036969e-01
7.469783268513370267e-01 4.716419819868751806e-01 3.792244207365673137e-01
3.258292427234065203e-01 6.519909255489640953e-01 6.373420432038491290e-01
-7.023937418124638343e-01 4.170883907155609194e-01 -1.475591687113241290e-01
-5.957917532315197828e-01 3.836898287871534086e-01 5.239366602812077778e-01
7.918728033052219173e-01 4.303196116766208612e-01 2.938799027898337246e-01
8.918618948306761274e-01 -3.196607938960545070e-01 -2.058697830541310059e-01
-2.017795165525556322e-01 -4.470926930209588313e-01 -1.540883100649975967e-01
-2.058321922707520291e-01 -2.448757864689726782e-01 -5.367799030076205735e-01
-4.114086218472403633e-01 3.525876781202076371e-01 5.721796329102823986e-01
-3.167210111848898224e-01 6.012460832317453319e-01 6.461532046256907025e-01
-3.517472786845295407e-01 5.696561344319056586e-01 3.321897654064513011e-02
3.569938419822052955e-01 1.191981076552730834e-01 1.113922656592405275e-01
-9.059816365746816702e-01 1.169642201215247562e-01 2.151281017555490283e-01
5.970658540370816780e-01 5.870143556440051702e-01 2.343878782216131385e-01
-6.029421159761358950e-01 -3.803861647529726553e-01 -2.683463261170710573e-02
2.036469775687943171e-02 7.241103735739908842e-01 6.488811810112270484e-01
-4.094829601223864413e-01 1.090069150243895835e-01 3.784616126756298882e-02
-4.767865253439949047e-01 4.412795767712519857e-02 -3.191174928208400652e-01
1.242867099726266689e-01 3.998427498117073098e-01 6.857549434234635477e-01
-2.080081895507666645e-01 -2.373490044183311498e-01 -3.196271287241317371e-01
2.680127400416661976e-01 7.328413496277514927e-01 2.554705986607366253e-01
-4.466523531128559488e-01 3.762494080514856148e-02 9.239707688366335936e-02
-2.711928426228715217e-01 -5.136635046662140214e-01 -1.366094463676003345e-01
9.650155759074164896e-01 -1.098499748681847493e-01 5.383623142123968724e-02
-3.061052924859474222e-01 -1.565734352457221201e-01 -3.764267463148972537e-01
-9.116035269894353643e-01 3.859491664229020014e-01 2.517080221899193823e-02
6.040877328020262116e-01 -1.843242424625939624e-01 -4.116400655735854008e-01
5.380774799647300988e-01 3.946027971365852482e-01 6.316649757030491363e-01
6.346566617925494258e-01 -7.617505627076653517e-04 -2.579622921042288852e-01
-1.466674484462637540e-01 -2.439820446096548356e-01 -4.375177924565403220e-01
4.771135921986578432e-01 3.199494035320895602e-01 6.422480228453477658e-01
2.885220593593608718e-01 6.830081767781768232e-01 6.281526953981232397e-01
-8.011818244349026008e-01 -1.100072108770061285e-01 -4.808597106825888146e-01
9.006221503547695573e-01 -3.316496840909424204e-01 -1.707329454594279650e-01
-2.541237499379346843e-01 5.949369924859169156e-01 6.662573716895192621e-01
2.982294661373064981e-01 -5.281899119167436929e-01 -3.722699499295678560e-02
1.812465852453653825e-01 3.848659100569417069e-01 6.826193152056528879e-01
-2.902716672749253712e-01 2.792647626438118924e-01 1.184170285116441790e-01
6.092008897111101939e-01 -2.956795419627470389e-01 2.378136455776479474e-01
-7.783710396173076917e-01 -2.337752834002973512e-01 -5.243451407720807200e-01
4.104479974170329171e-01 -7.562403642357325151e-02 2.114333819109762425e-01
1.752916109824589619e-01 -2.686572627522061940e-01 -4.422579038910927629e-01
3.842753905731151609e-01 2.272580180173949249e-01 6.040653114942184931e-01
4.225116168792077964e-01 2.409121404997561708e-02 -4.693994249041067574e-02
-9.915185454757503569e-01 -8.009598413906016817e-03 -1.680837903702797273e-02
2.049064409457386216e-01 -6.837844078583970031e-01 -1.249596227068870552e-01
-6.160946124407851165e-01 -5.647207932517922524e-01 -5.649774306525967571e-01
-2.825227109102507739e-01 2.289826541377867897e-01 3.878509659833586642e-01
2.398245454704106827e-01 3.781607906402120745e-01 1.288328416837780932e-01
-9.072776914375368928e-02 -2.860769983891789936e-01 -5.562646901443513148e-01
5.250214527197241132e-01 -3.007459030970550951e-02 4.187079802918360905e-01
7.510570242311458422e-01 -5.793043543890876723e-01 -1.707424170337844826e-01
-5.116942430608629744e-01 -5.430776469206632928e-01 -1.281254834119282815e-01
-7.405752292861174091e-01 -2.077595800590261166e-01 -5.442620114864946679e-01
-9.973837576373981162e-02 -8.381399980657326942e-01 -3.651877177869181090e-01
8.135304963637652875e-01 -3.150327179661524535e-01 -3.374675545747052308e-01
-1.151196333303863700e-01 -2.557723522533337235e-01 -4.685340887096114959e-01
7.456582501670106292e-03 -3.172609075869950446e-01 -2.814210232540187984e-01
-5.280817622568818592e-01 -2.337371374131886892e-01 1.973762320058303557e-02
-6.965125185880017833e-01 6.336477323943611184e-01 1.560368082814123092e-01
-7.031514038856805371e-01 6.062059589323024467e-01 9.029017261155738994e-02
6.473001252456104249e-01 -6.708331527594720844e-01 -2.644684951181123234e-01
-4.827609037810649539e-01 5.979756409875636169e-01 5.741443018977832047e-01
-7.285642021707915417e-01 6.683639176411097782e-02 -4.176202165904383534e-01
8.742853894052082797e-02 2.368989358490322383e-01 3.899863478746399825e-01
1.598483828133816231e-01 -2.965108201150357670e-01 -2.466259313307251066e-01
6.396751200649274383e-01 -2.617467312679198216e-02 -2.798199843678277343e-01
-7.846410039563935790e-01 -1.180886501846826059e-01 -4.936772962410548860e-01
-3.462569874284348592e-01 6.067183938854946446e-01 6.343330088124963240e-01
-1.481756487081648810e-01 7.201957585028017084e-01 6.371374849046720357e-01
5.143999495633269081e-01 -2.610521926549736610e-02 -2.337291453934038088e-01
-8.061690133189463037e-01 4.715879084035833890e-01 -3.285119658640866386e-02
-3.699280655948736785e-01 3.991142507703784315e-01 -1.322558848924946899e-02
3.668028095690950008e-01 3.673074593879304128e-01 7.386700791373086716e-02
2.371807145635613512e-01 2.099719320140686352e-01 5.349485632630412990e-01
-8.196089753593366334e-02 5.582993326962035763e-01 7.027717420958281558e-01
-7.047188518461988682e-01 5.953635786750289816e-01 3.715475955668891550e-01
5.052716491543179922e-01 3.258314983206039295e-01 6.368876447917297678e-01
-6.370485026382839422e-01 -6.497007531894566368e-02 -5.115375962297905588e-01
-7.279559654902810484e-02 -2.771209620497554482e-01 -3.549840912683075445e-01
-2.210026478321325538e-01 -2.817466207885983009e-01 -6.050657426164958164e-01
1.222863356200794456e-02 3.997610679494333352e-01 1.704423709391260644e-01
-5.890987773819059692e-01 -1.149674641521047785e-01 1.310488200592990204e-01
5.631982307589477044e-01 3.302166163678049715e-01 -7.029062557594583337e-03
7.027355442315351697e-01 -1.455625193513468973e-01 3.584837692020772515e-01
5.709652904859225941e-01 1.775911391584534815e-01 5.723652329097841385e-01
5.166892277537838973e-01 -2.034266877465676360e-01 2.569642826249204370e-01
5.245835266224692095e-01 -7.363446808844910096e-01 -2.313221944443053790e-01
5.016664449678452931e-01 4.339041457203443586e-02 4.770147457176142636e-01
-5.177598377338648028e-01 2.370020853888565038e-01 4.675487252573694019e-01
4.595742342993615059e-01 -4.470312935919555919e-01 -5.932835539271401615e-01
1.190027911722599807e-01 -3.633220446926844205e-01 -1.854714850802409165e-01
-1.434842952114010195e-01 7.735381390624030962e-01 5.870351004536104034e-01
-7.642905098683130394e-01 -5.205911076039979601e-01 -3.285122827029743897e-01
2.959333765458223020e-01 -5.532724373728106215e-01 -4.438329180593107715e-02
-8.663975478326624291e-01 7.637237389321205328e-02 -3.508889611293807831e-01
-5.056230322687902401e-01 -6.960819372601716459e-01 -5.117444346965098756e-01
-1.679075193625874651e-01 3.901434574920912279e-01 1.313755766178973661e-01
4.587126282954361867e-01 -7.687081453456620084e-01 -2.626693760080964779e-01
-2.795133197488502974e-01 -6.968138726539171435e-01 -6.607962294620610688e-01
-4.588021132442334227e-01 8.494604645066822224e-02 2.217159669580190950e-01
-5.384236897023670920e-01 -5.930382487107225403e-02 1.375431512190217476e-01
8.999026180042316025e-02 4.799914990256786140e-01 7.091894815595175539e-01
-3.610174085143657008e-01 3.177520578780725358e-01 2.533122924506313583e-03
-6.563551276659560646e-03 -2.763736042209142818e-01 -4.019765964047078421e-01
3.201869361789478896e-01 -1.917076103427361455e-01 -2.515590699212180703e-01
2.500260019068444861e-01 -4.502560710293551649e-01 -6.564920599862984485e-01
-8.689623056239732524e-01 -1.333080091644784082e-01 -4.313037001226821543e-01
4.417164016404082766e-02 6.959643712148488870e-01 1.757911664029726817e-01
9.266922969727565684e-01 -2.990619171285916478e-01 -6.578223913149643109e-02
3.229460037378037995e-01 1.086077619773529040e-01 2.096854870509012869e-01
6.853788276203776064e-01 -5.106262562560808238e-01 -4.445615745756712478e-01
-1.237701592469397233e-01 2.593109786342154832e-01 4.044028254384313681e-01
8.463111388519884981e-01 -3.376828244907661425e-01 -2.909237886464022815e-01
7.316420946434776251e-01 -2.582214063034073415e-01 -3.988477985137495185e-01
4.031737697870103609e-01 9.859233101193756732e-02 4.851035456834588144e-01
3.894950205068981042e-01 -1.829207723346022996e-01 -3.677280595093956883e-01
-7.186174990091492853e-01 5.945560008309325878e-02 -4.239566673047389656e-01
-4.788418935654257247e-01 8.638793535005069579e-02 -2.707072355356427429e-01
2.714623957974091617e-01 2.593066672642923010e-01 1.531547096126766039e-01
7.166595955168880705e-01 -2.756959518740784501e-02 -2.724500174129830810e-01
3.717853239713150848e-01 6.364852979059267002e-02 3.948441708841287090e-01
-2.100821641110953986e-01 4.037064462767193662e-01 6.422707785369090594e-01
-6.790879304074599609e-01 -2.641071766144528210e-01 -5.870727108259773397e-01
6.290473409746895686e-03 4.432328359596068856e-01 1.493452859745943440e-01
-9.481400411599644196e-01 2.297290112217163782e-01 1.644880216495691327e-01
6.470155621692927350e-02 -3.739964583470765658e-01 -1.989169927881194455e-01
7.729231426710224673e-01 4.343716931619565624e-01 3.806962060211400711e-01
-1.830646105605917839e-01 -2.415820366238360939e-01 -3.463695682782313989e-01
1.515149448132996901e-01 2.641036699931234022e-01 5.759377548694452065e-01
-4.383887016732596065e-01 7.157387976393819740e-01 1.378556010425969480e-01
-7.696328348040978318e-01 3.143341136312260975e-01 -2.239166367672273394e-01
9.012499180333876092e-01 2.301060228274162678e-01 1.264239776681712335e-01
-6.816584833774534669e-02 2.947551996456153622e-01 5.516124223976153207e-01
-5.891753381148827629e-01 -4.379933907718170372e-01 -6.299312037513606077e-02
1.321601879739396079e-01 2.677024531621017833e-01 2.603169183643834761e-01
-5.137261112913100725e-01 1.806822873760566550e-01 -2.376834356213133603e-01
2.250038370935725784e-01 -8.403093338707480209e-01 -3.580208888279863833e-01
3.724726448046720706e-01 6.769138741377290769e-01 2.225125818772732411e-01
2.039413301041918813e-01 -5.449270476999596990e-01 -6.884479875033923113e-01
-2.938515714630412501e-01 2.154372539752862914e-01 2.851492827769697147e-01
1.948044862683975809e-01 7.118728524738996422e-01 2.113971882845643580e-01
7.798842687756993852e-01 1.356524992748311398e-01 -1.282074207113644282e-01
8.975112011426357173e-01 2.162156653221687097e-01 8.563629564057428922e-02
-5.585948740994607364e-01 -1.805887216692957098e-01 6.711502977266807501e-02
1.204315158431258082e-01 7.050924028085807649e-01 6.552300993411199759e-01
2.436959917283539889e-01 -3.985099675671591735e-01 -6.312566078888659504e-01
-8.074253425162472575e-02 6.857211415177179026e-01 1.509019281339225582e-01
-8.141291143175743983e-01 4.931428855798461464e-01 1.458711371155213370e-02
2.464437026549875787e-01 -2.418072595505685596e-01 -2.672584691267364532e-01
3.806246722745049715e-01 -1.064784904597566723e-01 -2.258534936016552697e-02
7.675875044705187111e-01 -4.183825005514550666e-02 -2.632447154049763482e-01
4.553961376638616110e-01 2.940470623783328959e-03 4.057679928264801839e-01
6.458989272132432680e-01 3.702819935900316106e-01 5.754491228031924921e-01
-6.587284132697913686e-01 -6.068240463934648776e-01 -3.014027939807619738e-01
-6.548856756018857361e-02 -4.934850397551550083e-01 -7.200109591040183554e-01
-1.329265416784123632e-01 4.770804122912049583e-01 1.107156513163246037e-01
3.693061137044874043e-01 -1.574684482903040139e-01 -1.201684005764747792e-02
-9.417870500047568205e-01 2.890054050050040041e-03 1.098904597066255595e-01
-7.159159038630694694e-01 -4.740389010412553450e-01 -1.307301180370221971e-01
-2.299624128099654607e-01 -8.220607341074335217e-01 -4.156186480447499609e-01
1.528103501563329858e-01 2.216418626431253258e-01 3.340211094169274753e-01
4.033073919315392497e-01 -4.437503086283438591e-01 4.322397506831127806e-02
-5.404663265186556709e-01 7.081732753386817958e-01 1.623048090599609194e-01
-7.340756049598012867e-01 -9.747671823588963114e-02 1.785395449733381545e-01
7.163785870028035463e-01 3.567871030020803857e-01 5.221297393124414432e-01
5.595618908031824157e-01 4.228498356862746554e-01 6.190621020624409443e-01
8.605527189877797412e-01 3.275416756547135932e-01 2.503654862539338444e-01
3.498596410752817243e-01 -7.747181431557396136e-01 -2.108796608190499355e-01
4.452772939613919290e-01 7.112875952930172163e-01 4.335044612843387268e-01
2.568297247699959929e-01 -7.568803247301416626e-01 -1.786557253605970119e-01
4.696941927846473575e-01 -5.245822334791538921e-01 -5.955768125720860562e-01
1.601294077189760745e-01 2.101764840631404063e-01 3.705407167142824032e-01
1.800284521188894871e-01 -2.690988612269729630e-01 -4.474596010589885209e-01
6.322425837565186224e-02 -7.990157189465052490e-01 -2.472577555437855679e-01
-4.207500694808317121e-01 2.598897060817004223e-01 -7.171174621166147289e-02
-1.893955619323892392e-01 -6.674121121889371455e-01 -1.788257152259625227e-01
6.262523197828131494e-01 -4.909435556585428628e-01 -5.028315411045911620e-01
2.721090309079833916e-02 -2.901214057643423105e-01 -3.409498553878189675e-01
-5.910359117993845279e-01 -1.823846209852710565e-01 -5.836592384860485039e-01
-6.642702197528744801e-01 1.038140063948008729e-01 3.436204616376685728e-01
-6.236333282056240046e-01 6.790798175664246594e-01 3.605042659381584857e-01
4.238169596178798515e-01 -2.084399708028152401e-02 -9.512811019830628989e-02
-8.064237576026075383e-01 2.578304939031979548e-01 3.596689426972669579e-01
5.687239957544198976e-01 2.456055431392877575e-01 5.990153336600154699e-01
3.859946133898993215e-01 -3.545080266717707401e-02 8.408731861553382647e-02
3.973170443480729674e-01 -1.332554486091487855e-01 1.061767146019377828e-01
8.641360360766832047e-03 6.791862295701712737e-01 1.613967837604271260e-01
1.536842174233887526e-01 6.635636193833193142e-01 1.707171493584710431e-01
3.725504810088676733e-01 -1.457159452191557070e-01 -2.349352392608924089e-01
2.657000760830862673e-01 -4.865791507796861093e-01 -4.910780630667273966e-02
-5.748967379453984172e-01 -6.582312363562644597e-01 -2.983440086832548355e-01
9.310502068043137180e-01 -2.062432619715243720e-01 1.183195649967779400e-01
-1.015747510665910430e-01 4.026914705509356818e-01 1.506630520150806229e-01
4.484150118204767166e-01 -6.984132618809034687e-01 -1.138405146717207939e-01
5.900217197948021131e-01 -2.656474721766817759e-01 2.538463722836848402e-01
3.489536379713002456e-01 2.415906349329160763e-01 6.097457088056655872e-01
4.145928779978564349e-01 2.670329062981675050e-01 3.440703670949313980e-02
-3.645098338534237259e-01 3.323599583000871882e-01 5.664018608755025941e-01
-8.887506616174937202e-01 4.584228805689789799e-02 1.997659998845147944e-01
9.359588433453249756e-01 -1.315372384655361104e-01 1.720143656444900471e-01
7.200610810012038066e-01 1.383604620457823953e-01 -1.461439632786118437e-01
1.914092900283865042e-02 -5.346060346157126553e-01 -1.375557174493219903e-01
-4.305413906321263195e-01 4.516366908856467993e-02 -1.785232842353691174e-01
-4.775112157937159152e-01 -4.257104112745511704e-01 -6.797666274593117119e-01
-2.548636921334943573e-01 6.155740958460798051e-01 6.615011555384414654e-01
4.420668863042454544e-01 6.965650555825257939e-01 3.012764398167054325e-01
-5.868240101145167920e-01 1.626371774424858474e-01 3.976631555296458731e-01
3.555897513115022779e-01 4.778721923209631184e-01 9.782208853232346457e-02
-6.185187578693679411e-01 -4.553799355049104602e-01 -7.693443892861154265e-02
9.062385536607121539e-01 2.182547740820495186e-01 2.591994015722318134e-01
1.736500670643484345e-01 2.015486498645826796e-01 4.138576963071303183e-01
5.299515301674215806e-01 6.627075481962858561e-01 4.198817383372214218e-01
5.987619477179981775e-01 4.370407579242101097e-03 4.665621778958279342e-01
-1.525014698943994995e-01 -3.215188586353646127e-01 -2.390854219477759335e-01
-7.470206713456404302e-01 3.093715708898130967e-01 4.180471621601187238e-01
-4.409152004856045082e-01 7.225836662458900994e-02 -1.889961727821805881e-01
-5.287200119057355874e-01 1.297353122214690568e-01 3.540066742837432168e-01
5.737558255321367762e-01 -6.477769658710741396e-01 -7.825012012123019889e-02
3.745003508929669600e-01 -1.251616868691727003e-01 -1.335951219728069295e-01
-4.256265940227678679e-01 1.792008423798837347e-01 -8.507131177978430325e-02
3.415791094875373357e-01 -6.239335231489040456e-01 -5.871833715965472933e-02
-5.624628642948865664e-01 -8.955679695974372301e-02 1.328265678483969703e-01
2.726327311049273061e-01 1.428948938677441216e-01 3.014423184338281270e-01
1.873679311245710355e-01 2.252775447784831353e-01 5.285793482354452788e-01
-4.374215795826338904e-01 -3.783200707103793192e-01 -7.259866683461793646e-02
4.636566658697739984e-01 2.174267714186159384e-01 -1.416213183792909037e-02
-1.311740717095164765e-01 3.839622596568629809e-01 1.520706821235022765e-01
7.434623827894529247e-02 -2.901835946086372409e-01 -3.272774535148337827e-01
7.135739921312618250e-01 -6.025167078565258905e-01 -3.073478801264027394e-01
-2.208376054642623432e-01 -6.169174900472126355e-01 -7.130645158479779200e-01
-2.338277316394252181e-01 4.952698213428255447e-01 6.841188385032058450e-02
4.864767490384173110e-01 -7.437903684330272602e-01 -4.313330520738550833e-01
-1.954242158627761405e-02 -3.593395960319077376e-01 -2.284122093899783046e-01
-4.968250219914486787e-01 2.304995390330704108e-01 -1.852430278180553780e-01
-1.689868242113881647e-01 -6.477966827949447337e-01 -7.086505859275071817e-01
-1.517545705586585414e-01 -7.991685500042067236e-01 -2.924071628254196753e-01
-9.647733622614826365e-02 8.264990456819686360e-01 3.196543720137472455e-01
-3.956887387461888173e-01 -4.814904772513496911e-01 -7.012020897952938592e-01
7.593067174093307004e-02 4.440265234836324737e-01 1.486736234646337529e-01
1.723285062967648273e-01 3.107773759227661081e-01 6.341079606760158249e-01
-1.705191281640036638e-01 -7.398969010058177309e-01 -2.250007458902358870e-01
9.317927709239198775e-03 3.370668574939896245e-01 2.193320735072243899e-01
2.428028308785470935e-01 -5.220643117626873053e-01 -6.265933080916466502e-02
4.096143334578799533e-01 -3.645904514314057820e-02 -7.318508573341761525e-02
-2.010730273584050987e-01 2.478600904723546328e-01 3.712520210260024656e-01
-4.147031710038876495e-01 1.062201166552318304e-01 -1.901579390525131100e-02
4.784593866496245074e-01 -3.755831278501923776e-01 -5.628525195024429717e-01
7.549552205758823797e-01 4.373979406702575012e-01 4.201832048327691638e-01
-3.583896830337913175e-01 2.896907158256720738e-01 1.455836903623386816e-02
3.256654250656115246e-01 7.192830155005841553e-01 5.682975667884413440e-01
-3.780099150031420718e-01 1.686021527810435960e-01 8.147062125887215289e-02
-5.972639730506098532e-01 -6.563752485891628519e-01 -3.387458551437584897e-01
-8.069979699125500172e-01 -4.716393061399041242e-01 -2.889029169161279054e-01
2.839556155886267530e-01 -4.656203840104291558e-01 -3.795256837544112860e-02
6.942121242454351027e-01 -4.758804118279410522e-01 8.526433298962396434e-02
1.593163497633774128e-01 2.225370765569509024e-01 4.966935393687409994e-01
3.867781655448815359e-01 -1.866411758461219150e-01 6.274354893830105806e-02
4.196535810386590182e-01 -8.197076594366053959e-02 -1.886956958690373665e-01
-2.598133382558628357e-01 -2.484994136384164054e-01 -5.766920110387671050e-01
-3.908548879080464555e-01 -7.465295505072157001e-01 -3.131460823679463878e-01
9.194796688003195051e-01 1.131660011774575786e-01 6.238590509250335064e-03
-3.031002356192845082e-01 8.185695365315734939e-01 3.678588776011293970e-01
-4.761993565307792164e-01 1.411406372519101449e-01 -2.133747182598430547e-01
-4.255950908647652686e-01 5.574563577836756656e-02 1.480860855312750475e-02
-8.243274188420139925e-01 -3.788461336052330597e-01 -4.452683574804884858e-01
5.367380138916580216e-03 -3.341430342321507485e-01 -2.561963585439236413e-01
5.868430642017462562e-01 -4.556753817647652416e-01 1.134001718079121618e-01
-5.584434719350760412e-01 5.682733072587645706e-01 -1.634072255422815492e-02
2.381637404927138268e-01 -5.325117493063824536e-01 -6.791162196776454607e-01
7.172027741510013377e-02 -4.879432072621638916e-01 -1.345200837005312289e-01
-6.372948575501644619e-01 -3.370215156289122493e-01 3.098731494234341355e-03
3.615590070984664450e-02 -8.562019334774476631e-01 -4.413710071105649835e-01
3.511951747066924256e-01 6.035351064476304761e-02 3.297242886889836244e-01
3.706188830340194640e-01 -2.372694551836309340e-01 3.039246310079286167e-02
6.516791234873201555e-01 -1.020175702023437131e-01 -3.411021784951018820e-01
5.426177085791795696e-01 3.698445438652260830e-01 1.850667727223695783e-02
4.691228933847059746e-01 6.731528683732037610e-01 5.117961393720110719e-01
5.370282743840131268e-01 -3.118704194975771005e-01 1.952335782308221024e-01
-5.442362806998136682e-01 -3.060471540262345025e-01 -3.175830062288243286e-03
8.298206168176539554e-01 4.114546196722156796e-02 -1.685427169876138609e-01
2.954000778640218372e-01 2.334389486305514239e-01 1.435752225038691154e-01
6.596283912514103731e-01 5.018789410875725832e-01 1.570207894950972072e-01
1.177664569941444250e-01 7.974290714835571281e-01 3.066847237045168262e-01
7.756646676774824334e-01 -4.249438719554520238e-01 -3.702136184843443090e-01
8.570209065146157101e-01 -1.092200779426306390e-01 -2.343408241425681826e-01
5.630002009228733950e-01 -2.481537774568909616e-01 2.545443377229389403e-01
2.634869380339702194e-01 -2.552762083447595587e-01 -4.492767034256472392e-01
6.611147328978440596e-01 5.062061169275465788e-01 1.644764520102118543e-01
-2.656727100692308358e-02 2.618641942719423521e-01 3.719749381228374951e-01
4.243815992210372423e-01 -7.642542817029888136e-01 -2.175589286738497941e-01
-4.453006453545937937e-01 7.583862820112050596e-01 2.207898647494234423e-01
-7.902468695623526829e-01 -2.956117628995681978e-01 -5.151727088983538705e-01
-2.387039064708969538e-01 -4.951948226607237324e-01 -1.411228769422034346e-01
-5.485071964194446759e-01 -1.101150322343563831e-01 1.054811673335415145e-01
2.890040699961253789e-01 -2.502024112936976352e-01 -1.342038627902604475e-01
2.419849812818079260e-01 -8.198249985623399239e-01 -2.832324269607822687e-01
-3.136306679851977308e-01 2.246636736456399941e-01 4.036592998786334707e-01
7.852738872661556568e-01 -4.129006078858853818e-02 -2.534983079518581262e-01
-2.141895904410872076e-01 6.450559630449798076e-01 1.046651734762281266e-01
4.715544821066751102e-01 5.868595561229786317e-02 4.790816940957851044e-01
3.608543321550549687e-01 2.743797652689367039e-01 7.453048646635637708e-02
6.752289180239017252e-01 1.341763122134864150e-01 -1.534623502468990541e-01
-4.083558865855473896e-01 -7.985170877865697958e-02 -4.104018071619182084e-01
-5.094906499021187862e-01 -5.360063219185519090e-01 -1.232262754779939601e-01
-2.374275400388959623e-01 -5.422023192655854862e-01 -7.238564952335564406e-01
-7.082833901663518894e-01 -5.395145560684619923e-01 -2.198506547531919875e-01
-5.911030096596869843e-01 6.552793896924524741e-02 -4.009930291761809595e-01
2.429777855438258471e-01 5.369336223764811233e-01 1.269488667514284408e-01
4.852713654293395740e-01 8.684429337562112050e-02 -9.869172578921539540e-02
5.741755010099705014e-01 5.754807050698163007e-01 1.940824963620847721e-01
-6.695212387823131772e-01 -2.946630813989857267e-01 3.322238893582001029e-02
2.478203632254268041e-01 -7.464505570668683587e-01 -1.677980875328883570e-01
8.611806126815494400e-01 -4.387760926317251231e-01 -1.367840584392781833e-01
8.595944497136585039e-01 -3.844989532517218422e-01 -2.458985251485712731e-01
-3.102708992834268820e-01 7.285719407582210705e-01 1.497531098542406736e-01
1.761286323121158447e-03 2.546080306721154596e-01 4.103384264923401470e-01
3.033470491032382865e-01 -5.671418108800224678e-01 -4.556650389460649431e-02
-7.109304148126809331e-01 -5.273173787530619494e-01 -4.865354987687439126e-01
-2.729203303052027407e-01 -7.609372260700221213e-01 -2.751806902672011557e-01
-5.728035563971185518e-01 -6.695103564714369737e-01 -3.313250754331197312e-01
4.746182433882356055e-01 -1.862046702669217790e-01 2.272538852614649774e-01
-8.346516408927581177e-01 -8.359889228051076149e-02 1.558684037198797834e-01
-6.030142096407872243e-01 -1.178790440632824510e-01 1.365461006359890150e-01
7.216968578673785828e-01 7.401128990110078520e-02 4.823079563772588729e-01
4.593327901629503107e-01 -6.586811351229625577e-01 -6.938536452372789931e-02
-2.191569165727654256e-01 6.597576080572199464e-01 1.106939926381698414e-01
-7.809112932802286799e-01 -1.476508177700094071e-01 1.307499924274741210e-01
-7.172771516070741704e-01 -1.852482215267716170e-01 -5.499060671948468038e-01
-6.576390961357557741e-01 3.540308569360631763e-01 4.847777570833275984e-01
4.017195469208353353e-01 -4.161019572795203736e-01 -6.037215046912089988e-01
8.046282944320379826e-01 -2.113066984897095657e-01 -3.262232316431296630e-01
-8.132623087891950320e-01 5.279321753019167174e-01 2.322295553021728187e-01
2.133727073011622566e-01 7.183400745687322786e-01 2.216859120134867800e-01
1.074189000498284169e-01 2.397227103115565916e-01 4.967060502041319436e-01
5.543752087846627319e-01 5.527439361615620744e-02 -1.815056621152673633e-01
2.877173088637524079e-01 -7.594235023195377021e-01 -5.735072058556900387e-01
3.608739000688293563e-01 5.518295366597573970e-02 1.503384506868502835e-01
-1.745020394175514633e-01 -6.422158707290682722e-01 -1.669303461494266727e-01
9.595502149266755820e-01 -8.986542809226358286e-02 -2.435005619024359011e-02
-2.143102495155759513e-01 -2.991075451369571425e-01 -2.251290196097699425e-01
-7.528751719431445721e-01 1.640157231644865377e-01 3.573698741143735980e-01
2.829234638309656158e-01 -2.326291019048038200e-01 -3.946305129445092930e-01
-2.813339329218245144e-01 2.213982330546361010e-01 3.239474929644013401e-01
7.451423568155943755e-01 -5.667079111011578962e-02 4.056364739765739857e-01
-3.429238443092436639e-01 1.955764821304055434e-01 1.560983558286429818e-01
1.485161838450166083e-01 -4.438204484608441747e-01 -6.738416875534292139e-01
-4.265421176103137979e-01 6.434540552093624965e-01 5.979195124888728868e-02
-2.537688955608569663e-01 3.106687574630839221e-01 1.296253086509440711e-01
-7.760232963500470760e-01 2.450446020203166653e-01 -2.790837422933213352e-01
-1.117883230090610802e-01 -3.410825631718530926e-01 -6.417812084241878434e-01
-2.971382113463627572e-01 2.925650257834101486e-01 5.313360087508226526e-01
3.209840868960275317e-01 1.294011002637248386e-01 1.835747483741023145e-01
2.665737239267810810e-01 2.188131912694620262e-01 1.856064160801406959e-01
1.666830019435034949e-01 -6.155729045193447657e-01 -6.928056520338295998e-01
-4.962088431659206211e-02 5.375798939819224076e-01 7.063703175133835277e-01
-4.016898476316410060e-01 1.646411709239218313e-01 3.237685652866336694e-01
2.743185862223039284e-01 -4.374180381193039091e-01 -4.559846240861187283e-02
-3.784349629381069668e-01 -7.355923011063044692e-01 -5.709741001086598988e-01
6.714225960124665937e-02 -7.857316975134438497e-01 -2.299135499356723955e-01
-3.539260057109460678e-01 3.406927118518162656e-01 5.745498709052658803e-01
-1.880525036541557116e-01 -4.058070332774788014e-01 -6.975690335152261445e-01
-3.959168770401736981e-01 7.180194731567045574e-01 5.453364675172085452e-01
6.512622979859841732e-02 -6.450885516337862002e-01 -7.041580270886750315e-01
5.446179134181057258e-01 -4.846891582189282732e-01 -5.570909981770395536e-01
-2.988764041297045648e-01 4.673940506819146412e-01 3.586097666103119086e-02
2.580817988661431306e-01 1.632731838067900398e-01 4.504934167450011517e-01
-5.623934226361564370e-01 6.683463960618439559e-02 2.926222523881014115e-01
7.467462082350974362e-02 -3.271015431586960509e-01 -2.495619180565662454e-01
-5.775078071057100360e-01 -2.214685578366655180e-02 2.048537187564089257e-01
-2.493365408189968935e-01 -7.197229076198377040e-01 -2.220002601631647365e-01
1.598170853622329080e-01 8.010549342711884568e-01 5.100580897699961147e-01
-3.835714262003084851e-01 -7.369130748193304659e-02 -2.500553048141579415e-01
5.603695148402213499e-01 1.598203212454571975e-01 -1.061846188989888223e-01
4.404048610408121678e-01 -6.798792407119638170e-01 -5.566218752806747494e-01
-8.430675867362152909e-02 5.756383568239402670e-01 7.014379933368823927e-01
8.160175693874519576e-01 -1.291796238966666163e-02 3.890085764472386298e-01
