5.693372605282979171e-01 3.735960689781613331e-01 3.260641440180692130e-01
6.038148548559778284e-02 -3.304876431192763780e-03 2.722627305479534132e-01
7.092164282440666101e-01 6.351909359017550161e-01 1.350777823369459507e-01
-4.525427465859773596e-02 7.397054669802664018e-01 6.976231700921713408e-01
1.055517698895205442e-01 3.351206422489096115e-02 5.270319856111024270e-01
-3.997639815276142761e-01 4.658646500459316386e-01 -9.112969895769381041e-04
1.418868543294132768e-03 1.597540206687487474e-01 -5.095865380245743204e-01
-1.835357530814453186e-01 -1.982401909387984107e-01 -5.837225463115771618e-01
-4.393847208980650176e-01 -6.359947513121418927e-01 -4.737318778277251896e-01
4.462232109827420912e-01 5.588157383783458609e-01 4.956022233578002423e-01
-1.781129946985983703e-01 -2.471986929441300773e-01 -6.335624727725445160e-01
4.708169964994854406e-02 -9.593333070640480686e-02 3.714164309229067151e-01
-3.970609183765705930e-01 7.907604616464738445e-01 4.304584316783687803e-01
-1.788378165809851872e-01 -9.292106950804261689e-02 -2.103718895671871369e-01
8.067697312507611518e-02 1.197600767147939949e-01 6.787023027885440429e-01
-9.970321560418890852e-03 1.872678546723521020e-01 -2.201743123464550977e-01
8.635070780401983281e-01 3.456247900881087021e-01 -1.204072563007786700e-01
-3.429571631837646101e-02 1.244960780077047913e-01 3.137787813835490186e-02
-7.246041517162693513e-01 3.795957889208637082e-01 5.386253890822120249e-01
1.502259767180561256e-01 8.680501830114949191e-02 1.328966262028690448e-01
-6.857289479184440484e-02 9.674372591032471824e-01 2.562391787921637354e-01
-8.662895530977711145e-01 -2.220778503574805662e-01 2.070149310146620070e-01
-1.768959171391400464e-01 8.011638160105365447e-01 -5.660228650957938729e-02
-3.925809548906436519e-01 3.428104193662922516e-01 -1.308772206539514718e-02
6.464877053263695661e-01 5.172467615114863249e-02 5.393927108008206989e-02
2.619241033953747522e-01 9.603415693106375217e-01 2.970879583073103292e-01
-3.993798188078409028e-01 -4.056216702085198578e-01 7.354385844560603624e-01
2.871499789666518976e-01 -1.454886876358671421e-01 1.223945808014951543e-02
-6.686952186994702396e-01 7.846655287822115743e-02 7.765619985189199381e-01
-8.585811361961472876e-01 -2.916836247961464203e-03 3.043040359136840456e-01
1.382297351400796070e-01 -2.126637081718656397e-01 4.448730588261951696e-02
-6.754579080061451357e-01 -2.565309303677735242e-01 7.211316254766978462e-01
8.535691157324464262e-01 -8.250456465577600540e-02 -2.865430431225924890e-01
8.290104591469206197e-01 5.381477561773271301e-01 -1.385999246825344311e-01
1.048224272556835396e-01 -3.129008700295973222e-01 1.847417046512293826e-01
-7.106539026490433786e-01 -7.099475627943604428e-01 1.960892012418710972e-01
-2.080569083012803189e-01 6.802569197138382817e-01 -1.115488146935786073e-01
2.982661851985607664e-03 3.068218350753474932e-01 -4.253451393793028501e-01
8.151009799468789119e-02 -5.681384077842509955e-02 -8.770925307076243849e-02
3.206522678112083691e-01 4.825178735393972351e-01 6.055657784140687783e-01
-1.427868432566190837e-01 6.172732911800372646e-01 -1.984509454224750447e-01
-7.224212193721228914e-01 -1.859114247835332578e-01 7.057549931196286375e-01
2.264065226119835184e-01 -5.742220147631313387e-02 -4.815152834215190476e-03
3.840948862360474281e-02 -1.377781943390240793e-01 3.927975311530506608e-01
7.275744662384645012e-02 -1.700498953186798667e-01 2.365149519704210293e-02
3.982979571865372798e-02 -3.173278104531622457e-02 2.612090464386546684e-01
-1.286290496328022781e-01 1.090816759366449173e-01 2.371195178952321264e-02
-2.110483793511314377e-01 2.980019926423473353e-01 8.783882897425601133e-01
-6.750938396640738803e-01 -2.926284850708055774e-01 -1.586163977038360096e-01
-4.613529910614257434e-01 -7.359930662537377266e-01 4.679526907926693235e-01
2.612045489324255620e-01 6.329148726576595552e-01 6.331203352297474218e-01
1.069161080612707759e-01 9.341632707791246160e-02 4.071457356558580432e-02
-6.232053167631586982e-02 6.171002919506656248e-01 7.754766493462973420e-01
7.748989255192429981e-01 1.386756126373447084e-01 -6.902423556799494042e-01
-3.246421277246110959e-01 7.571772058264664151e-01 6.153952499193476866e-01
-2.973284826377452505e-01 -2.405746647163758134e-01 -4.777050475203748481e-01
5.394767428461769501e-03 -1.450709847195673086e-01 1.411495968894065089e-01
5.250028395921385593e-01 8.960402133439651085e-01 -8.923423285972163777e-02
-6.989140129317713557e-01 -5.348000633602969511e-01 5.277742639235873945e-01
7.545524621202100990e-01 -1.622071612192078904e-01 -1.497826495136589942e-01
7.236457609051234474e-01 -1.967940246873144394e-01 -7.262202689237616804e-01
1.892189763847975659e-01 4.025705499029383350e-01 6.997722397187002841e-01
-2.135654466571310639e-01 5.175616261602705714e-03 -2.246663050934944589e-02
1.940874008645831483e-01 -2.958957907561995393e-01 8.234480912206640357e-02
4.350733383602859439e-01 -5.297452383364557038e-01 -2.872350806422233060e-02
-3.102522245470378803e-01 -1.991986818171083140e-01 -3.990056185059284721e-01
8.240569791627654073e-02 -9.324130822123094520e-01 -2.869633569132794965e-02
8.226187388826631253e-01 2.125171980772991298e-02 -1.387378447132285031e-01
-5.637663285392605639e-01 -8.339032951169826902e-01 -1.216818603438573482e-01
1.045677723711129908e-01 -9.270380870929801898e-01 -4.456518603306811599e-01
-2.568872121907906925e-01 8.760009646565339869e-01 4.220441863116831116e-01
-3.130105420582068865e-01 -1.430665817959455299e-01 -2.808111975058262821e-01
-8.131729603069361989e-01 -3.688517181951427859e-01 4.992825536448535773e-01
-5.469861275109514365e-01 -2.503278077866744611e-01 -2.515302419042121373e-01
2.438408339002407221e-01 2.740140768023288098e-01 5.973605979155460766e-01
-5.303429749053676368e-01 -1.881365471930808442e-01 -2.119986676595799202e-01
7.381244256379572155e-01 6.390141945891508746e-01 6.520629141826712882e-02
8.341939978695983582e-01 2.763383809284442050e-01 -4.966160484737422443e-02
-6.911227612420849375e-01 -3.633517593149773184e-01 6.602728862692425205e-01
3.710749426331158562e-01 -1.601289494307542305e-01 1.868541637033881500e-02
-1.100347230347783617e-01 -5.139336603804771364e-02 -3.382906724699906720e-01
8.239468514807585242e-02 2.712738862160000153e-01 -6.114589512079559031e-01
1.687824881182198589e-01 -2.839351414950160302e-01 8.912844052326879263e-02
1.255911523963353441e-02 8.215711254171630118e-02 1.006419557733583270e-01
-4.172904771812476626e-02 4.442833843985705307e-03 1.203738129916582800e-01
-4.670720143811533664e-01 -2.742895781730574356e-01 7.956131745816307221e-01
8.250927889495435208e-01 1.992506588047217309e-01 -6.080422141064049102e-01
4.977583933312876990e-02 6.621719362421198130e-02 -1.435296066733358633e-01
8.247293383814054135e-02 -3.377038883016387771e-01 2.510928192357286814e-01
2.578473715519291609e-01 -8.787600277066837107e-01 -1.599388039191605992e-01
-6.179926758074745230e-01 5.077680976101307531e-01 2.449267273361850628e-01
5.030646544407275066e-03 -2.675121772968648282e-01 4.726861841428570687e-01
-2.082369007299167060e-02 1.008277127819481866e-01 -4.967774666952636253e-01
-4.651825953943407588e-01 -1.528781571301361109e-01 -2.146759298804727378e-01
-1.532285079541964024e-01 3.339373215840926723e-01 -1.257884315313499979e-01
6.553762481980746069e-01 6.928113574753448356e-01 -4.156976414203044090e-01
3.176072502850135759e-01 -4.721807078789014844e-01 6.424431796993564092e-02
-1.229046601849249042e-02 1.616297923137374193e-01 -4.134582962045008081e-01
-8.752540036267377754e-01 -1.635386885776906052e-01 4.124415359010029647e-01
-8.602898529312480447e-01 -3.168768259189967684e-02 2.829022647206194119e-01
-5.832902410202778221e-01 4.469360377019553909e-01 1.425697084309357210e-01
4.605412058075661896e-01 8.289472724090684100e-03 8.486677156207406147e-02
-6.564694481212416388e-01 1.077687981271802931e-01 4.394580827369439641e-02
-8.413368637318956456e-01 -4.370632166818396724e-01 1.689835084913418051e-01
-1.861731282148325617e-01 -9.431555037919793494e-02 -2.123165011359967325e-01
-6.093371573835129063e-01 5.177291298655329888e-01 6.104109567233396705e-01
-6.192254743539920003e-01 -5.337273490831253575e-01 -2.851093340740804560e-01
2.444816192307896346e-02 -1.166109655411377427e-01 -7.677763720810544257e-01
1.041955592801960678e-01 9.372364745954843146e-01 -1.133633919097926934e-01
2.287015525381086711e-01 5.868304266150029536e-01 -5.676307426426416836e-01
-1.580525296780716238e-01 -4.065499739054925787e-01 6.391818498187262776e-01
-4.436563209012557296e-01 -9.097756150366992367e-01 -1.764490763615355062e-01
1.743088909958326327e-01 5.066623112332205997e-02 2.074970694687687869e-02
4.209051453218441707e-02 3.377568757266003474e-01 -5.080436831977923617e-01
1.185597030337618152e-01 9.993204762560051746e-01 1.455272355575997767e-01
-7.325369858253408806e-01 -5.899188001715732765e-02 7.188483792774800207e-01
-1.869141627262395911e-01 -9.696430954308509209e-01 6.960519157980026017e-02
4.329937319121404671e-02 -9.578342586948689064e-02 3.422530199124066419e-01
-5.568194584209647940e-02 6.493217505135725487e-01 -2.800339951253595361e-01
5.062794850707486721e-02 -5.604544449434317732e-02 -1.090529459927404438e-01
-7.373605196240163862e-01 2.073459018612814064e-01 1.791879695188101917e-01
3.276260007388639428e-01 1.529802355785305212e-01 -8.353972311754197522e-01
-8.015201878965472204e-02 -5.651260316081070378e-01 4.802714291465978169e-01
-4.155978926993575961e-01 5.504763521327485920e-01 3.219996142077739820e-02
4.562191846365910020e-01 -5.249215748755388100e-01 -4.469656053702506654e-02
-9.523436728881813640e-02 -8.996460653492975579e-02 -4.716342510410713451e-02
4.463861505608028302e-01 4.957851722429250096e-01 4.925299306073371852e-01
7.255322757545763779e-03 -1.620295250733545800e-01 5.452240389638215445e-01
1.009302392883391075e-01 3.809402609531477302e-02 -7.837283981606152361e-02
2.656127295790128851e-01 5.368980653741247666e-01 -6.204210344894790508e-01
1.225096390956291817e-02 1.875874431258365638e-03 1.855323897767058583e-01
1.364376995797844383e-01 -8.741311879962122139e-03 -5.577327947344486170e-02
8.707127357167027126e-01 8.896312578067788746e-02 -2.063669877508698958e-01
5.294298171515003926e-01 3.081675517110027407e-01 -7.798777653853322667e-01
-2.031552856429516274e-01 8.094169351025797265e-01 6.094660927815719331e-01
-4.015166229874052306e-02 5.669740518437180188e-02 -3.821672121750771534e-01
2.761538949279471536e-02 1.952186119425696476e-01 -5.574492380244738809e-01
1.092356217116499523e-01 5.506865797794581185e-01 -5.007792575421953218e-01
7.697366035291148822e-01 3.579039237427463771e-01 8.134401137355851130e-02
-1.960952644854528637e-01 -8.513853056643764378e-03 -1.992281165854146649e-02
-7.105956335564053150e-01 4.088307217720757447e-01 3.356201302609376214e-01
-4.709399195782768555e-01 -7.653697369824208341e-01 4.273886313947877769e-01
2.390842063688121411e-01 -2.358512789803414444e-01 3.494724522605188038e-02
-6.430340542091808054e-01 5.055955968195674499e-01 5.549088747439604452e-01
-1.937013039678958937e-01 -3.158503642597211836e-01 7.133117774961389435e-01
5.364437110304068508e-03 2.411165297566940646e-01 -4.536883903523508677e-01
-1.089647957984685306e-01 7.080726299194097795e-01 7.256764563250911459e-01
1.421487201554126056e-01 6.292680838618792682e-01 7.028560357810383907e-01
-6.746162283640170232e-01 1.099421932607721891e-01 7.683392209661119576e-01
6.333286623025190520e-01 3.275632761896086764e-01 2.372137743127855636e-01
-2.790715580164767062e-01 3.862176664148017635e-01 -6.836564584122435673e-02
-2.981896842136591008e-01 6.369096108602502471e-02 -3.357214128222638788e-02
-5.914730866007072291e-02 -2.192988994527161617e-01 6.342581464300377503e-01
3.294821024993945663e-02 -1.904084119897823391e-01 2.495702110292711551e-01
1.149362068639299822e-01 -2.867891726337714609e-01 1.417046289810881265e-01
8.331275858121929556e-02 9.409274247074548292e-01 4.281153902054582461e-01
6.745060140816722116e-01 7.786757992204217382e-01 -1.557541268184303440e-01
1.371940243671307055e-02 -1.503062366037915543e-01 1.800952898804039082e-01
7.997900227836868270e-02 -2.000898684793582238e-01 6.521439619210948890e-02
-5.730293976756131169e-01 -1.754315358699350125e-01 -1.741243040396805442e-01
3.903677565350372469e-01 -5.595717752551379598e-02 -8.888369741748484154e-01
-4.036912890301885826e-01 5.054983324346972590e-02 8.815247025105730216e-01
2.552044922091267209e-01 9.139525415623883653e-02 1.734514099846657942e-01
6.584060705605734309e-01 1.955122668520995616e-02 -8.039000676677883206e-01
3.475539130341159799e-01 -8.049426276995182983e-01 -1.518739627975332351e-01
-6.255458664028817894e-02 -2.484399862080651500e-01 -7.468841613006209634e-01
8.699481856275308456e-01 1.290816006539396987e-01 -1.832348075514156904e-01
-3.955459733642976428e-01 -4.084205534521268000e-01 7.336686425519155508e-01
-5.003187413259075900e-01 6.726500478571780794e-01 2.468597881727612464e-01
-8.443579173704246488e-01 -3.392090935235240190e-01 1.217753775731814647e-01
3.951758789079647637e-03 7.106704174705771315e-01 -3.063812161624550057e-01
7.230106143144778841e-01 -7.840320464108198328e-02 -7.045498671432322280e-02
-3.633659116713119364e-01 -1.623144784056134160e-01 -2.820703152622489607e-01
-1.479976856908826396e-02 -2.814518513909900488e-01 -7.898466166152723344e-01
-3.514307347924896519e-01 8.276436332131892337e-01 3.944081404750354736e-01
-3.038688854564236541e-01 -5.356256729868370120e-02 -1.188256174970491047e-01
-7.411834019034451160e-01 -6.282854349274383243e-02 2.976482381822034146e-02
5.414525066976115797e-01 -1.104944034226104793e-01 1.347701408892923100e-02
5.602046844445885965e-01 -5.836067369563503471e-01 -6.380275605017584617e-01
2.888913122233732200e-01 -5.516293508131971945e-01 8.493496477482952167e-02
-4.611297413412935864e-01 -3.107769261332234412e-01 -3.759699805824718299e-01
-6.759140002898404026e-03 -3.276451896327579050e-01 4.781925357003604105e-01
-4.374565216810851614e-02 2.923798724708162600e-01 -2.597663090048846768e-01
5.588115135224315244e-01 -6.536903798310365055e-01 -3.142468137558041552e-01
1.890997751004828142e-01 -9.082113387147555672e-01 -4.387108842581078916e-01
6.221572924526180826e-01 -5.477393366558457322e-01 -2.685246359822275886e-01
3.214973469462300421e-02 4.474603986539888584e-02 1.657930564500337545e-01
-3.394561597711064915e-01 -1.369955269852896618e-01 -2.518522283330997813e-01
-4.746697493278739244e-01 1.440885461549042297e-02 8.674808544881003058e-01
6.093037372460278212e-01 3.135276213540609536e-02 -8.295618272234424051e-01
4.863144108508908603e-02 -2.348315246456984251e-01 2.315779519464119529e-01
7.456813039733699300e-02 -2.437875154929449451e-01 1.509221740231917741e-01
-2.121461489564237801e-01 3.845920652866623435e-01 -1.078259376224171562e-01
4.888699351853516978e-02 -7.461862671041601391e-01 -6.956084656607930405e-01
3.050622669527184444e-02 -1.835958663194480200e-01 1.469529933142204037e-01
-5.781211664614956947e-01 -3.546747389501376801e-01 7.320882486838174996e-01
-4.479071341364318504e-02 5.613730178229524997e-02 9.312579934011087912e-02
-2.741769655203748352e-02 -9.617819688549990031e-01 5.768204494368261472e-03
3.843788033017402073e-02 -5.427814607998136809e-02 -1.192090306955965878e-01
-5.143405386602841085e-03 6.809881120736085425e-01 7.306312469081183147e-01
-1.556355457601099612e-01 8.944524512036041708e-01 4.811007965358433114e-01
-1.536631775569340663e-01 8.729558941043588094e-01 5.279609031436663935e-01
6.094928742170184766e-01 -6.074604465595205838e-01 -3.868244106758348955e-01
1.060841973175089686e-01 6.561831354564465202e-02 -4.789267958212707621e-02
5.065901319485698329e-01 3.825524164533327665e-01 3.942995859041432127e-01
-6.104094478136163904e-01 -8.116894075682419274e-01 1.754359284644373407e-01
-6.514694103283418247e-01 -2.604882142859359373e-01 7.357635390736756431e-01
-1.033724780518481823e-01 -7.035957395585594465e-02 -2.276314765045714394e-01
-1.632595921774622483e-03 1.297588798728138426e-01 -2.591252118461616627e-01
-5.971280086567459788e-01 -4.513323884213018555e-01 6.690520411297207204e-01
-2.513324100623855195e-02 2.900410936054663158e-01 -3.248188307059355351e-01
-3.059655108373382504e-01 -5.927006124279723398e-01 5.989406811617697945e-01
1.046619482488665293e-01 9.955338396449900928e-01 2.241303051805081659e-01
4.905942934745342182e-02 -8.387076158347653299e-02 4.907339480442394208e-01
2.866570562576681858e-01 5.738229929506379889e-01 -6.041711110775134230e-01
-3.873916020037667524e-02 -4.167047193409674499e-02 1.280690252927847994e-01
-3.565168206068423662e-01 8.684739921175767263e-02 -3.786625406719375947e-02
5.942527010775901231e-02 -1.778950156596704199e-03 -1.302183689541458467e-01
-4.786393450193986987e-01 -7.999922381928622483e-01 3.732905791473346002e-01
-7.597358583175161106e-01 -4.241338538984692486e-01 5.478199265007770435e-01
3.034243400177661920e-01 -5.340329082523844750e-01 7.438668973466663892e-02
-3.330920384184380412e-01 -1.813171226346262654e-01 -3.407370534343474588e-01
-3.971541384909713091e-02 2.213397731864646945e-01 8.181878405298518286e-01
3.575930998290070550e-01 9.719687133681229607e-01 3.434798939528336398e-02
-2.201284645338958540e-02 -1.142124732121166525e-01 -3.830729978663004881e-02
5.324908087038024984e-01 6.240916655663597545e-01 -5.750853417654381294e-01
-4.785014698970800340e-01 -4.625942713886980751e-01 -4.372831642713253530e-01
8.669922415424017315e-01 -8.235671402347809200e-02 -3.566110168224049248e-01
-5.200534742648813546e-01 5.549511202608283789e-01 1.405798940296207056e-01
4.227747216648931050e-01 6.130217092974888926e-01 5.104367215086876852e-01
8.923354319033875992e-01 1.947265985806118094e-01 -2.413944719971642949e-01
-3.696449007436600903e-02 -3.260084840540923845e-01 5.380891002390804090e-01
-2.733292836485343158e-01 -1.690229996174332783e-01 -3.882921764315987456e-01
2.857772424430364208e-02 9.759797789921688116e-01 3.223589731453682661e-01
8.577999141631630353e-01 -5.503095337962429084e-02 -5.335779791270852668e-01
-1.574330140503599207e-02 7.582533575915560708e-02 -2.981977086532502375e-01
5.840369930240135732e-01 8.608384569195970393e-01 -1.658839558257455687e-02
2.111597146608825692e-01 4.055817742054151909e-01 -6.682078291905704237e-01
1.399416873746835432e-01 4.571459358879363388e-01 7.370208039529572153e-01
-6.240717946971499064e-01 3.331713573421621888e-01 7.455374536941909991e-01
-1.604400622366072560e-01 -1.000000000000000000e+00 -1.393232351021847781e-01
1.514578680072642125e-01 2.935850757703916680e-01 7.010523896024200008e-01
5.891757798813098690e-01 4.126267257675545475e-01 3.219698369268656490e-01
6.947448293450422252e-01 5.668711801960802932e-01 1.960652774548267974e-01
8.180432233272582065e-01 3.931830642678462717e-01 -5.176753922475775260e-01
-4.888751119428054737e-01 4.194373946509200035e-01 8.020473849342617534e-01
5.709919307334728744e-01 -6.269552637984002752e-01 -5.441480262834219594e-01
4.147708801046647853e-01 -4.790735576416319669e-02 5.164381426749528603e-02
6.932966878091396945e-02 -9.438625341719477646e-01 -4.141437020909075617e-01
8.089783705275548353e-01 -2.725174625800529382e-01 -4.367680002004263873e-01
-1.195541872325712462e-01 8.413139025894993406e-01 5.901154485434124686e-01
3.444160430544978002e-01 -2.681070986034682080e-01 2.477839029992065165e-02
3.409526282175900230e-02 7.281637379784399178e-01 -3.214105194609224725e-01
2.371743534992547808e-01 -4.240582472774581668e-02 3.393788371991295419e-03
-3.999939817921263074e-01 7.715423271090345869e-01 4.976574315604388454e-01
2.578032123148966126e-01 8.006828650893871302e-01 5.400515265136016652e-01
1.735107359673703498e-01 8.115143058846967516e-01 5.761427126407884236e-01
-3.299830045052045691e-01 8.203019731708389717e-01 1.899723516473353913e-01
3.333857746797888599e-01 2.909463612345268291e-01 5.087335907849238614e-01
3.231933303334863505e-02 -9.222609734138629278e-01 -4.763776161172847412e-01
-5.229548900593997685e-01 4.485011210903928069e-01 8.499163666440424925e-02
-1.210969396765733952e-01 2.531310889105083395e-01 -8.555594760053110426e-02
6.142869242458045553e-01 8.376713899006849040e-01 -3.928240153555331154e-02
-5.440422240363853579e-01 -7.872648731696212376e-01 3.488282559803860261e-01
3.581482227283770692e-02 1.822152654623430609e-02 -1.652428343293737001e-01
7.614846823601900683e-02 -3.338660730419799605e-01 2.625348055372653255e-01
-5.641603727065660490e-01 3.925158827767468717e-01 7.665241585244311207e-01
-1.567153121571520855e-02 9.782674866769731914e-02 7.653185302400385970e-01
2.139329867708860689e-01 -9.318055786907789018e-02 -1.057457202536690039e-02
5.022748956960857436e-01 2.208751514777206604e-01 2.712255004574522510e-01
-9.256665232735782067e-02 2.558156748083405541e-01 -1.126385426358297442e-01
2.544707242609167697e-02 1.187725306301566641e-01 -1.622882273964881272e-01
1.693100300189944174e-01 7.298578278835494981e-02 6.157098310030369170e-02
6.889922593604721479e-01 -2.096794540606601309e-01 -1.063847426373231014e-01
-3.831469989959052080e-01 5.142807900064922944e-01 8.016303221913435584e-01
-8.966901739773437685e-02 -9.698835572213304612e-01 2.791799879518619062e-02
-5.898409861667205933e-02 -2.002252422456724523e-01 6.456459921606807484e-01
-5.673814252917434020e-01 -1.020276447775693568e-01 -1.226450179919531674e-01
-7.376946310524311323e-02 2.752338915023978538e-01 -1.633903662361470555e-01
6.077072705301268807e-02 -6.664208985222278003e-02 4.332818201455432283e-01
-4.797851979646814563e-02 9.163797441899773633e-02 6.403595803021544519e-02
5.785220294447689371e-01 2.868817950062918509e-01 2.648558041201550806e-01
-3.197324136179667819e-01 7.111534981394661559e-01 2.284832909998021216e-02
3.285346347182505622e-01 -6.172417932031935006e-01 3.604505527833795631e-02
3.378552111152394871e-02 4.194369860269936412e-01 -4.643513854835978338e-01
1.026995490908382686e-02 4.177060864955978170e-02 1.481937666643135532e-01
1.362293044473532055e-01 1.909753971903757966e-02 -4.754915338398517377e-02
1.134803064666767419e-01 -2.982651182501046550e-01 1.560722471499965680e-01
-3.843082467454054241e-01 -4.442242393528749722e-01 -5.257885631142751315e-01
-1.182083958876237358e-02 1.805984685055442851e-01 -1.146411342803628636e-01
-5.083482328242496795e-01 -3.818680975106688580e-01 7.397037756747558701e-01
-3.917934317467868487e-03 -4.099250330376885687e-01 4.477091207022072528e-01
2.980344009704823938e-01 3.684463861909267890e-01 -7.335835205514514845e-01
-3.205516826258220653e-01 -2.158049019599207474e-01 -4.138384213446455462e-01
7.908898841964685511e-01 3.639077213660705801e-01 -5.812776761543290149e-01
-2.478818483852500143e-01 -3.474349249000532325e-01 -6.192737774408800799e-01
-3.761783964251862455e-01 2.068211147570156727e-01 -1.940040490801017009e-02
7.225696392545390978e-01 3.674716865431305046e-01 1.507575479398265417e-01
-3.694352500536880746e-02 8.036026663695611250e-01 -1.946264149157060086e-01
-2.272190505736330635e-01 -1.166456361924130825e-01 -2.912804551050302559e-01
3.849449877301479028e-01 4.171928145465869653e-01 5.317986150081803753e-01
5.221643447856934017e-01 -3.365217781241935380e-01 -4.098868780653922711e-02
4.901216873556253281e-03 9.813284156047075157e-01 1.297446277555682204e-01
-6.678791665283319301e-02 -2.016897851018275289e-01 -7.241367884478596695e-01
-3.601675912873846253e-01 -3.523699219516299164e-01 -5.083408461928323741e-01
3.567067635245076973e-01 -1.122575691976702844e-01 2.400214146470714890e-02
-1.921727870781948788e-01 -5.664036902218175795e-01 5.677366121690620160e-01
7.083707644312834395e-01 -4.658828427007951078e-01 -4.836416779777786279e-01
3.941170352017059342e-01 8.969424025583944138e-01 3.090835628143195901e-01
-6.769293937649696336e-01 -2.031289641552559422e-01 -1.100147649723655363e-01
-4.093443168055052039e-01 -4.755631068032331044e-01 6.951788793183172332e-01
-2.867481009942024484e-01 1.278948954664047843e-01 -2.025219055835597928e-02
-2.426860259821335408e-01 7.997538299795728389e-02 -1.265953154045752586e-02
1.926382693780139543e-01 7.962952411813169207e-02 1.101894425317744147e-01
-1.714458966012765151e-01 3.058574220064279592e-01 -9.458975580749362511e-02
-3.283931918646835202e-01 -2.597029123195840894e-01 7.950097439921884890e-01
5.421535681577779320e-01 -2.659301265542425297e-01 -8.439926523461497299e-01
5.767743419802853211e-01 5.852364701897776467e-01 3.538017416874456589e-01
6.084254983880884593e-01 -4.015769158911714487e-01 -7.474755645639106216e-01
-4.996779183103244870e-01 2.606486408425664481e-01 8.492587539469768076e-01
1.868970744252248031e-02 -5.553585952110662305e-01 -7.888426767772348525e-01
6.121945113840161490e-01 -4.342277596634513959e-01 -1.483104374755102595e-01
3.735011655561974453e-01 9.417680452082319853e-01 2.270135734983215747e-01
-6.150531298701746863e-01 -3.555552092792439445e-01 7.146812344319115606e-01
2.917534153069802905e-01 -5.939696279591309969e-01 7.583474391218079924e-02
2.837781745001584643e-01 -1.354342085657227468e-01 1.111820472951305719e-02
2.329661799049269622e-01 -4.493371730481874327e-01 1.233603450433364834e-01
-1.705487744914352399e-02 2.185414430595385496e-02 -2.537434189094603387e-01
-1.797120855465840217e-01 -6.576532995132183812e-02 -7.961764349972365318e-02
-3.376903212455099057e-01 -2.970645046692675373e-01 -4.905563176927738578e-01
5.551636972151865468e-01 2.375660737508366316e-01 2.467206264828514239e-01
8.800286721795928802e-02 -9.435025770587626356e-03 4.758625594016694937e-01
1.717444898516761742e-01 3.284957501603268382e-01 -6.798129241407174783e-01
-1.018740487872556999e-01 -1.643266089497095739e-01 -6.634869664427053282e-01
-2.658333621604686350e-02 4.812711948100608511e-02 -3.056345508718328330e-01
2.517880901539331640e-01 -8.330594388376878490e-01 -5.642605626224829196e-01
5.337619111273989025e-01 -2.379931928239758521e-01 -2.337093770272520923e-02
1.457881982383374964e-01 -8.769662875499784072e-01 -5.377969598257791306e-01
-4.809067294305757190e-01 2.364957546944118361e-01 6.687102499463655654e-03
-6.127051637439304699e-01 -5.579695282206351692e-01 5.805580741953374480e-01
-7.413656547414422260e-01 -3.032159033408950433e-01 -8.159807530858555202e-02
2.316662502557307601e-01 -7.637394302868819596e-01 5.056703987266482347e-02
-5.402608277097738221e-02 -9.623124534852571521e-02 4.951692473257997273e-02
1.907046131414225354e-01 6.244548926629282098e-02 5.809460593687336416e-02
6.078323321742591379e-01 -4.563771333593685808e-01 -1.571740897077915922e-01
8.576705251893673720e-02 -3.910949079323575162e-01 -8.418980022677884367e-01
1.271319703176401229e-02 -1.558186568882397316e-01 7.891092044332000122e-02
-3.399594237790360962e-01 -1.100784248359903961e-01 -2.039548418261542539e-01
6.228550653610855914e-01 3.222502909271143245e-01 -7.423160816110123683e-01
2.393317019552604619e-01 3.838475697210534388e-01 6.551200351481706319e-01
2.767332559786290780e-01 3.332711295843274191e-02 7.263806837923843240e-02
5.032056967226454791e-01 2.732030720784731637e-01 -7.991323236877994063e-01
2.751397555727339017e-01 4.777512763393635536e-02 8.959759263156026610e-02
-5.412774393933803552e-01 1.353336631512152277e-01 -2.750526796392722701e-03
-6.990992913959060973e-01 3.848088599168351664e-01 2.653269887045445197e-01
-7.371987098699760432e-01 2.149242136205170919e-02 7.041636703115222717e-02
3.996325278706210904e-01 4.494201122201680887e-01 5.279480087314246672e-01
3.703936105432739656e-01 -7.979346868666961079e-01 -1.807712878722892158e-01
-6.144774757460011450e-02 -1.012666137927762250e-01 1.571741483459714516e-03
6.666490532618565279e-01 7.900280024664236844e-01 -6.433098263289527274e-02
3.891633970533321385e-01 5.035520199253769036e-01 -6.789828972627610648e-01
-1.982557532315747106e-01 5.978953851542188058e-01 7.937227821387700111e-01
1.922474864250664842e-02 -1.049653912631907798e-01 -7.582170770896270451e-01
9.494924526398205999e-02 -1.735900884299267366e-01 1.889469984594117566e-02
5.516169176027326815e-01 7.789937777655343565e-01 -3.792330691353452687e-01
-6.761450507617561279e-01 -4.967727950396970682e-01 5.837179756146525511e-01
-1.527209975047702506e-01 8.673059771741035151e-01 2.305641322462547750e-03
1.115270839658906721e-01 -9.416875787144778354e-01 -9.729498801476584025e-02
-3.175530530970900323e-01 8.528668542101869310e-01 3.052248306827280433e-01
7.064693884893572529e-01 -9.920969548159590257e-02 -6.674195128062027083e-02
-2.419236601962112404e-02 5.245199193913073765e-01 8.008205707020452646e-01
-2.096247847767241934e-01 -7.964585128909534850e-02 -1.365961635431917065e-01
-3.700312051986542200e-02 -9.621304569110075700e-02 9.435513390294465730e-02
-1.995728361055658373e-01 -3.631645776196543163e-01 -6.698832684368054569e-01
-1.407669331442086948e-03 2.145000824361623371e-01 -4.388594462162380139e-01
-7.441383414103890370e-01 -4.356830300986466731e-01 -1.021822053326765373e-01
-8.516951922868757352e-01 -4.157472651183169443e-01 2.835695595330710028e-01
5.145378901248678222e-02 -8.331588048758338250e-01 -6.124030459617917366e-01
2.127618552051181444e-01 1.802665478805050014e-01 5.448782306326269698e-01
-4.128334242686055866e-01 7.101612580151930310e-01 1.419205592946492789e-01
7.375943878511449503e-01 -2.604347534335231806e-01 -1.903383115784019752e-01
-4.836383385280080272e-01 -2.317752994811183853e-01 8.093764457037312399e-01
3.591890773994780520e-03 4.640334770649701679e-01 8.041101347938894861e-01
7.567232775651139276e-02 1.052645115598638825e-01 -7.563258771392156535e-03
8.119350528484698959e-01 5.862330247759328650e-01 -2.009173929276475146e-01
2.948713458041448132e-01 1.531402144028475576e-01 3.431689707167561165e-01
3.886707489259541570e-01 9.168829906706290611e-01 -1.990830894830709352e-01
3.481427284894774710e-01 1.779526004179847187e-01 3.359705137017975352e-01
3.261242070074130139e-01 -7.798027786488347379e-01 -6.014347264595085729e-01
4.743702284871453845e-01 5.480021632041529589e-01 -6.496570031887529684e-01
-1.895306751937257672e-01 -9.179020003141054040e-01 -4.301288707274218970e-01
-4.750826178853763682e-01 -8.307433081793715868e-01 -2.918477945283788899e-01
-8.702635238248916938e-01 -1.412026366405002842e-01 4.458145783856708455e-01
-2.363155521414138927e-01 1.900912582260199379e-01 -2.274673730884373482e-02
1.054152115178329761e-02 -1.117463733180188851e-01 -5.628370099764434115e-02
9.175557496505341859e-02 -4.761956316787488083e-03 4.668832469611793878e-01
-1.353713312793741221e-02 -5.165597583855292135e-02 1.675705580684420104e-01
-2.780809103782218017e-01 1.682241451081915862e-01 -2.057035559791472665e-02
-7.280183457273058378e-01 6.684418235781693085e-02 8.505694972478132498e-02
-4.242006866403731924e-01 -5.811178374486943854e-01 -4.995308828524638867e-01
-8.424976026486843406e-01 -3.118390984113829714e-02 2.174331132180047366e-01
-6.177945108908386995e-01 5.551836013916479073e-01 5.175054593167214279e-01
4.997784875649082664e-02 1.002660129038630554e-01 -1.146583124340580656e-01
3.356758451928630871e-01 9.197944671183782006e-01 3.272832412992623397e-01
-1.917485429807118391e-01 -6.032942838086360199e-02 -7.794568752070009376e-02
5.101042160863624719e-01 -3.261018482150345732e-01 -3.251123470734851306e-02
-3.126005871722531970e-01 -1.027470463122041877e-01 -1.966090722779788302e-01
-4.747424594943504550e-01 -6.769908863351730144e-01 5.294994271534015917e-01
2.069584128504594889e-01 2.636416755228688791e-01 -7.389742108501999862e-01
3.656133845656663051e-02 3.243552299286484031e-01 -5.025920373525066820e-01
-1.373318510361887235e-01 1.760528995654649653e-01 -1.625043265818565397e-02
5.898365741134092843e-02 -1.192961824494741252e-02 2.819170683730439220e-01
-3.799896398388284691e-02 2.739381872245323923e-01 -2.569492723682021973e-01
-4.848947942477253026e-01 1.387438704849553728e-01 -1.686821339245567555e-02
-5.674456369129896594e-01 -4.753346980663453181e-01 6.667153089057407112e-01
5.873000728745962906e-01 -5.949264039708683782e-01 -5.748487578202191584e-01
2.114627656026845937e-01 -3.842759760170005173e-02 -9.174918511307616695e-03
-3.202246510276256508e-01 5.844424553464658834e-01 -3.943798580950118315e-02
1.705430920201878864e-01 -1.551113694064922277e-01 -1.412663076301926132e-03
-8.069479004432997815e-01 -5.468544595216822124e-01 1.578595907770748707e-01
1.235040895045324688e-01 4.108808778178564824e-01 7.462368987861504044e-01
2.674581151597715811e-01 1.401081484629677909e-01 3.480288480031086262e-01
-2.264770065088217085e-02 -3.601904593365454210e-01 4.974621954939359436e-01
6.751702446280914982e-01 7.655618054222694813e-01 -2.203129224231611116e-01
-1.463440403352625832e-02 -8.662755427262667229e-01 -5.650789233260093969e-01
3.146368698596435642e-01 4.132395679329667337e-01 5.968588462061815703e-01
-6.661576852075091759e-01 4.685540520210106363e-01 3.017772785478048947e-01
9.333542443371473096e-02 9.459622527484465304e-02 8.368868233463042094e-02
-9.522076686347941132e-02 4.929485787307277822e-02 6.257781509303113332e-02
-1.468889483208006275e-01 -7.904225228796352143e-02 7.906120737467458026e-01
-3.773452326010132141e-01 -8.942532186415491635e-01 2.444794706137777274e-01
5.372691262441384730e-01 5.692424755035322415e-01 -6.208249915561900867e-01
-7.191065264469267970e-02 -2.166888093887431033e-01 -7.262979023815945290e-01
-1.309892276311923065e-01 2.165944956649459019e-01 -4.815847102317862699e-02
-6.770188057711060692e-01 -5.595937940783149989e-01 5.267830841584906221e-01
2.006422711058762909e-01 -2.471669379024870050e-01 4.939078321550496170e-02
-2.069766071490285742e-01 6.424106965087582610e-01 -1.274091768668589586e-01
-7.249498343912369469e-01 -5.758009193391842029e-01 4.485733021642553942e-01
-7.587365495486089184e-01 -4.863494655141565870e-01 -6.885161027911884668e-02
3.327209429381176031e-01 -2.221223812718803592e-01 2.089291009374568894e-02
-7.380965867666028357e-01 2.774767652533153828e-01 6.262255255953967925e-01
3.052655729785491712e-01 -3.733652607533587964e-01 -8.766777080155901958e-01
1.115045853561220657e-01 9.110291366921177691e-02 9.587289110923093161e-02
-7.701670643347700851e-02 4.182856159050263312e-01 -2.698339456616208332e-01
7.054751653742354911e-01 -3.243867527630772685e-01 -6.868264866732752827e-01
-4.854635969080117741e-02 3.365097458194498681e-01 -2.847419375053319990e-01
-8.686981485745024489e-01 -9.817846623464816791e-02 2.713117626750127798e-01
-1.168870217585558507e-01 -7.667806622564227181e-01 -6.340935385649291156e-01
-4.742977134234002135e-01 1.267919041632184496e-01 -2.266435478142972762e-02
7.023987075416444625e-01 6.048990640040674549e-01 1.675543580276873945e-01
4.962332501692686554e-02 -1.495574357939844501e-01 -7.986705229142798679e-01
2.957085362064561587e-02 1.098258778509405426e-01 7.297191829745113267e-01
-5.030580005844733638e-01 1.260548703374620161e-01 8.638690048064213700e-01
-2.216014836164605650e-01 9.045156652689956278e-01 2.329539718939720172e-01
-7.248209933043968656e-01 -5.898246756517873113e-01 -9.455889828419342114e-02
-9.868551642018868336e-03 2.762197274599174635e-01 -3.821244635177348248e-01
-5.351342435491237420e-02 -1.056963880132936601e-01 -3.134187956578410317e-02
4.004607138155110158e-01 9.533830729367703816e-01 1.206854254583979852e-01
3.328118918815965999e-01 1.572873063435538676e-01 3.089001815895933145e-01
-1.775357210183756695e-01 1.300257085330743800e-01 2.184315346098960730e-03
1.063195954546960059e-01 -5.575452326267550385e-01 -8.096766121872874811e-01
-1.281933291285010379e-01 -2.091234214287524817e-01 -6.642913086179715876e-01
-7.877914723479996217e-01 1.401030851739070437e-01 6.131656400144176455e-01
-1.576059155037686649e-02 5.049587324461877191e-01 -3.689043105823195390e-01
1.543683117322434961e-01 2.519657158963746479e-02 -2.585324330117322322e-02
-2.700818336251098462e-01 -1.949367209663180056e-01 -4.464786894095000291e-01
6.483775655996505682e-02 -8.041285355056204676e-01 -6.449237424839554533e-01
2.382652164513115733e-01 -3.200647359295284433e-01 -8.824201570018957996e-01
-2.323581295193773988e-01 -1.356855849092070410e-01 -3.645695175322669068e-01
-5.579544053960723282e-01 4.568433951110310032e-01 7.326037084609777761e-01
5.737531905477279981e-01 7.005087062591917046e-01 3.113718344233617485e-01
8.145989557874643294e-01 3.058712191308577896e-02 -6.480750577678557889e-01
-7.790219010254907372e-01 2.925026492102656972e-01 4.443388047426179432e-01
4.532251661950753019e-01 -2.156561146844889476e-01 4.725421844692248054e-03
7.926022759963973208e-01 3.656684344277745247e-01 4.503771709532199824e-02
-3.220602385084744279e-01 -3.385070440040024303e-02 -1.010698838104491099e-01
-2.272489459184172111e-01 9.011536462739124786e-01 2.311379747888701874e-01
8.571271518686689184e-02 -4.357192199513070796e-01 2.897561802723125912e-01
-4.651625969607653399e-02 -3.406838346342636742e-02 -6.269198829216156010e-01
1.580045695711344844e-01 -9.408294437105889640e-01 -3.350944299139097526e-01
-1.305591638159647461e-01 4.255569115035485184e-01 -1.991853816704444169e-01
7.822256737466639631e-01 -8.860152516686749247e-02 -1.419258330393624867e-01
1.484298673115336809e-01 -6.688186243861710123e-01 1.927662977084599882e-01
-1.960171774456013205e-01 1.169005947590515126e-01 8.198466329602545734e-04
1.153448167603152025e-01 -6.829393360958947445e-01 2.202648906832534725e-01
-3.114996130660166451e-01 -2.458835750850889568e-01 -4.667999668012051129e-01
2.197871124043591362e-01 -5.296605673447935675e-02 -7.388243411181135215e-03
-4.424723261345182568e-01 -2.457220500640756311e-01 -3.324046054444882436e-01
2.945592997643721733e-01 5.338010072636111270e-01 -6.347628808385964438e-01
-6.126297852219129147e-01 2.464213470553521315e-02 -2.317619159483013183e-02
-5.354569268935172044e-01 -2.931243378854889725e-01 7.744798608251957095e-01
6.920183358211571267e-01 7.452133842892509907e-01 -2.367885913474792881e-01
2.265238738477297897e-01 9.580047530403039691e-01 -1.132867508165518733e-01
-8.606884475388499808e-03 1.815333961459494605e-01 -4.203876357955229071e-01
8.362347644585634843e-01 3.335609916380140594e-01 -4.502409114061406425e-02
-2.218090632350961933e-01 -7.930494536112794868e-02 -1.401321429377850036e-01
3.419454447554542975e-02 8.226654870872075476e-01 -2.363280178455700875e-01
-5.341011356285323419e-01 3.674479241293808762e-01 7.990842188832796289e-01
6.031047227554607593e-02 -2.224505215235336453e-01 1.439486442541617894e-01
-4.486901743176874291e-01 7.281896662199327519e-01 5.173227256787878980e-01
4.665268765673406537e-01 2.143578006843989137e-01 -8.250247022902517102e-01
3.916645467568691252e-01 6.155375266249168975e-01 -5.978932452176290990e-01
-1.086765368071471866e-01 4.722418789216182855e-01 -2.400516896629076580e-01
3.152990236600735630e-01 -6.224657358003653496e-01 4.646810142459237292e-02
6.673274408022725201e-02 -5.477357742809985108e-01 3.169834124536408115e-01
-3.173355945934266953e-01 -9.131075457334304479e-01 2.192306906110742526e-01
4.019310110284051163e-01 7.975819744590444405e-01 -4.108564513418350161e-01
1.064666142539436380e-02 -4.425900518802084460e-01 -8.091645926452514237e-01
3.974506716585350652e-02 -1.128100686516167739e-01 3.425136762309219374e-01
-6.893529680908403456e-01 4.580638162570737082e-01 4.955019919670308748e-01
-3.032561746751736842e-01 -9.635303885395457568e-01 7.493551081561763971e-02
-1.145730738137263477e-01 -2.457771512798841429e-01 6.854447048112474183e-01
-1.314693664340830515e-01 -7.054552687980450432e-02 -3.754817262052344978e-02
-6.112347759227354516e-01 1.663758619548703355e-01 8.078670195530979203e-01
-8.939270089836278202e-03 -3.335698815407512341e-01 4.807396267109189658e-01
1.945909647298482356e-02 1.048735254115138321e-01 6.422357453595828325e-02
3.411078098448278584e-01 5.258638776344293220e-01 -6.549220537833422284e-01
-3.289689527637914557e-01 4.966742244253720684e-01 -4.626333175203356518e-02
3.272910141609695622e-01 7.530251916184164951e-02 1.447359103056630736e-01
-4.897041272150270963e-01 -1.902504226042114055e-01 -2.395789303709944251e-01
-1.345103098495591676e-01 4.700635831367098172e-01 -2.085349672271003540e-01
3.258348990205231499e-01 -3.787595018256748602e-01 -8.742553064174131139e-01
1.586237912692977647e-01 8.550121712709342348e-02 1.134599649986424708e-01
-3.344005983919489666e-01 2.280135216485509597e-01 -2.415293271555353852e-02
-7.496810602926353706e-01 -3.401240739001962221e-01 -8.037365107191482561e-02
-2.893528819883462999e-01 1.256429081989582364e-01 -2.077586171496171100e-02
-5.630200114888193885e-02 3.934542412602314854e-01 8.338642102206447193e-01
2.847049991188605467e-01 -1.422768598431907797e-02 3.766260946032980866e-02
1.476199804030483287e-01 6.343794588777118548e-02 3.462074178697029936e-01
-4.646423930056555740e-01 1.467954402206700093e-01 -1.825995190911517199e-02
6.175436262075508637e-02 1.752737933356217082e-01 -6.389799441872154873e-01
4.789224582065517224e-03 -9.938537441684060225e-02 2.002767288714175087e-01
1.742733786468895207e-01 -1.261260337159407149e-02 -2.662267809194775875e-02
6.915170275512637632e-01 1.059885739132274823e-01 -7.711140560099603025e-01
-8.418664908240089950e-01 1.091634588949088325e-01 4.112953589105731722e-01
8.882923368427914079e-02 -2.386015084650016382e-01 1.156052210988691986e-01
2.275763101057604321e-01 -8.956897588288703638e-01 -4.353478486745409604e-01
2.865601740027116581e-02 -1.769107186390887487e-01 4.336023400543354001e-01
4.596519854704251284e-01 5.613503653239482194e-01 -6.410131644174643650e-01
1.461775171230030035e-01 -2.815704712476855415e-02 -4.980748175554271934e-02
5.459446500058765528e-01 4.174058617558214501e-01 3.696890851592424254e-01
-1.391156976935343029e-02 1.149985999128391306e-01 7.708858851998571238e-01
2.846436449453789708e-01 -2.021546849269778567e-01 2.038013474809891035e-02
4.625298631546548300e-02 7.499001956956310444e-01 -3.148033789077813172e-01
-1.277311177480434934e-01 -9.961671118454018536e-01 -2.225998726567938735e-01
3.807712916887921739e-02 4.662275435232321116e-03 -1.572434000568733448e-01
3.836369250924637903e-02 8.252104485547825385e-01 -2.368595473571028232e-01
7.013741133461591781e-01 -2.561572645195911990e-01 -1.427937510574176228e-01
-4.889871399006003871e-01 6.207561954362463830e-01 6.469811539861511918e-01
-3.419034002481777246e-01 -8.428031510159638140e-01 -4.248726885872208814e-01
2.411198361861590506e-02 1.265737439811073506e-01 -6.076442423462128373e-01
2.493339867322318104e-01 5.226959181521297904e-01 -6.216514779826513015e-01
-6.801862284120459012e-01 -1.775214014797839301e-01 -9.255523059532413943e-02
6.013390005004634054e-01 -5.343865245390960750e-02 -8.386162170831799045e-01
3.257174325300845608e-01 1.307820466364751355e-01 2.542205324265814359e-01
1.148303833362678689e-01 5.069172426933582498e-02 -5.133783231013906018e-02
7.082099752898514122e-01 -2.850360653132661959e-01 -1.677333761866259265e-01
-3.629540924160176447e-03 -7.352272248404863042e-01 3.030887179239570295e-01
-8.297259005227288764e-01 -4.210267717003933208e-01 9.669080631270669801e-02
1.085501805055581054e-01 4.287722346195397410e-02 5.381311428510597850e-01
5.536387776906803726e-01 9.324570968809302307e-02 -8.414988973660789684e-01
-3.324202739686404201e-02 -7.257357886852900952e-01 3.359071551361434427e-01
4.298074634590351994e-01 -4.966284419531800665e-01 -1.592794782326621347e-02
1.233739636724142941e-01 7.410773585141403053e-02 2.030650703937304513e-01
-2.039926368028528170e-01 5.100078204098187351e-01 -1.451490004937080192e-01
6.716007608922789363e-01 7.219363066549732144e-01 1.245245362382105953e-01
-9.523217252293529611e-02 3.745138538761080271e-01 -2.202850965772836511e-01
2.984903605867983423e-01 1.452173288843686648e-02 6.391399489424422209e-02
3.321928800079838179e-02 7.393945476916622406e-01 -3.121029135856587811e-01
-2.343831051267995513e-01 6.870915374691268784e-01 7.296483939308707756e-01
8.855327322861733519e-02 -1.580833708425643525e-01 2.092033473016871852e-03
-2.529429293207204332e-01 -1.276140685241911599e-01 -2.968568516653168343e-01
3.448830925101863815e-02 2.968707605246961867e-01 7.884996391152618855e-01
-4.839260693795700008e-01 6.589184051615981641e-01 1.913020240182926879e-01
1.435795730193902432e-03 -9.100521491204802693e-01 -5.004056880618428238e-01
4.814907108670238856e-01 4.514659442221272689e-01 -7.132184457173735836e-01
2.544848147484567863e-02 6.974801827268932441e-02 -1.900884243476556323e-01
-2.269946135807438259e-01 -2.222922159228786151e-02 -5.102594290499730401e-02
-1.034151826359866293e-02 2.734042287313840358e-01 8.107403755488512553e-01
-1.240282102997361108e-01 -1.127396399802271243e-01 -5.749897889930943862e-01
-1.415584306309084217e-01 -3.360731553400057026e-01 -7.105800475927596116e-01
-4.587223780638714776e-02 -3.790066654676066404e-01 5.279779912093481853e-01
1.376430021349696331e-01 -6.682928895578559968e-04 -8.065959025963120865e-01
-5.967330449280918714e-01 2.871312126521613495e-01 7.876873357345486326e-01
-5.677584896846107343e-01 4.282204710895672339e-01 1.162122609808914492e-01
1.508673551375047661e-02 5.262150099591832164e-02 7.126102438921882998e-01
-3.007857631018001632e-01 3.192902215597461235e-01 -4.459821745271765059e-02
-4.065026006313123275e-01 4.659054714157528920e-01 3.609297993930804874e-03
-1.502550548916082862e-01 1.873292592623335140e-01 -2.292363976077895285e-02
3.055446151278649047e-01 -4.086250893994192723e-01 6.472933182079447512e-02
-2.420845995316350807e-01 -4.426026874316363324e-01 -6.529619182290584689e-01
-1.694604241185592493e-03 -3.107118527698556343e-01 4.727433223336408585e-01
1.222560952083980856e-01 6.943828235518792469e-02 2.212144649997489776e-01
-9.719649353830660254e-02 2.273161256236424232e-01 -7.525469937071938009e-02
5.447917389460342485e-02 7.741804114650675805e-02 1.306428260876990599e-01
-4.141074660697201953e-02 -9.386792038921877579e-02 -9.859454920269737632e-02
3.506630280128663624e-01 -4.192699739157786988e-04 -8.791304497834253606e-01
-1.157373704187218966e-01 1.278628956321343491e-01 1.709006880689847852e-02
3.824646307697914249e-01 2.326185637369471149e-01 3.878453090841911810e-01
3.912151047181911534e-01 3.715564124523856315e-01 5.047059015155458406e-01
-6.259626642707424860e-02 4.985235896661264765e-01 -3.040859036246258973e-01
6.061698714126639853e-01 6.203227898776970672e-01 3.079073872769638176e-01
1.363755137305804610e-01 -5.720241437932549466e-01 2.309954658242117653e-01
1.528291661479158625e-01 7.551708689910274774e-02 2.667274076839771246e-01
4.310437693182882501e-01 -3.310010152927516658e-01 1.516507610317901307e-03
-1.630495261090378900e-01 -5.582321830243171246e-02 -4.408715704935122631e-02
1.724085313868281844e-01 6.144108239977263963e-01 6.925199740868295262e-01
1.604676495924771962e-01 -1.828356810254714790e-02 -3.824131913915770203e-02
-4.525854800252395171e-01 5.831869821023168976e-01 8.283051547589925789e-02
8.203627867033087551e-01 -9.272025385756993421e-02 -2.077333554446909869e-01
4.900180730018494080e-02 -2.977491402584800939e-01 3.151321852176308114e-01
-7.876874540296813221e-02 7.376914685667753657e-01 -2.089319493040135145e-01
-5.409155551120201633e-01 6.307287358202394723e-01 5.509615832630909704e-01
-8.051162078260525323e-01 -9.086519168748767583e-02 1.027391479075276115e-01
-8.169145245432338776e-01 -4.266796267199612358e-01 4.377145105531226044e-01
3.323644728337635940e-02 4.281464878020888043e-01 -4.607625506584456243e-01
-8.149856953806968729e-01 -5.081024659032089552e-01 3.197445910863027652e-01
-1.717843111763791286e-01 -2.592831467282184429e-02 -1.512627812716722114e-02
-2.169202667551863584e-01 3.238277530406877269e-01 -7.961829156836147670e-02
-4.359773687486763749e-01 -5.009796391736879295e-01 -4.876186074044071561e-01
-2.117050213292786531e-01 8.135896379852280980e-01 5.999821255987526358e-01
-5.949525881016052287e-01 -8.201373600759479521e-01 1.892723253612221546e-01
-1.610535605847494833e-01 -8.467188268183291067e-01 -5.418657022293782433e-01
1.524315716849478919e-01 3.903309016424565958e-01 -6.295992700902617312e-01
-1.000402388834784884e-01 2.342593921133917234e-01 -8.100474747684710541e-02
-4.610556814790121166e-02 2.883249896011791935e-01 -2.475198174328162026e-01
-3.323709541380149429e-02 7.192345446697402667e-02 -4.922023238964656211e-01
