-7.632981609682770729e-01 -2.828770010122857448e-01 5.300811509188054771e-01
1.431737499696987270e-01 5.013313761169582161e-01 -4.015404926399991359e-01
-4.631432191165833073e-02 5.348459103654907842e-01 -2.837157747050648715e-01
3.404352844320440025e-02 -1.913798453203296446e-01 1.781759719755977855e-01
2.860046563554843879e-02 -6.253308086877461258e-02 1.491163555665060980e-01
-1.375418945145854416e-02 5.350372702732695412e-02 -1.448542816775356123e-01
-3.449690840597450375e-02 -8.924698119936598228e-01 4.844737800505857089e-02
-8.141097424801998494e-01 4.781117524632397808e-01 2.263349065082014000e-01
-2.419101979759100129e-01 1.557214758927273068e-01 -2.279450253463470022e-01
-1.728947431536442120e-02 -1.491061414453957908e-02 -2.308045860764509558e-02
5.180848562187417850e-01 5.983571265221818702e-01 5.215210387333322206e-01
-1.776203920879492193e-01 -4.234662775361523468e-01 4.269735639822020423e-01
-8.000177576775445720e-01 4.573831235436287002e-01 1.033176097080276828e-01
5.180830113953772270e-02 -8.091500690340294732e-02 5.614476815644587476e-02
5.469310261671176399e-01 2.192207748301504278e-01 4.911526245048766781e-01
-2.317305310893091538e-02 -1.407037925064253403e-01 3.718581298540317159e-01
-4.964820627877186698e-01 7.710931073604868624e-01 4.023907793920873388e-01
3.971887165515836093e-01 -7.493345085658699167e-01 -1.432895272507691588e-02
-6.720982123797425434e-01 -7.683749318408509277e-01 -2.077668284837861645e-01
1.726532846571110502e-01 -1.863022011829192082e-01 1.567019714683035581e-01
-4.376089533805436749e-01 -9.097539756429504632e-01 -2.617356298661038250e-01
1.451552033706658695e-02 -1.099462173547128274e-01 1.658711554787915543e-01
-5.888045672896834448e-01 -7.373372524239966141e-01 2.289079267163183495e-01
-4.094047445445561095e-01 5.064288142937223292e-01 -1.690674626306112871e-01
6.532243823039972641e-01 2.819390027386283193e-01 4.459262497235542688e-01
5.114877773216456314e-01 -1.132112400995590740e-01 2.968290201091919323e-01
-3.051293899343509031e-01 -9.445482287122818343e-01 -5.586606270217916309e-02
-5.734250111721661547e-01 -1.237632264751646338e-01 6.795643794630403800e-01
8.559062777000512323e-01 4.860257738805534578e-01 1.709585414579491980e-01
8.519977773224984841e-01 4.766469222646501636e-01 -3.021899061835708333e-01
-3.580005488414374493e-01 -6.841746018421172859e-02 -4.791836222556852265e-01
-1.249719111540891631e-01 -4.614850697929214762e-01 3.743595146039429555e-01
1.224150628517017281e-01 -5.943855440839416332e-02 1.688675366519623577e-01
-6.917498644944671815e-01 2.394943318482120886e-01 -2.031380852589872721e-01
3.491236615323000114e-01 7.625524456317990252e-01 5.306712358781736638e-01
3.883873916791397152e-02 -5.327707032659469155e-02 2.691993407111793746e-02
1.015796541742901848e-01 -1.468590404064359645e-01 1.169277882329319840e-01
4.860465244707938282e-01 6.899161432999292853e-02 4.299975271081978856e-01
2.263707199388545199e-01 -9.047170031660328737e-01 -1.313150044824483720e-01
-8.281987323047449445e-01 -3.712945155621054649e-01 -3.135288974279514806e-01
-8.467902717843466265e-01 -7.745654352685503452e-02 5.362255348406989031e-01
-7.222160505210084569e-01 5.807630165089925356e-01 3.783831071390215128e-01
-6.508084024402223111e-01 2.959035367378974879e-01 -1.906396064057913342e-01
3.037341915224847557e-03 -3.137755637696946348e-02 4.237037968254304954e-02
1.679918346073875079e-01 9.132192191901762623e-03 4.290775505130973722e-01
4.409464759133857603e-02 -6.578737250866760478e-02 2.111536812614900060e-01
-1.982803215063217162e-01 9.699357147592678474e-02 -2.234808563871416853e-01
1.890132561435262093e-02 1.043821388703435570e-02 5.609379290596082646e-01
7.031224519046295196e-01 -6.164575374481328085e-01 -2.042819242783310285e-01
7.368965637575473904e-02 -4.688981418631946868e-02 1.661887167416120081e-01
1.431214757395211316e-03 5.163441871672298511e-01 -3.120630215983908884e-01
-2.345714586267377555e-01 -3.789017338845638294e-01 4.873421742216418884e-01
-9.842631639060892002e-03 4.385008245811400016e-03 -9.386779503598710953e-03
3.339116354980217749e-01 8.091162018947015699e-01 -2.248490577333882856e-01
4.870633654741414742e-01 -1.369095572561005447e-01 2.827612746154712919e-01
-3.562574046752343092e-03 -2.518321900636266014e-02 -6.072421777255084807e-01
1.806922907683281287e-01 -2.100922079688735122e-01 1.631968742775420089e-01
8.144430661386564685e-01 6.100181963592762324e-01 -1.339405941264401878e-01
-9.536482345626672297e-01 -3.808100919644920035e-01 1.052552381617385541e-01
-7.076419581270297909e-01 -4.500889050664048097e-01 -4.407252429943853689e-01
-6.127755078381944553e-01 3.015357639394109501e-01 -2.030014600413735382e-01
3.850397095573283163e-02 -2.230539539109963054e-02 3.610681740104892262e-02
6.428276417049207103e-02 -1.704833280500904213e-01 1.344359055166322869e-01
7.340598014201811239e-01 6.689852446111538287e-01 2.109408731280331961e-01
1.244933884807418976e-02 -7.588640236905496751e-03 2.056189235830238951e-02
6.262689613165226543e-01 -3.399224378011787839e-02 3.210651678275676102e-01
-4.252229793932408297e-01 6.207578842752521364e-01 6.708823448364800157e-01
1.040099231197830071e-01 -4.982425304890425455e-02 1.879722239338249279e-01
2.177182994730856580e-01 -6.204762214987767921e-01 1.605888006004672353e-01
3.363022062211928898e-02 -3.476378849272303978e-02 1.086365782437548506e-02
-2.621798788332322938e-01 -9.472087358021455405e-02 6.662456495447668381e-01
-4.603262641155369539e-01 -2.836748954867983619e-01 -5.892446213893542950e-01
3.238322209411235303e-02 -6.857131676770663598e-01 2.095247535499910052e-01
2.859907153129216395e-01 5.607889705131533509e-01 6.627974417054929290e-01
1.387753431897682521e-01 -3.520257932121793609e-01 2.002703596226304006e-01
1.565435576672102522e-02 -9.534729543531682283e-02 3.424506984645477314e-01
1.767327697919708063e-01 -8.698459147422038518e-01 -2.043265054993099322e-02
-7.233696099988126127e-01 -1.268413357578355438e-01 6.203809361335541617e-01
-3.909146333139291163e-01 8.221554819686043292e-01 1.247746523702576577e-01
6.857297775557947839e-01 -5.262058816295541730e-01 -5.919409106228545880e-01
-5.432340392617208275e-02 -9.616120303951185555e-01 -9.714865339482833817e-02
-4.101489851878002968e-01 -3.377216574540043426e-01 5.818438764342820368e-01
1.228422506275719528e-01 -6.769717645902603720e-02 1.483538646618376144e-01
-8.832296803572567967e-01 1.065505685200891506e-01 5.016377535214062711e-01
7.475779998451645980e-01 7.033273275376934475e-01 -2.410015856636937761e-03
4.035146957269390433e-01 -6.359795137009740529e-01 7.869308114477545357e-02
8.166489985014734332e-01 2.253329077570982719e-02 2.297060680745411920e-01
-4.457855394650568348e-01 9.106829509248945409e-02 -3.352797013136655235e-01
-4.960798296174631083e-01 5.439177346417801706e-01 -1.171041575232331794e-01
-4.895634494785997548e-01 6.450508862524543252e-01 -4.438689060489597188e-02
4.167990549414135604e-01 -7.433058159448044933e-01 -6.127397331035486783e-01
1.446785771962871558e-01 -9.107525186711105114e-01 -4.939374074929727687e-01
4.543912184873016846e-01 -1.984680721000211812e-01 2.469756430867908747e-01
-6.583193910055359921e-02 -3.169346511556075940e-01 3.539281539385468189e-01
-1.733082780758606056e-01 6.273261055199819136e-02 -2.336059923563406637e-01
-3.809982155411612698e-02 7.514190331804839751e-01 6.540195917253469604e-01
3.310315469811777600e-01 4.012718948966044752e-01 -5.493958450859277587e-01
1.397920159902777681e-01 2.217861663881581236e-01 -5.186295634237085839e-01
-3.662492720568693572e-01 4.907466992082358814e-01 -1.864633675560039283e-01
-9.554274214933507203e-02 4.822884829879029445e-01 -2.666098482108427703e-01
1.592983223672050225e-02 -9.685871807245288734e-02 3.332758866772213557e-01
-1.484083836010586799e-01 6.698022599164536739e-02 -1.983116920998969912e-01
-6.453079256530878105e-01 3.643315445910725314e-01 -1.531135685108457600e-01
2.708868701643499799e-01 3.738077753667551351e-01 -5.376936382378074697e-01
-3.670402238682249352e-01 8.334531799658968509e-01 4.317621407174000447e-01
2.279811960711334851e-01 -5.746288159863509604e-01 1.714801326803357118e-01
5.020524762029726640e-01 1.522659196157089556e-01 4.789138733250294933e-01
1.350828244634761852e-02 -6.493556467379862918e-02 4.587876384847569544e-02
-2.453854891379525505e-01 -6.947542099901345136e-02 6.732713733602925243e-01
2.418575270939989919e-01 9.507837978665800716e-01 2.453270524468432745e-01
-8.087878284942291718e-02 2.954125688101149616e-01 -2.443932696821986272e-01
3.247386932776554630e-02 4.803653591598193717e-01 -3.368889741638279589e-01
1.466803959978355693e-02 -7.671427841691795535e-02 1.172430753081838972e-01
4.859338283499504696e-01 -8.053917623911649448e-01 -3.907076372843374945e-01
7.487106007745307316e-03 -2.290926665160595080e-02 -2.581597215605199030e-02
-1.521715530896412816e-01 7.579949038748101664e-01 -1.356713327046665252e-01
6.702408799695024344e-01 7.686043693698555446e-01 1.051033143475062631e-01
-1.964607050749199169e-01 -4.342992451759723760e-02 -4.850560311045340467e-01
-9.973292808057020176e-02 -4.887395528757206842e-01 3.483740629839832681e-01
-1.278569648629755418e-01 4.286002933504494683e-01 -2.530387246663681200e-01
8.172451414485704113e-01 -4.777008336156856050e-01 -2.017894783146389204e-01
2.614082074367407582e-01 -9.196306898661545937e-01 -3.344480905312702812e-01
-6.766097928502375902e-01 -4.662306442775269733e-01 4.650345905697980675e-01
-1.375106784033071350e-02 -8.096849822735825361e-03 -5.217125777762361000e-03
3.718766832780155962e-01 4.523885858771841129e-01 -5.318171356496146363e-01
-3.448910874981240826e-01 3.130250639408906910e-01 -2.279476543015926393e-01
-6.118426251093452839e-01 -7.954905415904619526e-01 9.148586561223111258e-02
-8.389366736185396856e-02 -2.794084501038135437e-01 3.887587662258937260e-01
1.971104771684367152e-01 8.224242328610531505e-01 -1.982841731713873290e-01
-1.354770869953324935e-02 9.297809451474992049e-02 -2.215019827330514390e-01
3.946572699356626912e-01 -8.510566149955876014e-01 -2.078022158628329563e-01
-1.900500034749560280e-02 6.534256170277889797e-02 -1.940415190352020314e-01
-1.313337023199585007e-01 2.214747309331303038e-01 -1.990079491054845551e-01
-4.757531421257144011e-01 8.008314835178530489e-01 2.948359109104425890e-01
1.154439186115616550e-01 -1.482751182509042115e-02 4.103115338674504509e-01
-5.971651003859634876e-01 4.648754549949484227e-01 -1.156185318799563266e-01
7.063573637418508744e-01 5.635385647774038276e-01 -3.789013237741966633e-01
-1.750884551078901175e-01 -6.578554639844204077e-01 3.131869405573400877e-01
8.117801796709216144e-02 -6.087712922238224245e-01 2.187939442446506233e-01
5.254410897511133660e-01 -8.312897281737140209e-02 3.149157708415876722e-01
-4.351839987959973954e-02 5.459611814000554786e-02 -7.995166587382326884e-02
-3.212344579524327726e-01 -1.321576997193077418e-01 6.673737521194135214e-01
1.611084889937978992e-01 -8.854937172869525863e-01 -3.631260194880503445e-02
1.806227389706326070e-01 -7.320303737817782652e-01 -7.103862380421954725e-01
-8.120360859953901222e-02 3.445393800765803038e-02 -3.210478347188304715e-01
-5.154180339531663213e-01 -1.171932551995825827e-01 6.914214515869243627e-01
-1.301424905045106828e-01 3.500685903028765145e-01 7.841175365967774091e-01
-3.609126469224923084e-01 2.229946108703709934e-02 -3.823678249019540898e-01
1.043622990499591813e-01 -4.882749384894211064e-02 2.065189022998541457e-01
-4.942213207309239520e-01 4.964652835910615680e-01 7.096726201517827848e-01
3.458215748886780405e-01 -3.252282926767474103e-01 1.932504053576386271e-01
8.538603945067194667e-01 -2.816415624863476408e-01 1.293106316650310386e-03
-1.274996139873122662e-03 -3.364014089819062497e-02 -4.428663985081262439e-03
-1.462281558719705499e-01 -2.103728095322299763e-01 5.102223020276990262e-01
-1.432268177044112301e-01 6.674930589232447309e-02 -1.919961012904704278e-01
3.694049933952940346e-01 1.522766344587840777e-02 4.039050342168482577e-01
-3.252377047605564120e-01 -8.348676887134843794e-01 1.769723483040409051e-01
5.747337371039997617e-02 -3.847270752272419214e-02 5.962232001499155609e-02
2.342193513417567263e-01 1.549032932986587618e-01 -6.425068339093923386e-01
-6.382664716010266748e-01 3.491555870430356201e-01 -1.657476028189304174e-01
8.116384268093552734e-01 -1.298009692836473161e-01 1.571143049260233238e-01
-8.713085323036053043e-02 5.331035170861112005e-02 -1.237554173608160085e-01
3.475136107951280751e-02 -6.073184402484345379e-02 4.075101189151997816e-01
-8.075228277619467265e-01 -2.455957334730297648e-01 5.137191236501035263e-01
-4.369280024682394015e-02 -8.105106016820544657e-01 -6.457952588394411109e-01
-9.772824588212839503e-01 -4.978687706761286691e-02 -2.257954836387428884e-03
5.094455665747601447e-01 5.159359057576692331e-01 5.517879771670080036e-01
-2.071659004448176966e-01 1.781522357360561248e-02 -3.531587148821122568e-01
-4.453844762903574894e-01 2.414191791227762174e-01 -2.553834707739817689e-01
5.585503467907236841e-01 5.420185058551097584e-02 3.977619316361363233e-01
-2.824104528101911149e-01 4.254862742678977572e-02 7.366005573377125693e-01
1.747297753686090360e-02 -6.123651029029909126e-02 1.122847778067284502e-01
-2.492386388450434920e-01 6.132025267022517268e-02 -2.986612480111530132e-01
2.064888879085138296e-01 5.514613733553167529e-01 -4.124354530043861100e-01
-6.766867530570375155e-01 -6.779682231484042143e-01 2.445316196212064808e-01
3.513988092445508027e-01 5.789776919883823231e-02 4.512687478274361452e-01
1.407725369429547457e-01 8.363137149649631230e-02 5.624809115140299021e-01
-4.210700014183924034e-02 5.720822336434951833e-02 -3.120810784899947232e-01
-2.615385502181646893e-01 -4.977791563928560814e-01 4.401971349877529804e-01
2.117220858742967227e-01 -1.403817355822223507e-02 3.635456059267904716e-01
-6.803232742701355029e-01 1.148906068205987341e-01 -2.793688185081228958e-01
1.169671518978462194e-01 -4.776577494547659675e-02 2.317600201917602298e-01
3.457780776963826908e-01 -8.755188374422097353e-02 2.958820542201762160e-01
1.099156557377004989e-01 -5.038843032504720237e-02 1.948752837506693147e-01
-5.193367643075715856e-01 5.524161660036058796e-01 6.663217581347091745e-01
-8.288371578103828075e-01 4.546009426840809664e-01 2.121587795949610444e-01
4.654199344935634475e-01 5.426062699274613044e-01 5.744180922907746734e-01
8.021038733065977144e-03 -4.242024075280237949e-01 2.799134776233733746e-01
1.291915454935771423e-01 -1.032355864199448053e-01 1.267197705110162387e-01
-2.736958862278573434e-01 -9.573336340004422462e-01 -3.001519925314448112e-01
5.316954807670656175e-02 -6.079342389795149293e-01 2.315497087927206876e-01
3.052817828995240124e-01 -7.299714025313259746e-01 6.092637127082511234e-02
8.866911102675204548e-01 2.425029812311662591e-01 2.008535460056909416e-01
5.156955486005999623e-01 8.616515925204852877e-01 1.897722603779589956e-01
-7.247842698040709575e-01 -2.992712558507162335e-01 -4.248860572397704649e-01
-1.173952171773477576e-01 3.926994742677112488e-02 -2.106440273982512212e-01
9.086906775671888328e-03 8.432809311361660898e-02 -4.470341792607339104e-01
9.869974725838264185e-01 1.821872718101132382e-01 -2.484766669217989832e-01
7.994016510053018887e-02 -9.680711969529406380e-01 -2.915863344142282654e-01
-5.297926555968683615e-02 -7.042815229390595455e-01 -7.213978422469270457e-01
-2.798476336735916115e-01 2.824334286605226785e-01 -2.253401016793704081e-01
-7.208672801651813677e-02 -6.957124167283105232e-01 2.487443856829122946e-01
6.226473638882493514e-03 -3.423799303774847924e-02 5.189070991289702200e-02
-1.331593883409209200e-01 -2.502546514828680180e-01 4.684746034568446627e-01
2.107382633354499754e-02 5.348860269828230318e-02 -5.273848948486875576e-01
4.164834183758372443e-01 6.363765096611107008e-01 5.725947776381473675e-01
4.405598895599167064e-01 -1.551801957125964748e-01 2.688639006734458992e-01
6.352411984218889196e-02 -8.257644596686460059e-02 6.394991020141722882e-02
9.378646139563909800e-01 -1.471666438329798099e-01 -4.184112068178835048e-02
-5.712086574576425990e-01 -3.403621246730590966e-01 5.810229873491647989e-01
1.089355203840195775e-02 -1.015169339173625090e-02 -3.531894454755827445e-02
-8.814824114581262249e-01 -4.971813517928869164e-01 1.905021585744450796e-01
2.524166785055008133e-01 -1.982657329341291907e-01 -8.100489697676057643e-01
-4.036064975040051794e-01 3.222859369804131902e-01 7.804978029671134632e-01
6.341985360129717697e-02 -4.508954190423299785e-02 1.485621421994907931e-01
1.288629364130054467e-01 -9.104175983581144216e-01 -6.286671045134484270e-02
8.601042933257108114e-02 -3.605452410839646293e-02 3.800592079280115665e-01
-6.982401235536123130e-02 5.440404975898194967e-02 -1.012303640747824751e-01
8.172613181292874562e-02 -8.260136709751962625e-02 7.949312020364941722e-02
-1.533127783729510141e-01 3.580393290223367053e-01 -2.365176634753606844e-01
-3.322105695570529704e-01 3.998342210205418357e-01 -2.139690129458422796e-01
-1.606608900991533251e-01 -7.281822319284552147e-01 -6.824051918473991174e-01
8.391185524793015604e-01 -3.118515870572671767e-01 -5.393125038309387609e-01
-3.623600308687886795e-02 5.791678010387523168e-01 -2.782193869211042059e-01
1.249040321385697927e-01 2.449522079374340522e-01 6.893188824969574968e-01
6.526745960590775789e-03 -1.150030632417108067e-02 2.481831386839665129e-02
5.368327415322527579e-02 -3.495114998353319180e-01 2.374935780755006998e-01
2.662229131204356669e-01 -2.938404079825252535e-01 1.881375253121080893e-01
-1.417736540070252960e-01 -2.074071304772182878e-01 -6.887528419064106178e-01
-1.357677647408353505e-01 -5.237326226458167699e-01 3.596825017349052356e-01
-5.852526004234676060e-01 2.717068702270739045e-01 7.297135594105658152e-01
-5.314791898277886339e-01 -5.759329309061849145e-01 -5.608195150412235153e-01
-2.124737328853355256e-01 3.211123256533101461e-02 -3.240688308789559935e-01
-3.806476839103464238e-01 -1.070126980397338723e-01 -5.109484397855064142e-01
8.279496260936967111e-01 6.088130257400686807e-01 -5.594312460659495168e-02
2.324105405519608647e-01 -3.072432186294806744e-01 -8.252423826184693834e-01
4.928551259456621092e-01 5.204197460636644790e-01 5.617581924692798268e-01
8.503273912131410484e-01 -2.723711653701358162e-02 -5.823759643102101036e-01
-8.801385350677154440e-02 6.859570148947050638e-01 7.002484091372320751e-01
4.193253228322755266e-01 1.512437159033811485e-01 -7.058242090120859791e-01
3.332924755781128678e-01 -4.282576898258393938e-01 1.763705492296092081e-01
-3.524371816349637920e-01 7.029599907666582714e-01 -7.911179247190731900e-02
8.915623762575023425e-01 -3.208056214144964224e-01 -4.159633776522288495e-01
-4.831346666909519527e-01 -8.515686826993841274e-01 9.417967842083102559e-02
3.880761551877455751e-01 -1.380748242301227946e-01 2.697664144952698351e-01
3.139563338285231153e-01 6.752581145155041042e-01 6.086157776846948808e-01
-1.055120938675121606e-01 -3.700647995038502391e-01 3.850777891003233644e-01
-9.489646123032614844e-02 -8.999153481236292773e-01 5.539068088483865143e-02
7.832147340647246381e-01 3.705151993262751353e-01 3.335958937570319693e-01
1.874953989140185628e-01 4.504812822477051171e-01 7.116661915708671904e-01
6.602146286766209515e-01 -4.808610499629010770e-01 -6.528924471554505837e-01
5.718733502188341200e-01 8.004369866202594164e-01 2.702065132505901413e-01
2.106562930910221565e-01 2.202446443440647661e-01 -5.855048249630091517e-01
3.879917958617932205e-01 -8.044523491422403971e-01 -8.293896407414844130e-02
2.552549714308725570e-01 -6.024052932546556383e-01 1.535072614045893957e-01
-4.864503580229550539e-01 7.103525857416738143e-01 2.695372916384118980e-02
-4.837590433416038421e-02 2.810807509032988913e-02 -1.703279612752377492e-01
3.007639646612723650e-01 -6.301356229476862136e-02 3.056488253876452066e-01
-8.174246827740851151e-02 4.027711610510779916e-02 -1.252782970052785383e-01
8.198104161686382563e-01 1.074457134824384347e-01 2.592937137712313933e-01
-1.545521166231860755e-01 2.567162763021017535e-01 -2.110789166036672326e-01
3.498590791500723329e-02 -1.714860407081315041e-01 1.601812351355637598e-01
8.360270641222802834e-02 -9.445035681287570206e-01 -1.186342584561888014e-01
7.058753339797667614e-01 -2.123441274537993528e-01 1.857164004074204344e-01
2.159362561577253259e-01 -9.399967283445462285e-02 2.194723538415872255e-01
7.424024177024471892e-03 -4.564594857000373040e-02 4.912308405160392688e-01
4.922053593304943214e-02 -4.551359254257108383e-02 4.216478706734495541e-01
6.642778963603109821e-01 -2.461338884443496078e-01 1.868849229528055655e-01
3.492499225567626819e-01 7.102830117561282908e-01 -3.369205150832152440e-01
6.548817254774256247e-01 -6.693962665313184512e-01 -4.115012817885920215e-01
-7.755687355841818231e-01 1.639836795775038991e-01 -1.932788004509948254e-01
-7.424806761518563947e-02 1.724096309050876796e-01 -1.799257936935358404e-01
-5.609945020659851123e-01 -5.506388332305477140e-02 -4.224360482962321583e-01
-3.425183619701603344e-01 -3.098626474735268199e-01 5.791371452051140567e-01
-2.683600558580309103e-01 -4.348030181476379985e-01 -7.147214764946517862e-01
-3.379696080625088639e-01 8.254718056957920380e-01 6.636071237179470839e-02
-4.329701672344070662e-01 -5.680794251468295197e-01 4.394287289072658087e-01
3.040005838863879539e-02 -1.456450091381920331e-01 1.414129382363643328e-01
-2.277675160459016468e-01 1.210141206091751992e-01 -2.321894406729134719e-01
-2.983464121000068969e-01 -1.704567099159601251e-01 -5.937279121347979194e-01
-5.682911092088956811e-02 -8.694250692106886280e-01 8.891189876334035236e-02
7.821613639542602803e-01 1.736126715680450794e-01 3.156966317890338436e-01
-9.011847947826404637e-01 -4.713573750507733112e-02 4.741078335502265650e-01
3.333037369749726198e-01 4.213187908835085427e-01 -5.386935894065459918e-01
7.342245398494259279e-01 2.770739314606818771e-01 -5.795715617678243170e-01
1.307754068652355051e-01 -1.884039858053432326e-01 1.432395337887270859e-01
-4.413791143185304966e-01 7.648926374367925884e-01 6.470964715528212952e-02
-1.335222898857907348e-01 3.719975575759645881e-02 -2.474871611603476906e-01
2.264344906788499368e-01 -1.892396167363980253e-01 1.811344189776768476e-01
-7.676647234821816213e-01 3.810583298052105938e-01 -4.432584857289878499e-02
-5.813734746216351335e-01 -5.533654147619917474e-01 -5.296213803252748376e-01
1.298718298188924203e-01 -7.173605555245713417e-01 1.506160701488127585e-01
1.310913007012094039e-02 -1.132565552092810041e-01 2.052751794327450086e-01
-7.178171591213495795e-01 5.995308982715925605e-01 2.465343324511904133e-01
-9.439472175410713872e-02 3.549072639090664061e-02 -1.717711965206529245e-01
-7.337668338590841444e-01 -5.931973556279392934e-01 3.024014151639150549e-01
-4.972159154812718640e-01 -1.686770960119717278e-01 -5.161053667834749614e-01
3.795051319822905778e-01 -4.528505664581549683e-01 1.641629968516525595e-01
7.101284568217439697e-01 -4.985466021953046112e-01 -2.406062394837556184e-02
-4.688525451648014597e-01 6.954930567424353338e-01 -7.745109926802907878e-03
4.406967510910568264e-01 -2.140907524367381132e-01 2.382816835743247486e-01
-1.209423657288255932e-01 9.124811564581020162e-02 -1.541329085718651237e-01
3.332954452447085825e-02 -1.553227682050141445e-01 -7.348156027707555271e-01
4.501731512173810096e-02 -3.665869755793453311e-01 2.473310866226989257e-01
4.108717168685720872e-02 -6.807061624805001154e-02 4.047506823583590235e-02
3.914576330658680048e-01 8.113163128806786251e-01 -2.142567800403987199e-01
2.322927584744965690e-01 8.398084938070548428e-03 -7.273445299999004021e-01
-3.661361879102863481e-01 -3.568404514145974149e-01 5.604962826705414125e-01
3.624164907879765321e-03 -1.134822950519037976e-01 3.319943600844311171e-01
4.477779396288900093e-02 -9.605110293182222980e-02 6.926294576360673971e-02
-2.332056143177704266e-01 5.864113116923227453e-01 7.430860304881544698e-01
-2.920660946661057800e-01 2.829588530226571641e-01 -2.269079683620520704e-01
4.398705203695290056e-01 7.030823568305412108e-01 5.196943856459370625e-01
-5.218487044088333804e-02 -1.987846958073588577e-01 3.777933930854518452e-01
-1.250782137360697266e-01 4.945996104230171997e-01 -2.535368693294468567e-01
6.996247651175666604e-01 7.264829649044556303e-01 -1.107680927210358407e-01
1.682014470212451693e-02 -4.600333575595673408e-02 8.821473562608353816e-03
7.241893030697003075e-01 -5.530825128767654641e-01 -1.147479358099278007e-01
-5.256724080888195427e-01 3.215673027646136495e-01 -2.166409999397096997e-01
4.356270287822678888e-01 -3.785392697857637434e-01 1.782682351029015178e-01
5.080107604332328997e-01 3.161270606800619665e-01 -6.275792482823007168e-01
1.008978959679233539e-01 -5.825571963852291951e-02 1.273671007324331528e-01
4.158666561621162105e-01 -7.219141250318127367e-01 1.987932334800488962e-03
2.315822682467034641e-02 6.208735030947304390e-01 7.222945098656731178e-01
-6.680027684368906871e-02 -9.721166947545155645e-01 -1.362091629274018445e-01
-6.099946257467760979e-01 1.438169844524312679e-01 7.235027625041758892e-01
7.966724993353613282e-01 -1.790210207151472221e-01 1.414623991824698890e-01
9.333957778774555625e-02 7.536994695816878059e-03 -6.528527187251152997e-01
-5.640429048950848512e-02 2.281185766028507311e-01 -2.272305426236521098e-01
2.817679723335229092e-01 -3.655120256472456086e-01 1.869298317853082536e-01
5.555668686083038432e-01 -7.553965015847582398e-01 -2.375897862486288648e-01
-1.792548258255864668e-02 5.745045088265077898e-02 -1.719503694739022426e-01
-9.971532625135505201e-01 -3.133350748653873641e-02 1.320125680267966173e-01
-8.675543653812800571e-01 1.451156516380522343e-01 5.177362939261832553e-01
1.559450733519467946e-01 -9.485147365418032939e-01 -3.495286199022383800e-01
-2.264918251277367456e-02 4.567018819468944037e-03 -2.563323130437299147e-02
4.190287962970646318e-01 -3.121179033334158318e-02 3.580944584132552677e-01
1.634156043747495846e-01 -1.067749871899821013e-01 1.596292120208540610e-01
-9.764405441253929396e-01 -3.038308976280420515e-01 1.039174903733241367e-01
2.443075339646902377e-02 -1.119192611149012473e-01 1.099325572021469799e-01
-3.075827316256409330e-02 3.304154425862054212e-01 7.639314695257864996e-01
9.876526892134078472e-02 -2.779181015737510960e-02 3.899085051255887779e-01
-1.005944339793481412e-01 1.332226258728393675e-01 -1.537284998021635485e-01
4.755691830706232914e-01 -6.273051533215723286e-02 3.325350272263102314e-01
-8.814631148596397958e-01 1.868047101315355174e-01 4.843675868659824135e-01
-5.118448139658214879e-01 7.678962026311135780e-01 1.932721496111266812e-01
9.340646612776745683e-02 2.516734908451065955e-01 -4.416730658307304047e-01
2.387861966963802929e-02 2.196548596921027718e-01 -3.349461291020922049e-01
5.611959096583031270e-01 -9.118658945755772627e-02 -7.693697150388700834e-01
6.337145516359059538e-01 2.842513920102701999e-02 -7.214293279151067217e-01
5.749682274945004945e-01 -5.224870913555236251e-01 -6.948644181496999028e-01
-7.685497233911676718e-01 5.367530481794151598e-01 2.148314336233547728e-01
-6.116775971699336401e-01 6.134279837673847213e-01 3.038560271038989041e-02
6.248365464014901116e-01 -2.166642236618850914e-01 2.179996638924832641e-01
-2.295840400274970772e-01 -3.898308395857795206e-01 4.785340694794317784e-01
-8.790323205879526161e-03 -1.406474280728470423e-02 -4.523032746293961098e-02
-3.769880830903457603e-01 5.593551197406865932e-02 7.520330233628638172e-01
1.057039260592773644e-01 -5.454372861981477555e-02 1.528327293828082578e-01
5.619157053532954776e-02 -6.341146050981284754e-02 2.634859951819747970e-01
-7.508313819077133688e-01 -6.780349472820944579e-01 1.365251823098351247e-01
4.940659932635647622e-01 -4.867820415412721924e-01 -7.564843230014398623e-01
-1.329212199836812547e-01 -3.872869395845544849e-02 -5.141809147833998894e-01
-1.885219126691020375e-01 1.287190986334882901e-02 -3.619016352675023529e-01
-7.475581900870650887e-03 -9.043495942812634913e-01 1.916607059856219666e-02
-7.077495585294846236e-01 -4.338252764072594858e-01 -4.429238977618615847e-01
-6.708421014745784561e-01 4.916578461864620775e-01 5.876178469664383730e-01
-5.162731467079289573e-03 1.132487714038833554e-01 -2.865858499700220663e-01
-2.306051809038888734e-01 6.210110905256670533e-01 -1.842870292024531009e-01
-2.371956707564543965e-01 -2.597833530530365698e-01 5.551815981520740184e-01
-4.969228350231360558e-01 -6.182490235296296266e-01 -5.703370033199562927e-01
-4.731384137797255973e-01 3.235333803022461541e-01 -2.233559690115499985e-01
7.183078969882670251e-01 8.785539321636100241e-02 3.360477820493655288e-01
2.747326992353137445e-02 1.792836792520778599e-01 -3.546352127145587785e-01
-1.992564801087043647e-01 3.831948786663901263e-01 -2.301966189352799841e-01
2.151565466439948060e-01 -4.078192485971029319e-02 3.057424404174627353e-01
-2.810001053213041083e-02 1.622066369626541382e-01 -2.113225102420715484e-01
9.232753731727758595e-01 3.103846524134493134e-01 1.211480652249217471e-01
-1.546987064465121971e-02 -2.503133618658673898e-01 2.853296556697378916e-01
-4.376559815519902585e-01 -4.958782522896227896e-01 4.903114734948738063e-01
3.050127576063325213e-02 -1.324676214917454298e-01 1.258664844482437484e-01
4.627864103197240064e-01 -2.054559260760881190e-01 -8.050358155619524725e-01
-8.514807505945169996e-01 -3.726468854656634355e-01 -2.792844417323183115e-01
8.861164679093833652e-01 1.946383940759086051e-01 1.983990282420835527e-01
-1.961859718229923000e-01 4.461915103255735260e-01 -2.323535502903532335e-01
-1.350273744946298149e-01 3.981670729158395816e-02 -2.383686165579865512e-01
3.700795963034387293e-01 7.988218954316105291e-01 -2.357352975704375408e-01
-4.662589897462679489e-01 -8.705930153563117280e-01 6.063749878068266236e-02
-1.880082438008957857e-02 7.293427189684659195e-02 -3.864758545276970603e-01
-3.290753608480364613e-03 1.552303970607555629e-02 -2.298457088665103315e-02
1.032045360896748643e-01 -1.323036974551094758e-01 -7.507766400848411292e-01
-8.776926628344977610e-01 3.018173271074943709e-01 4.883666326220658521e-02
-6.643192638831549313e-02 9.379917430032675973e-01 3.647213012097598184e-01
-2.853018580661727255e-02 5.862729225660461008e-02 -2.232529728975738703e-01
3.037521250656849761e-02 -5.676734720304962845e-02 1.396123340670991086e-01
-2.484367064704190720e-01 -2.620477396903660942e-03 -4.001320488677933551e-01
-3.755907952763772872e-01 3.871898830966093996e-01 -2.124210334831271307e-01
1.957251517948781910e-02 1.000186080092596574e-01 -4.413963951203647706e-01
-1.928898554436225821e-01 4.499179314567695598e-01 -2.331152255314273558e-01
-4.812648830810990069e-02 1.872976699544435381e-02 -1.330474521403470223e-01
-4.712764761060977969e-02 5.034920219373794498e-02 -7.866543227969992336e-02
4.234630699464572157e-01 -6.876536280563165793e-01 -6.671116033422379576e-01
-6.352371130556830336e-02 -5.099670349199232344e-01 3.189256268091284485e-01
2.379907881543565640e-01 -2.812562851527563024e-01 1.838711087408775313e-01
4.288562054337735074e-01 1.470494684821549991e-01 -7.086950107318102932e-01
-7.717640558005271767e-02 3.626654552714175112e-02 -3.136693452203832000e-01
1.032570951643895230e-01 -2.036230567771640243e-01 1.482663483944013372e-01
-8.414210143819411333e-03 -2.051591841721719378e-01 2.685989389690119356e-01
1.879489961140103638e-01 -4.179186286419110316e-03 3.901051031044420747e-01
-9.355746590315528952e-03 7.306551247993433584e-01 -2.177866874354382476e-01
2.763270232680667404e-01 5.053154990944190850e-01 -4.684828786182311799e-01
-3.546321537216773900e-01 9.409648632407179025e-02 -3.152465313083989140e-01
3.376075366874601441e-02 -1.778986650900367655e-03 5.302368610798909865e-01
7.335114503899148319e-01 4.419718182153765107e-01 -4.719897203383076612e-01
-1.024324281124088139e-02 -1.254900804157047800e-01 3.589659310205625120e-01
7.088872541076475520e-02 9.197652447787822982e-01 4.300499651900048237e-01
1.463366270834929317e-01 -3.280745194287796457e-02 3.179514156564686167e-01
-5.479910572565804827e-01 4.774264118168847909e-02 7.325861401018975982e-01
-8.568615504077540246e-01 3.385229595381409884e-01 4.950343958222749169e-02
7.697535756206561608e-01 -3.848957432167124937e-01 1.854824950656978194e-02
8.304125901350761785e-01 -1.248163455735958466e-01 1.416076545815836418e-01
-2.039487653168628734e-01 -3.129895202120366315e-01 5.003811023143560632e-01
3.553941718127270888e-01 -5.568404972726643809e-01 1.370326930766773421e-01
-1.351244018066876662e-01 8.717529196235378197e-02 -1.686870745269995198e-01
8.932045054023132757e-02 -4.437591907985475453e-02 3.273066406695487873e-01
-7.760313704435320981e-01 3.371382515518476231e-01 5.681284701904433243e-01
-3.452124825481834441e-02 6.356235350419768559e-02 -8.777668471097957448e-02
2.881438322604018554e-01 8.247885281853327699e-01 5.012525968351316807e-01
1.767844112321284578e-02 -1.156343131485808584e-01 1.400874470450135800e-01
-2.894124094759269530e-02 -1.517539418669324180e-01 3.711537965850814080e-01
-2.729915902726922500e-02 3.345462176182778524e-01 -2.919931388775091619e-01
1.006864205110633188e-02 3.449659802209617196e-03 -4.171599111206490684e-02
-6.332073297565770087e-01 -3.685459581026359621e-01 5.488770281169909060e-01
-9.295559149015834022e-01 -2.483229255940169744e-01 3.528246143557041692e-01
-4.571773963569036314e-01 1.822471376212887184e-01 -2.825853604419628073e-01
-1.082026154288647790e-01 -4.631862641595332897e-02 -5.464560945934821001e-01
1.366236107438583043e-02 -8.796400608274522470e-02 3.801402249206684014e-01
6.033077134240465433e-01 5.591632424870737195e-01 4.688848211865553339e-01
-7.923805098290276350e-01 -2.615948316435889320e-01 5.187242085818823956e-01
2.001609400711029108e-01 -2.658177519668020183e-02 3.344835334856539610e-01
-5.695544955589439129e-02 3.555012040460617945e-02 -4.149248083517324548e-01
5.144370427827237718e-02 7.582319255883928077e-01 -2.208188899024150220e-01
2.808231917906479219e-02 -4.934264641322030909e-02 1.622505504497936957e-02
1.194022659566405936e-01 -6.051128599807645836e-01 2.036322465766139400e-01
-9.437904122704757204e-02 4.228436663221048913e-02 -1.486130332995312109e-01
5.403911738583373481e-01 8.549989799632484733e-01 3.685794304178815345e-02
-9.244937563996027952e-02 3.200713371846580085e-02 -2.293073374872564851e-01
-2.047944949545584814e-01 4.047137823101977505e-02 -3.025823634515425464e-01
9.700642930076545101e-01 -1.400500399502654925e-01 -1.601692368585143911e-01
4.340273801051050540e-01 -7.886449058012825475e-01 -5.299256086607571081e-01
3.270410448310370755e-02 -2.763607589413710763e-02 7.153045181872903779e-02
-9.994197069466514982e-02 -3.534658777711289224e-01 -7.634961006279706863e-01
-1.935462351419467986e-01 -1.529399099188036987e-02 -4.304826821573466411e-01
5.519577521625651517e-01 -5.908263106896384231e-01 2.807757626244689747e-02
5.578852870954644771e-01 -1.527038781773022713e-01 2.685496212024042206e-01
8.975929212794745912e-03 -3.760833033094968664e-02 6.120440433367350941e-02
2.328509658925617676e-01 4.736466331278486042e-01 6.949283419836809195e-01
9.205094937588260695e-01 -1.638684495912817729e-01 -4.603823026724596090e-01
-1.576166001266917083e-01 -9.730465321694942160e-01 -1.295142735324389394e-01
2.444695158184271438e-02 -1.129144295607410579e-02 -4.409846350560930363e-03
5.844318095448877148e-01 -7.371913661628417547e-01 -2.599195124416229796e-01
-4.980177873033288932e-02 -2.066284494631628332e-01 3.668155386264755902e-01
1.052554234082765522e-01 -6.289094841168145489e-02 1.258332927714502780e-01
6.177867615545074020e-01 -2.903720932713846695e-02 -7.402322180743786673e-01
-3.787666925279791763e-01 6.219375971173422835e-02 -3.476943243019830487e-01
-1.575966525609844571e-01 -2.744027102586180655e-01 -7.172908184613636662e-01
8.087624809607772691e-02 -1.327551227881302309e-01 1.032626296194662785e-01
-9.250733677608614924e-02 8.838529693602807935e-01 -1.406651122476433244e-02
4.424497652614010623e-01 -3.017642061387951213e-01 2.033813028234527642e-01
-3.965336797499541266e-02 9.053746689088894989e-03 -9.508894502940232196e-02
8.309382619484548815e-01 -2.290918114412221207e-01 7.387422457750582316e-02
7.546877415196967531e-01 1.087126899479070180e-01 3.179682487130328639e-01
-9.440668005953242181e-01 -5.080825843900692307e-02 3.984734104337668836e-01
-7.257930664374389051e-01 5.467693990402404669e-01 4.465504759797397916e-01
-2.588442587588167254e-01 1.662906363300563073e-01 -2.335301418013258079e-01
6.891950244081065935e-02 -4.291566387894475698e-02 1.311083496966867490e-01
9.239156578610052684e-02 5.895671362295595852e-01 7.193250414747991428e-01
2.180113295469194024e-01 -2.984978141205325008e-01 1.830263748430941695e-01
-2.338631448740294966e-02 7.522041781326248289e-02 -3.370231334526931910e-01
5.349401458226507033e-01 4.832475173376931110e-01 -5.209435757312829152e-01
8.360334245999936353e-01 5.702069216119795003e-01 1.109693464534296098e-01
7.114846395193965556e-01 -4.804096449110304423e-01 -5.999508941270383922e-01
1.862150360762076379e-02 -6.744392925176441456e-02 1.259897302974867794e-01
4.091048622993485040e-01 -1.437350127211123596e-01 -8.037286910576182386e-01
-5.130365563429404308e-01 2.985542609815161064e-01 -2.287537019552307593e-01
5.374067236970864192e-01 5.887632260398235895e-02 4.077428605485625690e-01
8.781931102831621594e-01 -9.937313974618933177e-02 -5.479638137556696043e-01
-3.027560356128363925e-02 -5.487907950050651545e-02 -6.197375543410736931e-01
5.019287576115398775e-01 -6.463049115363413977e-01 1.462999012798678680e-02
-5.217978818542882147e-01 2.028101071969022062e-01 -2.720754046046977570e-01
-9.390343877220244662e-02 6.301754035236684093e-02 -1.294874220113113872e-01
-3.453168110161390914e-01 -5.121083864536217778e-01 -6.812835337329347096e-01
7.009271776215542094e-01 7.459073032784706569e-01 6.735002481441357269e-02
-1.808968948373995411e-01 1.001620916426425589e-01 7.344421440395401124e-01
2.420378415159363250e-02 -8.610387892917658048e-01 -5.959085353113870998e-01
4.773910708712775786e-01 2.844053820822131651e-01 5.517231796651260733e-01
-9.411895515044964577e-01 -4.191220382611188788e-01 7.142848316765698646e-02
-4.731865248394723222e-01 -2.803739751084807219e-01 -5.816370777286671290e-01
5.070685284555339623e-01 6.164119799258698240e-01 -4.175452822939578201e-01
-7.995016388082532011e-02 1.312366740370927987e-01 7.143573032565717629e-01
-2.737361749909120734e-01 3.186803187444102459e-02 -3.505477403665261393e-01
1.847795741351594412e-01 1.671074919015759219e-01 6.178189949637268308e-01
1.955827334873219414e-01 5.783240613869631286e-01 6.928820033605176398e-01
-3.131617864484276814e-01 1.686046076965423135e-01 7.767418459846610057e-01
6.779250575177310223e-01 -5.172344836882987462e-02 2.894220909758074556e-01
2.373797012972941045e-01 4.638290987442514335e-01 6.934365940972762044e-01
-4.082220377095250874e-01 -7.089430489685328851e-01 3.198131754708390950e-01
4.633629137810868492e-02 5.834788615873895967e-01 -3.175571276357013750e-01
6.300193794296432559e-01 7.940452610179716819e-01 1.481721181932860176e-01
3.069016978022949260e-01 -2.897652777091474507e-01 1.944538178688915708e-01
-1.156844166390808698e-01 4.031895399639231353e-02 -2.024057974835079265e-01
-1.696006648841292541e-01 9.320222543925835712e-01 2.738813518275488579e-01
5.698612124404369705e-01 8.356251809714790868e-01 1.522878707706322166e-01
-3.834181140720827052e-01 8.626659429517556654e-02 -3.291001116095135792e-01
7.179420756785109825e-01 6.326995474257902652e-01 -2.793219624078175367e-01
1.094795294747598347e-01 -1.079255316186556596e-01 1.081022314212689156e-01
1.480024435781905900e-01 9.789074476134827785e-02 5.741875320584803877e-01
7.652835524335381834e-01 5.372184535746754586e-01 2.982578941352456714e-01
2.739009630163856679e-01 4.816032599069120512e-01 6.784308615133082254e-01
2.788597228707107023e-01 1.635021978347228067e-01 5.739096640283399831e-01
2.919099139131357545e-01 -1.544926779062307243e-01 2.248406822330402399e-01
-3.624934453790319006e-02 2.285314885943956209e-01 -2.452471948578715255e-01
1.198349106224918213e-03 -9.032807837234213544e-02 4.108205242574209382e-01
-1.653743922601685068e-01 6.706012668518643860e-01 -1.875665220337044414e-01
-3.966085413661283449e-02 -1.570654043887303730e-01 3.923653789270820091e-01
-2.093936477529449447e-01 -7.846712924282710500e-01 2.247575833487358010e-01
-4.304909191450434491e-02 -9.748743944746798284e-01 -1.616003623316396576e-01
1.083245893602289150e-01 -2.518238755671441398e-01 1.724763451675677961e-01
1.859634965962166375e-01 -3.483422024033724362e-01 1.908463491650977395e-01
8.401523213001980128e-01 -3.152146693971160096e-01 -8.955431550394743478e-03
-4.736205004930555962e-01 -6.692083466441417494e-02 7.127562976772149339e-01
-3.385626091450922304e-01 -2.873584838026184696e-01 -6.470305051649631878e-01
-8.997614037371901574e-01 -3.872335106858064147e-01 -1.846886920720857417e-01
-3.447963658342179105e-01 -7.197699679797063370e-03 -4.130174712835087414e-01
-5.459449135813012610e-01 -2.652369014421059878e-01 6.241399699116821909e-01
5.431549879504258271e-01 -3.056971560269420851e-01 1.926613010822348648e-01
-5.282219084455734397e-03 2.739178609619218052e-02 -9.288484933184103232e-02
-8.460587816602221272e-04 -1.157498329683242511e-01 3.466056249397418965e-01
-3.486772586187010525e-02 8.210986437780580793e-01 -1.280470325414152510e-01
2.879897479799754523e-01 8.452029247556375191e-02 -7.078442653540414353e-01
-7.458406924371840940e-01 1.202509711185759458e-02 6.384885161511723028e-01
-4.946879722215449249e-01 9.056150506763262220e-03 -3.937309714968938446e-01
-2.520887371463695348e-01 -2.383224468014202568e-01 5.772873623755530037e-01
-5.508664798356160616e-03 -6.089100908488460639e-01 2.589353567583675964e-01
-1.045896971874099579e-01 6.972644567262892279e-01 -1.987931069717836507e-01
5.519791171996300122e-02 -1.321381642806399304e-01 1.037420426264454021e-01
1.225919372960171116e-01 -1.246284550671658692e-01 1.202460459941102344e-01
3.240648466671324779e-01 -7.211809498174998057e-02 3.037251331598565529e-01
-2.259068824700538602e-01 1.385935503325445017e-01 -2.239276510507524076e-01
7.454970037371126956e-01 -5.645321838660039004e-01 -4.291279518977513807e-01
3.240920933658375525e-01 2.188480514591751303e-01 5.920670428348149272e-01
3.001982543227777259e-02 -8.310211011866351638e-02 5.813850185619387489e-02
-2.080370088676784454e-02 3.630237822406243847e-02 -5.380798075364646993e-02
-4.950026972853014892e-03 -2.173020990316950826e-02 1.850442081078933210e-02
-4.859945852234694441e-01 5.821201536586576575e-01 6.662336944748744605e-01
1.843186400857703931e-03 -3.809570870110643576e-02 2.311199480305758166e-03
-3.842374053473084083e-02 9.505532899790664070e-01 3.196075109473189846e-01
1.421559922883263057e-03 -1.065781758403489266e-01 3.653973729599910847e-01
2.507279594207827318e-03 -2.293395877775607217e-02 3.419758548282040428e-02
-6.880987990376854491e-01 -7.691409981846957233e-01 -1.398071473444362778e-01
-8.729991728716464117e-01 -5.589140346064257470e-01 -4.556684769527349910e-03
2.029176952819849167e-01 -2.714297801173919805e-02 3.334274842545652540e-01
-7.508689532279816392e-02 3.696605170335104384e-01 -2.684774847562771405e-01
-1.417973389769215387e-01 -9.603937855188443562e-02 5.956636253614120413e-01
4.585634133950641789e-01 2.409548979333011876e-01 5.440517212857399754e-01
2.354478446809693884e-02 -6.532698762727288944e-02 1.398381302201987808e-01
-6.819338885662247218e-01 -4.889600193215383472e-02 -3.672149913834304447e-01
1.737044152201176750e-02 1.700567318713045728e-01 6.954178570295840300e-01
-2.964418193030120552e-01 2.528891216296052513e-01 -2.307150276447048898e-01
-3.366538417238094660e-01 8.737155510302013761e-01 2.504408437791140751e-01
-1.716166062110589113e-02 -1.943227661312534396e-02 -5.879050320193126566e-01
-4.207172117731802080e-03 3.338775073925585868e-02 -8.625259422891809469e-02
3.543749748301914908e-03 1.015461076859361551e-02 -1.529862001885959333e-02
-2.043370933611398099e-01 -9.834863419769757087e-02 6.362023377890512199e-01
-5.821045303098495438e-01 -3.183487036114847624e-01 5.909775111773466483e-01
-2.095257982647309170e-01 2.109882657817998830e-01 -2.097513924813953212e-01
2.399580224555961927e-01 -2.473546095706571912e-01 1.833077097617250850e-01
-4.488053330155770126e-01 5.248127936937740934e-01 -1.476606633257092349e-01
1.892627995219698170e-02 -1.506931367728970572e-01 1.727490699727430301e-01
-1.689441193628819227e-01 -2.442907330473373662e-01 5.102045241784791685e-01
-2.873740930918289305e-01 -6.414972713383464420e-01 -6.782952030188472703e-01
-7.632419988133182231e-02 6.770599174294064104e-01 -2.218915042549291505e-01
-4.193867038632853039e-01 5.012489983152687567e-02 -3.636175550966121994e-01
3.001284182580577498e-01 -6.142873279553023869e-01 1.327736830642557708e-01
8.366382507175929018e-02 -4.835832145569975982e-01 2.373294591293862998e-01
-2.334927237573160286e-01 -1.076477566475847192e-01 -5.599242190143607356e-01
3.557772596380529007e-01 -1.750953953722197420e-01 2.396537038329089320e-01
4.409894946312779146e-02 -4.328575035249915270e-02 1.253773280276357649e-01
6.356084822167054060e-01 2.064248591255012644e-01 4.361210296764967964e-01
1.354944731671085534e-01 -7.737183274180158277e-01 -6.819325027774695291e-01
1.302030138134596393e-01 -2.149158890264307384e-02 3.734543440039659878e-01
-1.245708213594635266e-01 8.014120836133882264e-01 6.046373480246759469e-01
-4.198382684457673333e-03 -9.314572868658676369e-03 1.097529271520524853e-02
-7.051811740452474941e-01 -6.359324122919870481e-01 2.760698456457694738e-01
3.186618374742221094e-01 5.702181593222613865e-01 6.462415539840034029e-01
1.934941299939126058e-02 2.020633446318780280e-01 -3.272577614316328209e-01
3.679559245318533151e-02 -7.320890977055327653e-02 4.441882516410319143e-02
3.922444695809212956e-01 -2.871218544135604733e-01 -8.193688004510544243e-01
5.414414394866556152e-02 -2.685372150676226810e-01 2.068031526004813769e-01
1.715163277978495535e-02 -1.160055497004722491e-01 1.436546785881252786e-01
-7.520703123667241141e-02 -1.775167827279516553e-01 4.419322275713172266e-01
2.593467142807888148e-01 1.961483820299552150e-01 -6.318634964219009831e-01
2.349141291011942051e-02 -1.710090947591799138e-01 1.789863730593419799e-01
1.534326949532091033e-01 -3.614474485695031714e-01 1.987278768990068667e-01
3.088770133116524041e-01 5.603949679457678190e-01 -4.465066657206666623e-01
7.600908477607637437e-02 -3.616863723782608453e-01 2.274181103996235631e-01
-5.574789636970848283e-01 4.873729995105748891e-01 -1.221657580056628584e-01
4.987272014705121936e-01 -4.416876538447196965e-01 1.422870278762727869e-01
-2.529254104270363679e-01 -2.256230612634600174e-01 -6.517535254991343452e-01
-8.047421203660463096e-01 -6.554930819486550764e-01 -5.880356479122520082e-03
-9.353704833884821657e-01 -3.399470469263183858e-01 -1.170672901835299179e-01
2.050726386282185343e-02 -2.403420444664399191e-01 -7.690828504259127341e-01
-5.689985865722063663e-01 4.286658927278165776e-01 -1.513435413801765550e-01
-2.600396746190310471e-01 -1.384824813441215274e-01 -5.811685438181581898e-01
8.977628468952638663e-01 -3.139322725680186443e-01 -1.330750924422273440e-01
-3.465633943149776935e-02 1.310748329848188953e-01 -1.714802431117535275e-01
5.644148746449283438e-01 6.764030627030337417e-01 -3.379612038001501562e-01
4.949344819190464873e-01 5.157531166934179456e-01 -5.012577761627163841e-01
2.469615687603094745e-01 9.468734821156394865e-01 7.285778244587996777e-02
5.417782931424759418e-01 3.745831816218406218e-02 -7.444540857044761317e-01
-2.798133989972338351e-02 1.843199495982585645e-01 -2.281672191795085514e-01
-1.427121656968548258e-02 -1.637805056155630379e-01 3.049119437912080621e-01
9.952421413643010393e-04 2.224875803692577189e-02 -6.666956265749840460e-02
-5.461178306489037348e-01 1.839695052563105615e-01 -2.793207562141798994e-01
1.851223187408410353e-01 -8.382945812336189961e-02 2.034305037412378336e-01
3.781224233416183855e-01 1.964590830677584166e-01 5.561119187894607574e-01
-4.241737412089369164e-01 7.658543633535382922e-01 4.771350498237341559e-02
2.111217782001971743e-01 -3.516367883316473542e-02 3.165873392747511339e-01
