-2.367230882393636937e-01 -9.875438576270072211e-02 -5.425372820107602356e-01
4.673969449092203049e-02 6.370341032510519197e-01 4.673027902349513041e-01
4.320988904381227180e-01 7.124289040274958129e-01 4.462878448859640690e-01
-1.517021237596378851e-02 7.078539650139376027e-01 -6.576845666677314517e-01
-4.069202167556499883e-01 -3.275295759959053199e-01 -4.891250249263025540e-01
-2.978169101018806053e-01 -5.381727408008522145e-03 -9.512926334447739940e-01
2.718918391934855086e-02 9.483850283336513476e-01 1.446384814386653950e-01
-9.335304795085690166e-02 5.440651251803954036e-01 -2.663143659605689550e-01
-3.041654568278059564e-02 -7.667189401065256371e-01 5.766174055707379287e-01
1.866885590714024643e-02 -4.352040897478163251e-01 7.542479913133387504e-01
-8.156866950096561264e-02 -4.612181213314582862e-01 -4.945726643834644776e-01
4.173302228249453072e-01 6.583222869657384679e-01 3.017418737714045451e-01
2.315104482416907306e-01 -7.422322984586383621e-01 6.196294389894070331e-01
-3.442339233680797861e-01 6.619965314617476393e-02 -5.629004431638650052e-01
-2.897968852664234984e-01 -7.751840028147654049e-01 5.984615236008232475e-02
-3.112768520760583746e-01 -7.831992623292349798e-01 -5.445890658119619809e-01
-2.051352979127475384e-01 8.324264069173842318e-02 -9.418077134004302353e-01
2.436847629405329008e-01 5.219839608398373354e-01 2.420937271902492138e-01
2.126151115452523943e-01 7.381678094871353402e-01 -2.692216071599338179e-01
-5.976317507891593106e-02 2.302418410121383485e-01 -6.134460504086359789e-01
-2.950619054284205345e-01 -2.455520055025573745e-01 -4.862418781869082274e-01
5.258821728473605378e-02 5.020336741495728949e-01 -6.069579223851495620e-01
-1.720605263597498880e-01 -1.578141058768992855e-01 -5.610774488259494541e-01
-1.739223502651989287e-02 6.320816548988771322e-01 -7.050828208748400883e-01
-3.229164281395787151e-01 -3.334585496481173861e-01 -4.415260879027785856e-01
-1.615067715386734118e-02 -8.216398390345170943e-01 5.374300387709176619e-01
-1.533686254419934780e-01 -4.646211081970169632e-01 -7.715247745382780575e-01
-1.157606901221233144e-02 -6.880858141461205779e-01 -3.692887480020505264e-01
1.281109957038504277e-01 -8.479792209947425441e-01 4.747694237101404702e-02
4.904714068809329364e-01 7.650616797922049628e-02 6.974993637767727961e-01
2.866714175354923566e-01 1.118145918393899790e-01 9.474264492565750428e-01
-3.115298064095068376e-01 3.632346733062320476e-01 -8.789229226415874452e-01
2.134899437009371292e-01 -9.998632092041181973e-02 5.589655108431128561e-01
-4.924096608905115940e-02 8.592691120193405308e-01 1.332492878677615233e-01
1.158702825966754779e-01 5.340292095314707055e-01 6.826413301744849171e-01
-3.484156593878443564e-01 -7.170036635639229772e-01 -1.193378207697897847e-01
-2.340621537412518327e-01 -2.102960308929907041e-01 -5.105498565054973348e-01
-9.467590764769120981e-02 8.778163634691368289e-01 -4.450413944114293106e-03
-4.286123083582490390e-01 3.134222387172511115e-01 -7.229052181570765345e-01
3.460073483736066102e-02 6.145271598700613458e-01 2.464348684208527429e-01
-2.060872402380148349e-01 8.304116923044118082e-01 -4.128264111162518457e-01
-1.863891039837724251e-01 8.146668631686948547e-01 -2.127052713595987965e-01
3.116095295314570968e-01 5.759480282816605845e-01 2.024191274850003774e-01
1.260255520377694767e-03 -3.826766788975541345e-01 5.992157368760384628e-01
8.992471013008085379e-02 4.417191474927958939e-01 6.455905953020543153e-01
-9.978932499846239479e-02 -1.441738713713973108e-01 -8.045470289110904227e-01
8.807575264011409388e-02 -8.566464934457713731e-01 5.237938486801906324e-01
-3.463105272681233915e-01 5.710794685355893296e-01 -5.678738292584286640e-01
2.371183705178893653e-01 8.847350790178705182e-01 4.153018234505746475e-01
1.038462816185132809e-01 -9.264478204340182987e-01 1.164444265202884687e-01
-4.954495665019810653e-03 -5.969407748631786470e-01 6.948973367563345827e-01
-4.656624614812530094e-01 1.075549859194123437e-01 -7.798578605023678278e-01
1.371280179694865931e-01 -2.955210921597667406e-01 5.118869714404534754e-01
-9.216800958699672419e-03 -8.913574272753547190e-01 4.511969588397664044e-01
-2.591482931112176757e-01 6.707745651678053145e-01 -3.528381168589089789e-01
2.590578642823858635e-01 9.456353019839519591e-01 2.020677554345645666e-01
1.803499935711519453e-01 5.921168498180622297e-01 5.966619800906616117e-02
4.809756600050616449e-01 -6.502080350148867205e-02 7.328833405263558420e-01
-1.607695954191902879e-02 -6.717806838359958732e-01 -3.804038245236998628e-01
1.502842474230939862e-01 7.054993435999065698e-02 6.071059222521667520e-01
3.780877301241886840e-02 6.110346398173587268e-01 6.251735915238279540e-02
2.483380965256669903e-01 4.017716795776227756e-01 3.891746845991885806e-01
9.493201337503283377e-02 5.963452409399754295e-01 -4.654132617310055564e-02
3.542985259795953801e-01 5.216705084072122967e-01 7.877675481829302662e-01
5.675821294246794629e-02 8.939724954443213356e-01 2.946795295382952928e-01
-1.181112660186594554e-01 8.685139775133261519e-01 -6.004885425544728011e-02
4.605370732763943709e-01 4.664007656849059602e-01 4.841303617163219553e-01
-1.319320670671903228e-01 3.429340303238869181e-01 -4.733900170585257916e-01
-1.405417528023041041e-01 7.969626735312054233e-01 -7.644125171301086041e-02
-2.855929238283102523e-01 -8.982183993410589595e-01 -1.437392130085548073e-02
-5.492338102275962260e-03 -4.568548760341855641e-01 7.085998925707751583e-01
1.579932409852835840e-01 6.172423306999986758e-01 -1.345075770494669476e-01
-4.871982908329234863e-01 -3.705282559920077823e-01 -6.208556295601961317e-01
3.975558746086284012e-01 7.676569544690166058e-01 2.525805646912499536e-01
-1.111885211935510626e-01 7.418046809042900813e-01 -6.627430021739304511e-01
3.139915686928546612e-01 5.461898373779865423e-01 2.433093721771784068e-01
2.500190688169875997e-01 6.959250856076361069e-01 -1.085602475242532783e-01
1.173267735917604693e-01 -9.273531386015612110e-01 1.954605542676528529e-01
-3.833685584171249161e-01 4.693941157778708795e-01 -6.920900001034157034e-01
4.849708668679645479e-02 -7.371147033627390988e-01 -1.733333196945789356e-01
-2.556296614729652861e-01 -4.443870668483072550e-01 -8.352728210631245043e-01
1.429411582169319850e-01 7.549964461308167341e-01 5.573089152971294480e-01
1.288886604756936394e-01 6.056778078140812038e-01 -3.590988212807308955e-01
6.672000848023744435e-02 5.518286213323864153e-01 -5.953425860874506093e-01
5.315293074885681091e-02 -6.222828214430958793e-01 8.714517283499452482e-02
3.861974258842396646e-01 6.847060072958559562e-01 6.214890496367658779e-01
1.743709636703298649e-01 9.806560565658394291e-01 1.460343568626804311e-01
2.888303577631603364e-02 -2.927871690023335360e-01 7.330100693995215133e-01
1.591352221685929935e-01 6.889077211163908698e-01 6.299699210180846887e-01
-2.828248284058222928e-01 -8.917356207888124109e-01 8.998329637909027040e-03
-6.739663190134811965e-02 7.968996889589889943e-01 -5.989399269180493146e-01
4.950107761055269617e-01 3.808867485126509189e-01 6.904409500750072759e-01
1.283487082055196904e-01 -8.110075820071804831e-01 5.849346228538159220e-01
1.127352491283088037e-01 5.904424224570778978e-01 -4.328801394162883898e-01
4.255867467790709346e-01 -3.201714684573619407e-01 6.560073718785673913e-01
-4.847055715774582496e-01 -3.181459910120024159e-01 -7.376497798969865460e-01
-2.400498674323674475e-01 -5.077819074701227509e-01 -7.977459221520807331e-01
-2.538986625518052653e-01 -2.425554787010878177e-01 -9.122308998159196491e-01
4.646479569969075296e-01 5.037049055401721098e-01 4.801950034908774589e-01
4.041512704601412098e-01 6.900852227842961817e-01 2.562528256803116578e-01
3.325513283069603809e-01 -5.219949361365099350e-01 7.710713137646719728e-01
6.291652953615275989e-02 -8.137184730322696291e-01 -1.443172797035198462e-01
2.967685959517088468e-01 -2.006682880671457336e-01 9.417724374466607262e-01
4.076698984019234140e-01 5.460515220303806538e-01 3.466719206993710278e-01
4.802062943475990386e-02 4.770760147840077958e-01 -5.260904754971446051e-01
4.050231455603678365e-01 5.932522883589622653e-01 6.986799921060209417e-01
-3.400649063956822649e-01 -6.504779987599417224e-01 -6.836843164213852742e-01
-2.395328025036379815e-01 7.390096887404925541e-01 -5.963987628806903807e-01
2.613605991325738676e-01 2.658056319322057645e-02 5.535122114143542493e-01
2.199362246242015373e-01 -1.888657371586545952e-01 5.372700975364795850e-01
-4.002965222354992192e-01 3.780482986916469113e-01 -7.687177795267799985e-01
3.545873300631168235e-01 8.584615409701228383e-01 2.197361074897248301e-01
-3.408944726839358008e-01 -3.998465882217312473e-01 -4.022267169658627073e-01
-2.353396582270793902e-01 -6.989975451159318176e-01 1.350672493180272715e-01
1.073721914846503533e-01 -8.131340526665750135e-01 -2.540471880307934929e-02
3.688867255790366229e-01 -6.201860477709936897e-02 5.747915535500108808e-01
1.117315900698566400e-02 9.191371113482463828e-01 1.795394376012393045e-01
1.668380482485851413e-01 -4.030454465612541282e-01 4.313588653851158639e-01
3.718274657379384562e-01 -1.955661930456838449e-01 5.747683462792418929e-01
-2.905367647283090271e-01 6.875975360204354958e-01 -4.570632410905807741e-01
-2.435302464668503419e-01 1.820450302495004447e-01 -5.320225497099749790e-01
-3.714256171820524144e-01 3.488425722417296537e-01 -8.398089114214941642e-01
-1.162450126384386856e-01 5.674819116014828690e-01 -2.462208264040531003e-01
-1.446169921659520297e-01 -5.888293800593010774e-01 -6.932027734979595568e-01
-1.055648430287243617e-01 -1.347262962944961451e-01 -6.499718745056035640e-01
2.905149383864884527e-01 6.002964757064562784e-01 7.458307124376684083e-01
2.931321406042945443e-01 9.255642207329191073e-01 1.624650092828533454e-01
2.190512269944203949e-01 5.390304585429461781e-01 2.087032714968875824e-01
-3.025744032736475408e-01 -7.412673579944681901e-01 8.923939190190070814e-03
1.526162109158282487e-01 8.498444358888865846e-01 -3.604288908730532426e-01
1.930117366016537717e-01 6.863054214958735910e-01 -2.757162010059863722e-01
-7.539963019770824781e-02 -5.864259149151772599e-01 1.780867647652543961e-01
1.337345500612893701e-01 3.587928281165586597e-01 5.119001334884942800e-01
-4.651839456621498781e-01 -3.006540175837426609e-01 -7.938897517027710959e-01
-4.903226448996613751e-01 -1.252776506926936706e-01 -7.187397904780070679e-01
3.872615138886705832e-01 -2.723243346351454930e-01 5.839839065615417546e-01
1.259139113814391336e-02 6.389343888208380839e-01 1.930947380787463030e-01
1.902466896615470984e-02 6.324654118606014563e-01 2.081998372479973713e-01
-2.532944757440820371e-01 -6.534178706721056884e-02 -5.443508595574351183e-01
-2.052181052877564693e-01 3.406216676232880491e-01 -4.697522373391446182e-01
-9.808666702733709331e-02 3.618110521633870480e-01 -4.709954565441564767e-01
-5.804532123507648994e-02 8.667274384118592856e-01 1.042377233323590474e-01
9.605391969424569021e-02 -5.936896099383316416e-01 1.918497326983893692e-01
9.614536743042109701e-02 7.818162596287629718e-02 7.080413768066030622e-01
1.319329886451405531e-01 -7.483088713844129325e-01 5.121872682786893921e-02
-1.142465374003347328e-01 3.993236120867862948e-01 -8.591815709271911627e-01
-4.978681103005424408e-02 -5.336173049707423344e-01 3.664140645271699581e-01
-3.818581151150928221e-01 3.826898143268532282e-01 -5.838644213505282954e-01
6.463417035001593758e-02 -5.755304597949671974e-01 2.029732976826919555e-01
3.232312051796144559e-01 -2.323953496178553235e-01 5.423012006161732623e-01
-1.755541020971974897e-01 -6.526074534700269103e-01 -6.721295785861945982e-01
-2.639922685371345334e-01 6.760145053852529839e-01 -6.628434372042651956e-01
-1.064271132483570192e-01 -2.276334866941304436e-01 -7.937364725223146067e-01
1.923209093458792818e-01 -8.407697728939257376e-01 2.463150193863386794e-01
-6.389536016949019792e-02 -7.013617465482669955e-01 -5.072710780439581013e-01
-8.626464783476285592e-02 -8.237450083272280787e-01 -4.320909374958692983e-01
4.869118340881902623e-02 5.901155783824142409e-01 -1.101582831022664827e-01
-1.727479315580995045e-01 8.672377583157199199e-01 -2.722793043932393853e-01
-4.676434611256051199e-01 -3.389883333632626172e-01 -7.726054290352762921e-01
-8.815512746649985243e-02 -8.415049917371811850e-01 4.505026676623715698e-01
2.242999848274060126e-01 -4.029625154947612531e-01 8.902176850095291361e-01
-1.336282475384727442e-01 6.573389608666270201e-01 -7.386939373521661523e-01
-1.617449709070606922e-01 8.798703838902287577e-01 -3.583464468806126235e-01
4.966228036796094814e-01 1.228781130947110278e-01 7.059585596965173293e-01
2.279707616834895090e-01 2.672380146590558891e-01 4.936633726933054578e-01
-8.412383097519547659e-02 -5.587934171749564527e-01 4.137868541597792271e-01
1.943840239092400335e-01 -6.096574527868918736e-01 2.710689101495772357e-01
-4.614896259853810134e-01 9.086118486004315931e-02 -6.920155574720977532e-01
3.472572859745330642e-02 8.981753229893566504e-01 -4.252001968437921775e-01
-1.124995350108145137e-01 -4.656959654905810653e-01 -4.041244221666422942e-01
-2.447219935619641129e-01 -8.187257957979282574e-01 1.788922343646096036e-01
-3.346800892827459656e-02 -7.169892002661240049e-01 -4.330912363121676711e-01
4.893419099948086853e-02 7.082664671186652550e-01 -6.001479615427773862e-01
-2.328757008005694906e-01 -2.963390774848568832e-01 -4.674351514996122336e-01
-1.394677259574041150e-01 -4.042749839295873282e-01 -4.435931414426844688e-01
2.258058254595236569e-01 6.485071247124526428e-01 6.992858664300131144e-01
8.776881624840426888e-02 5.339839576916317609e-01 3.461249967726869881e-01
2.716782862603971949e-01 6.023314373519019771e-01 7.440320218029293775e-01
-3.212735597122503561e-01 5.111838062636767654e-01 -4.805445915714765537e-01
4.061757212571637798e-01 2.611645218135985602e-01 5.180479045803133564e-01
-9.208248873263763512e-02 -5.813972257686005340e-01 4.930276649385043619e-01
-2.645521884590875672e-01 7.464284762249853156e-01 -4.562913101779632608e-01
9.638311495800371345e-03 -6.178125571765875623e-01 2.967767993126185430e-02
-1.157431058257197831e-01 7.776718579105523776e-01 -1.480267433455250727e-02
2.355630992130825774e-01 2.243250163164572375e-01 5.116926785716578996e-01
2.829712809314438582e-02 8.719337424201285547e-01 2.822190722140146546e-01
-2.110202072954276420e-01 8.247940140720878555e-01 -3.547269130263962511e-01
-2.219320982814759757e-01 1.509144101953807104e-01 -9.429718158537632178e-01
1.573015759404468861e-01 -8.935102492363040660e-01 3.429854735799264254e-01
-3.846240076304978106e-01 -7.997619056969715867e-01 -3.517124124493916648e-01
5.853744907140506770e-02 -1.681399011759110718e-01 7.061109955306666963e-01
1.867368540695964196e-01 7.454963961377032433e-01 -3.412366563953518339e-01
-1.099918782821987795e-01 7.172999445613250646e-01 -3.922564769488387504e-02
-4.341808293186316114e-01 -6.843526588773777286e-01 -4.549404792588189195e-01
1.988846838173789211e-01 9.840903864762830244e-02 9.255346689608000554e-01
3.809956380401549603e-01 -2.384466274432059663e-01 8.940350803534258262e-01
-1.312131828722624682e-01 -5.401550806754690237e-01 -7.080468474284321578e-01
1.341846384022362705e-02 -9.131905296018388851e-01 4.210290580850213904e-01
4.773742085964234882e-01 -6.318147014275160567e-02 7.108271071028222643e-01
-3.920813885307555813e-02 -6.077075080281707509e-01 -9.543171197727649824e-02
-2.889404147987660251e-02 2.732307642962158445e-01 -6.455754244905250738e-01
-3.675686762176492151e-01 2.128681965735762238e-01 -5.719036456863452189e-01
2.903374261548722912e-01 6.026403881838688914e-01 1.402677463708909833e-01
3.881494083960571745e-02 -6.790522614975349480e-01 -1.135433478597807633e-01
3.987110870932604190e-01 1.811859407289029625e-02 9.237092922694121189e-01
-8.140016706580480155e-02 7.059225477071365273e-02 -6.696479397222375729e-01
2.169871334050323675e-01 -1.519589091097380829e-01 5.475982402207862920e-01
-2.617519302730696995e-01 7.044924739921906154e-01 -3.672238623903390509e-01
-4.508308331775285893e-01 -5.214111622681631975e-01 -6.799738362649181411e-01
4.765125434794577619e-01 3.825837696415917422e-01 7.531749122522081175e-01
-6.578056683193041210e-02 9.449735223537246709e-01 -7.361448139168687288e-02
-3.512423381640349396e-01 -7.026451493049997721e-01 -1.350402200710927036e-01
-2.919820465968092985e-02 -7.920976397162097227e-01 -3.770976375428008454e-01
-3.499823859143159632e-01 -2.806426280027335962e-01 -4.796052239502657244e-01
1.964722128347011210e-01 -4.475830926306716973e-01 4.038481200969943341e-01
-1.002465645577088199e-01 -6.719721330957746375e-01 5.240267272668763798e-01
2.495260229335798455e-02 8.020187935408759072e-01 -5.515721545659204583e-01
1.502313103095724578e-01 -8.987392685043195106e-01 2.303940894380428761e-01
-1.493241714621454663e-01 4.771146919516162654e-01 -3.617948569623970489e-01
-3.280954217352282654e-01 -7.214838189387275946e-01 -6.150410920355549038e-01
2.477299980130557092e-03 3.937775656377931477e-01 -5.505843138186771180e-01
-1.886238437160348697e-02 5.318336263853267187e-01 -2.801854632793684963e-01
4.615156586786758192e-02 9.963569674780704544e-01 -8.243288533101000848e-02
3.184793278498659341e-01 -6.466730866079246631e-01 6.221966857990702815e-01
-3.651252098913203015e-01 -7.032825248694272169e-01 -1.673707037355005034e-01
-3.743032750167463729e-01 4.976282435096617274e-01 -6.767327076416387310e-01
-3.525197609944447780e-02 7.322414975728065434e-01 1.910792617978710195e-01
9.884409048943199050e-02 -8.890128664011374138e-01 4.595416934605161541e-01
4.225302509142700447e-02 -3.870078525971922812e-01 7.920832498260755861e-01
3.248721767148666784e-01 -2.665522115316300567e-01 5.363898761997922815e-01
-4.320704404424333123e-01 -4.723890938513778531e-02 -6.081649786463890761e-01
-9.756265157506806285e-02 6.204282280462689592e-01 -7.568337651159506851e-01
-3.362394295084056295e-01 5.121501385699908093e-01 -7.588030945269116367e-01
-3.655749926777737135e-01 -6.934971287542484042e-01 -1.739312286441075106e-01
8.888274558375830470e-02 7.386421958637765517e-01 5.116750796772486787e-01
1.191554873295742334e-01 -8.303220384658420716e-01 1.175847628441421301e-02
4.147954917812572972e-01 -3.490666213064244072e-01 6.360414089362450563e-01
-3.936362941542576044e-01 2.456928406689721234e-01 -5.965911332194011596e-01
1.023614032112741823e-01 6.441445587411007700e-01 -5.314729300790769217e-01
2.558993040419929588e-01 -1.882722127808736934e-01 9.465848825400113853e-01
3.790167092445227703e-02 5.113568965589204707e-01 -3.805883825464662085e-01
-8.232915260866104090e-02 5.820352387510325798e-01 -2.013013725562256551e-01
6.105814831722004843e-02 5.984549042543384489e-01 1.390824916141364664e-01
-9.986992546487955674e-03 -4.972483646274762359e-01 3.886711360639573676e-01
-2.557334728036207705e-02 5.095518140200804291e-01 -3.206384879252081044e-01
3.044021781709251862e-01 5.631941636584157918e-01 7.717370785558042012e-01
-1.324153124710819029e-01 7.872258179767875619e-02 -5.973479347309488263e-01
-3.959684935354453317e-01 -4.909768889135691095e-01 -3.776313053718389767e-01
-4.016695177144404827e-01 -5.383424996673360496e-01 -3.513991894786101522e-01
4.279670751523713124e-01 -3.092663719569526126e-01 6.584944244761724574e-01
4.240992143948930648e-01 4.176781958536385786e-01 4.526044871903436850e-01
4.344589675410290286e-02 6.070901645321599149e-01 3.413549984337011650e-02
-2.208516592150152058e-01 4.600614930394253399e-01 -4.046409122248705303e-01
-4.141016535049660274e-01 -7.030148829954459000e-01 -5.237732206906463572e-01
3.245108976140499979e-01 4.752955972652208455e-02 5.512600232611346573e-01
1.000558873291720330e-01 5.964346029835545515e-01 -2.819213120043033774e-02
4.400218062452969647e-01 -8.164325724030342679e-02 8.761015251959869410e-01
-6.188790576128395254e-02 5.985150246351264025e-01 -1.545901739497314298e-01
-2.370908470231653797e-01 4.549785710604588307e-02 -5.522735400701312969e-01
-8.381397161508524762e-02 -5.081147751101390275e-01 -6.384622637921867350e-01
4.652900825362881188e-01 5.655338389853380443e-01 6.152669235479520937e-01
-4.164432708512738057e-01 -5.295403103299128889e-01 -7.272293876846271932e-01
9.831244695150666291e-02 1.787525108979254318e-01 7.479351299959637878e-01
1.964476505649019045e-01 -2.139376063916847981e-01 5.331753468299719190e-01
9.727360589144901093e-02 1.630829988192627200e-01 7.240782150700442177e-01
3.785200781096827449e-01 4.321324450119368166e-01 4.004264187611928927e-01
2.981440336324860454e-02 -6.620805558713173111e-01 -9.681996642691789723e-02
-3.268748114977076402e-01 -7.450702702567443270e-01 -5.866070131328299242e-01
-2.939733862425362720e-01 -9.000264492101984759e-01 -5.237762529406615047e-02
1.053349333046946223e-01 -3.619906283144147530e-01 4.769392723692272851e-01
2.390724958996545135e-01 3.346104672790115586e-01 8.808508335793032717e-01
4.091935177464502138e-02 -7.077956414168217192e-01 -1.666483926953196693e-01
-3.346407602893859412e-01 -8.651927574400013476e-01 -1.501057317365365462e-01
-5.657632157584114446e-02 6.119551910225716762e-01 -1.205549606989813755e-01
4.809921031809089587e-01 4.295910016019644506e-01 7.095686630213459134e-01
-2.643008056894746161e-01 1.927359239186897388e-01 -5.310278237465451134e-01
1.878399013923278127e-01 9.832466437806277604e-01 9.640882433133983465e-03
-3.745594028350499594e-01 -6.035230275789682519e-01 -7.046970505052695399e-01
3.690333961747893632e-01 4.304953489604169264e-02 5.642567416751905762e-01
-2.848506486646590896e-01 6.884135361695752353e-01 -4.323859310217976204e-01
1.762282172936281976e-01 3.832017583069687733e-02 9.207662914443105473e-01
2.801850880208298644e-01 -8.264150427519691144e-02 9.569077060285823277e-01
-2.533780469821904080e-01 -7.497810281542548472e-01 1.440401651528780969e-01
3.759739471485421536e-01 -5.154094776479838380e-01 6.078963535611491276e-01
2.314006986625346818e-01 9.475719503411491607e-01 2.501864071538231760e-01
-1.094859685778619418e-01 8.813598861331474188e-01 -5.220221415595833331e-02
-4.871011817068766625e-01 -1.710812292825241443e-01 -6.754952912104402740e-01
-2.095158488264249608e-01 8.274208427598106486e-01 -3.593394990668379863e-01
1.343113712408717242e-01 9.086711389042823050e-01 3.481424456313794158e-01
9.409753586943903070e-02 5.909161716647334250e-01 -1.523928774853422208e-01
-5.076175208917073356e-02 1.563057689778817871e-01 -7.548972126272814887e-01
-7.422072354221981305e-02 1.279258680590500130e-01 -6.559366094347530707e-01
-4.006558938451002527e-01 9.025232300000657348e-02 -9.025031283776349111e-01
3.289297840644605370e-02 9.937773884731425644e-01 -6.588819649132093836e-02
-7.441331002366316505e-02 8.673771695533012416e-01 -5.005442926820403704e-01
3.226218636342816776e-02 4.736532027490635843e-01 -4.638280905672560461e-01
-1.986470026413423851e-01 3.958768064205854809e-01 -4.366533133113272847e-01
1.525761274819575908e-01 8.794283044463344634e-01 4.095474561791662138e-01
3.993525372544644569e-01 5.351158601825221073e-01 3.428967203690609367e-01
3.935798835450514677e-01 6.081586034677004537e-01 2.778858338799520822e-01
9.562357733876172827e-02 3.539359097953735933e-01 6.315903529929624005e-01
-3.991165447269335309e-01 -7.442244020910600000e-01 -2.725775969250189279e-01
-1.539139816632054958e-01 8.551705511732836662e-01 -4.744242972752544807e-01
2.454964330266769801e-01 -5.377402306817715694e-01 3.744728696725985739e-01
1.155687784176162580e-01 1.632704014267805925e-01 6.471510798529961361e-01
2.085060605684594878e-02 -8.324834476156145469e-01 -2.388691456924879886e-01
1.750429175595974163e-01 6.640253430422798919e-01 -3.018183854243737252e-01
1.860754913445613890e-01 -5.595247989227549595e-02 5.761094461168840830e-01
-8.751879021642228196e-02 6.822539314710096559e-02 -6.576526975521196361e-01
4.019558811652508279e-01 3.725031148831490224e-01 4.579306484049927572e-01
3.017709929765127752e-01 6.782859501408984304e-01 6.783764000902439140e-01
-3.243960465264666970e-01 -2.803829786434216542e-01 -9.020631681358972642e-01
4.852463947397445826e-02 -4.100898962556536742e-01 7.989936779804368561e-01
4.402791875023798207e-01 2.988699091560740873e-01 5.314034981506672306e-01
2.741610608843773611e-01 6.447101279337390523e-01 4.325241953751728791e-02
3.959807684695649810e-01 -4.476448296032189411e-01 6.285769430224756871e-01
-3.143498002995792628e-01 -1.108749855025490394e-01 -9.408524150003835240e-01
-3.448698180788680734e-01 5.446875195501362787e-01 -7.033062193499503012e-01
1.603624730107419682e-01 3.123522671732913425e-01 5.131634525676572745e-01
8.749048938574414958e-02 9.672378970948651844e-01 -2.416587754424291690e-01
-1.483745997843770592e-01 -2.856662330102823777e-01 -5.294181689037148475e-01
9.755579607286261890e-02 1.370440978599859749e-01 7.132289317016604624e-01
-1.980252661970750561e-01 7.180051093425339204e-01 -6.676411078335641180e-01
9.675519452577049928e-02 6.299100255825370587e-01 5.988884517139636543e-01
-4.278643376759189709e-01 -2.599864180945575254e-01 -5.390881917613777885e-01
-4.147338065208475144e-02 -4.987763143779867514e-01 6.190830584447484242e-01
5.764535050788246323e-03 -6.386048539732409601e-01 -9.953536883446369166e-02
-2.350849287603924143e-01 1.957891819519507193e-01 -5.285218027922657935e-01
-2.015441651629496789e-01 1.681267069253716551e-01 -5.397701920761959204e-01
-1.285773721859334306e-01 -5.595519603617273852e-01 -1.779620428730695481e-01
-2.609492930347501183e-01 -6.710430362645960489e-01 -6.835039236205824320e-01
-1.148254503858513048e-01 3.072852432611912210e-01 -5.050950740910028491e-01
-9.304343353851229903e-02 -7.152495139598220586e-01 5.292482147137360649e-01
2.496938267378387422e-01 7.692040415085524829e-01 5.868626984418082726e-01
-3.544300685834461118e-01 -1.202255085760866316e-01 -9.297055013328805462e-01
-3.654068072127752975e-01 3.383638831534066527e-01 -8.520230846512619749e-01
-1.607655791640264786e-01 -8.051315713022986209e-01 3.706726276410101106e-01
1.024549082174844861e-01 -2.799976251733315991e-01 5.426197467087406912e-01
3.983068086379256134e-01 1.514324070452429116e-01 9.135514851744134246e-01
-2.715598255338415035e-01 2.802634508229964183e-01 -5.090203707718968795e-01
4.525454656382839613e-01 -6.794954346612518820e-03 8.705984732015319416e-01
-2.597973695098734770e-01 -5.613118663484489845e-01 -1.846723010598091963e-01
-1.274370524703451746e-01 8.595339301504094365e-02 -8.958755212922685507e-01
-2.953275391540978179e-01 -8.676568167673907039e-01 -4.042643326591658925e-01
-2.598517412767873402e-01 -8.986499097398705782e-01 6.748210491128256439e-02
-1.244857635270148200e-01 4.662989802708718545e-01 -8.426161763228970925e-01
-1.222902444635032143e-01 -3.827637363635039147e-01 -4.900993327749260109e-01
5.370691781522309027e-02 5.797562000265392701e-01 3.493322507475871141e-01
2.648688655209524567e-01 3.613150869711663771e-01 4.215765001972049397e-01
-3.040456490924804966e-01 -6.891345268161138682e-01 -6.607633452792501805e-01
1.652622167410204568e-01 2.353382259401130827e-01 5.513708635934012614e-01
-3.843697975802493061e-01 4.191978542389108719e-01 -5.965955073067458203e-01
-3.282327753097349921e-01 -4.783860518920864946e-01 -3.290406903184079357e-01
-6.259109171091828405e-02 -5.233904621395119028e-01 -5.379802196992885532e-01
7.872555699237451798e-02 7.665869124829876036e-01 4.731213368519563978e-01
-1.001862439410701119e-02 -4.470676802214247902e-01 4.948683046715449119e-01
4.510092564931518500e-02 -7.786438626007251562e-01 -1.994249742234573131e-01
2.480459467723239719e-01 8.800998047473876928e-01 4.212032649309568333e-01
-2.924711929426293544e-01 5.294559739355094719e-01 -7.898034209145623485e-01
-2.767969987711484392e-01 -8.172530007524733131e-01 9.605305580260163623e-02
-3.119779691446346592e-01 -6.106991400509649282e-01 -7.290391263634858898e-01
1.669939404891248591e-01 4.918856985763049861e-01 3.104816131085545439e-01
-1.577533341159730595e-01 -3.173167840821431995e-01 -8.383746002763035055e-01
2.857258835746276371e-01 -3.715265639871354747e-02 5.543038185225763748e-01
3.641398211910165661e-02 -3.133635376815124274e-01 7.726783562241966719e-01
2.001113326472103715e-01 9.476604856968298130e-01 2.722368349306616420e-01
-4.328739386890937957e-01 2.278795536251303211e-01 -8.116393442065411579e-01
-1.688996082805253041e-01 -8.453379610732510985e-01 3.280348736254495301e-01
2.487718742889197532e-01 7.745579575230099323e-01 -1.866946175863591073e-01
3.363465710489992877e-01 8.070125589092443930e-01 5.201553856752247351e-02
4.261547571468370377e-01 -3.491718075504564589e-01 7.447998941092213165e-01
3.375010487324589525e-01 5.768135505122228279e-01 2.287039771231335616e-01
3.513652047955211910e-01 -5.819382982812093541e-01 6.395134987297985685e-01
-3.980389238573186494e-01 -3.082793885969439263e-01 -4.917323262242283000e-01
2.546254205328982514e-02 4.951393760794618459e-01 -6.847363704553981467e-01
-1.074058007283298921e-01 -8.640577880206657957e-01 -4.021779100439932253e-01
2.312228863195626150e-01 -4.572055992730374996e-01 4.127922794923248873e-01
1.946392950457115703e-02 6.853958935597183055e-01 3.709687859929589604e-01
-3.127923994531638385e-01 -7.651351967303511303e-01 -4.823689565525529112e-03
-8.875170440536554739e-02 -8.798767093685380125e-01 4.054930523224890004e-01
-4.482543904582743655e-01 1.160024675609085676e-01 -8.333473213079511943e-01
-1.354826789208436744e-01 6.963917097768949072e-01 -1.122147406479542392e-01
-3.221539822625227867e-01 6.352100226649880499e-01 -5.691063499001937087e-01
-4.214258930345355370e-01 -6.648358302570225309e-01 -5.712589122673867870e-01
8.206251842900376403e-02 9.846539111111657361e-01 -1.824683303693628023e-01
3.701810229414440045e-01 1.468112380958851437e-01 9.279793262427634692e-01
1.257574482296560658e-01 -7.151118395020877871e-02 8.890637087025137220e-01
1.108659020808068357e-01 9.923098683131018616e-01 8.404411575806156054e-02
-3.790690365300828507e-02 4.968253167819884908e-01 -3.375064989287046568e-01
-1.970194111574696816e-01 -1.252247412326079057e-01 -5.529905913555186459e-01
-2.271034037657250204e-01 6.123933445563323197e-01 -3.154970581039154287e-01
-7.337446856249867089e-02 -8.412037170181002610e-01 -3.958922180869220986e-01
-1.203116537866657648e-01 -2.438806340588692834e-01 -8.163009799885969642e-01
-3.282116563708522561e-01 5.756982473146865509e-01 -5.000899412575307013e-01
1.301189679799359400e-01 3.659582142565028229e-01 5.114349122695437400e-01
-4.749001717392392075e-01 -4.562699677158582601e-01 -6.728496476585520414e-01
1.145273144497546691e-02 7.889340599205775240e-01 3.281914415494107673e-01
7.089582951713478513e-03 -3.573353758707633610e-01 6.835244352816445268e-01
3.537483050919090211e-01 4.993115059317787541e-01 8.022496788347821539e-01
2.925617396310788432e-01 -4.820407884598022497e-01 4.466003781391134075e-01
-1.390136356067228074e-01 6.087891033705378208e-01 -7.739778690671834660e-01
4.397688186892909634e-01 5.583788631109795064e-01 6.860550122130569806e-01
2.128613099547061460e-01 -8.323643308019486042e-01 4.221969306696312652e-01
5.208111144346515980e-02 6.026578490157343815e-01 5.158628197038024089e-03
-2.201267399367742017e-01 -3.637330158093527999e-01 -4.236226891933754235e-01
-1.681267796791612867e-01 3.142570936765993750e-01 -4.845252302278574841e-01
-1.050113871717863190e-01 -2.511759948410932641e-01 -7.822606662461043525e-01
-1.227842481244192513e-01 4.736579262637376497e-01 -8.391256051764525159e-01
-1.947428769353615891e-02 6.805532200133852516e-01 1.717104829761136597e-01
1.512097964456798893e-01 -1.384295792594147645e-01 5.781601359270417406e-01
-9.410729455910793462e-02 8.869954552371219769e-01 -1.567140413077102931e-02
8.084966752554742508e-02 -2.990781534467321090e-01 8.459577799591164737e-01
-2.284557304936686573e-01 -5.788506812472666088e-03 -9.461140422658718130e-01
1.640581215426326345e-01 -8.801563869923362260e-01 3.948017975014479486e-01
1.087088866311064772e-01 1.613196391755299108e-01 8.045066009612402702e-01
1.409653480706853923e-01 -3.888913239000338917e-01 4.435994332539009433e-01
3.760876326121714852e-01 -2.962292175083373613e-01 8.756228230218768838e-01
4.884013081715459226e-01 1.891800674302639151e-01 7.992619647455525556e-01
-2.468391927306558264e-01 3.745572348433784393e-01 -4.635829878380982594e-01
9.700296978896225109e-02 -8.781028990746914120e-02 6.532389127798789996e-01
-2.924444494891520474e-01 4.234613839925557843e-02 -9.521180804312413537e-01
2.154248973710418680e-01 9.517749100196427614e-01 -7.814733351642058623e-02
-7.428106703894483964e-02 3.554223848022101950e-02 -7.114126141982153317e-01
4.285660714365400192e-01 3.718497561446185706e-01 8.253439656506833533e-01
9.440061120343169743e-02 -2.285459447247264742e-01 5.842275939004438756e-01
3.765411745188110837e-01 -3.155410756396878624e-01 8.662862444496022274e-01
3.027585368700267954e-01 4.693656074818157720e-01 3.259873360990724334e-01
3.338663440470190369e-01 7.758474738683616145e-01 4.115498065899492880e-02
4.029136878825351209e-01 1.677843979528971241e-01 9.080409421194761688e-01
-3.023804454418397292e-01 -1.041636682828788601e-01 -5.346505213792825950e-01
3.004650420928811072e-01 -6.963141597228884594e-01 5.456182140551930626e-01
-8.300867986274569621e-02 -5.820098203940473613e-01 2.333906539092552856e-01
-8.019881425809291531e-02 4.522673870953324848e-01 -8.230349091965907249e-01
-2.839158853527384840e-01 -8.120884491351647583e-01 7.798879887248219567e-02
9.287351188106242328e-02 5.963312806917053788e-01 -4.104934728867948995e-02
-1.831948249795553596e-01 -9.700838454595372973e-01 7.769674983127027035e-02
1.580300780334832900e-01 -8.589702821767413177e-01 1.498775209752632454e-01
-7.016998706765290028e-02 6.076522335885040649e-01 -7.527480627188709583e-01
-1.021157486604659798e-01 -4.720185710295926595e-01 -4.143766394498878403e-01
-2.703459193870230703e-01 -5.291634086885577126e-01 -2.394583165635545130e-01
-2.996369188955030904e-01 5.225027657606172715e-01 -4.467394942576640160e-01
6.835029681411171343e-02 -6.777758633897305041e-01 7.093704068148287689e-01
-3.786221035376620692e-01 -8.114902568914075243e-01 -3.258261891834470791e-01
2.310939180227558343e-01 -6.812226527478982829e-01 7.009456247435896792e-01
-1.874893382574651102e-01 8.124926426790957112e-01 -2.140822495856663787e-01
-4.088714154298071501e-01 -6.625488621487556351e-01 -2.958921614628763908e-01
-1.160938828097729802e-01 5.534460696598303420e-01 -2.644471373607341635e-01
-3.115961550947279890e-01 3.353103412699772190e-01 -8.907458865564626960e-01
-3.224240464615836868e-03 -9.871683550974255095e-01 5.320495062766944505e-02
4.484166949122155299e-01 4.602734954416905500e-01 7.527801342308200194e-01
-1.515642979434228543e-01 7.243614170142264053e-01 -1.222948037633641988e-01
5.578188600453531931e-02 5.847392978401696473e-01 4.881234276735417210e-01
-1.322997902959977545e-01 8.049462994175958785e-01 -5.630285035942692029e-02
-1.984042715235929399e-01 -6.662835783925745714e-01 1.789209590767921743e-01
-1.727633414910050846e-01 3.223117080567817205e-01 -4.793793459445789829e-01
4.634713741400334208e-01 1.561686921250608762e-01 6.124599355484192653e-01
-2.958138448757094974e-01 -9.080847429753089450e-01 -2.683716985586744874e-01
3.287449568357323493e-01 5.597364757213991321e-02 9.503843222294208193e-01
4.737396201677662733e-02 -2.787924929689446496e-01 7.898506728421851308e-01
1.086663139201031426e-03 -7.646093672725319257e-01 -3.256558993124628598e-01
2.281763096130043356e-01 -7.448312730247704794e-01 6.192697720223817592e-01
-1.927276794244529023e-01 5.895935573509537564e-01 -7.870041610310796187e-01
2.903180681637632654e-01 4.610292753270460175e-01 8.341739879241044653e-01
-2.498702991107431548e-01 -1.447826073672959547e-02 -5.498830470579582075e-01
-5.166909535009654546e-03 9.838499829916961259e-01 -1.335310222464480556e-01
-1.332080478740216289e-01 3.399848587247395471e-01 -4.751405330702120344e-01
-1.611847314455049918e-01 3.008595531420501512e-01 -9.040890866501785084e-01
3.706239815850089769e-01 2.515709536325980156e-01 5.027910094767580329e-01
-3.684951422031718660e-01 5.165417838875696610e-01 -6.161312183570454293e-01
4.311591275240390236e-02 -9.568147658704323488e-01 2.023534983972610432e-02
2.282382299777648005e-01 -2.008363849173230853e-01 5.328612864215954703e-01
-2.653503041926040806e-01 2.261621273038167679e-01 -5.230902998611602905e-01
-1.096930109576130415e-02 3.636376689007443375e-01 -5.652882969265162760e-01
-4.216656395735414176e-01 -1.693136494735408559e-01 -5.661207974994320047e-01
2.975142177403452548e-01 -3.885228728385589636e-01 4.856094586134517277e-01
-2.416021754086416506e-01 4.516997210799867379e-01 -4.216614105464963069e-01
4.115119688601427406e-01 -2.941649738037052653e-01 6.176017532077856531e-01
-9.510792914760983485e-02 -5.814787049270166985e-01 -6.327998062984895311e-01
-3.420007883670879156e-01 -8.656539041510804555e-01 -2.695067257182659493e-01
-9.669819170730717395e-02 -4.148318675335401773e-01 -7.046371204604563454e-01
-2.743428603211297001e-01 -2.316338805300311235e-02 -5.468705391097458124e-01
-6.908761022755789682e-02 -5.032111104796150869e-01 -4.703085666694372113e-01
-2.730104403290626452e-02 7.665051690894210124e-01 -6.170705950528416750e-01
2.142046990182213881e-02 -9.737537754112274291e-01 2.354379198068449475e-01
-1.993426805848653657e-02 -8.192984870494325333e-01 -3.359925977295158961e-01
-3.406646637952119305e-01 -8.608772007197251774e-01 -3.192010447035112941e-01
-3.818382885242539992e-01 3.012862811024788479e-01 -8.537764264594619457e-01
-6.117537749751003617e-02 -9.787360505864064475e-01 2.229115447079447199e-01
4.560865697469151381e-01 5.884497583020668054e-01 6.152506421943267911e-01
-1.061255147697532514e-01 -6.350588355397029927e-01 5.001721713505407063e-01
3.306070042541495724e-01 6.416708005294302630e-01 7.040893954549546363e-01
-6.563812411879693665e-02 1.141863066502439017e-01 -7.990913152789803631e-01
4.687381481866890152e-03 -7.089181366241583682e-01 6.484460562934979411e-01
-3.217091550174552284e-01 5.573706157492641644e-01 -7.320988587604067011e-01
2.685824463225062186e-01 8.747597831379055888e-01 -9.517981058282622142e-02
-2.162608502248089537e-02 -5.403327283806195203e-01 2.970323245529932765e-01
-1.084094496033563004e-01 5.395736120029888394e-02 -8.712150391741081412e-01
-1.681851046943937111e-01 -2.099652840149921484e-01 -8.815015184304310081e-01
7.382924735547941042e-02 -9.423188218285014628e-01 3.237894780978871623e-01
7.113615004844983658e-02 -8.468114109082148788e-01 -1.055708231129436625e-01
-2.753070615641332874e-02 3.795160014587921071e-01 -5.124285135635791022e-01
-3.347406403022816224e-01 -2.080931966350178797e-02 -9.438761527580146193e-01
1.033065128032420038e-01 4.566382001341497410e-01 4.605617872328204299e-01
-2.136579155355285420e-01 -6.065580528758869328e-01 -5.067460330059601198e-02
-2.378850513625916097e-01 -9.462055943820733006e-01 9.499691976741326052e-03
1.161696239889276477e-01 -8.663246152221806273e-01 4.975479099433242625e-01
1.363034942010126482e-01 7.084335383232409633e-01 5.936665150879819608e-01
-2.512682386016041325e-01 7.381965489542413605e-01 -5.754145250495604769e-01
3.902175666257285958e-01 5.034564908751812951e-01 7.811187572605735596e-01
4.019602722144281493e-01 -1.348821472571111457e-01 9.054259405881559530e-01
-9.717291180235557158e-02 -5.993846593898525255e-01 4.995179964801221284e-01
-3.964482422847794840e-01 -6.158215331638273726e-01 -6.726881782164395585e-01
9.747452393227784562e-02 -9.082162617039456487e-01 4.133278254135273611e-01
-4.060773794304837758e-01 -5.557604082402622936e-02 -5.829789245978022061e-01
4.079253394225746399e-01 7.697483724291735996e-01 3.908765471192856000e-01
2.920656908691963149e-01 5.747544585277213347e-01 1.857155128321165138e-01
-3.689008409038284642e-01 -7.680377493191034022e-01 -1.668884356376331424e-01
9.070237296201139054e-02 5.729273763767770561e-02 7.718146417702245188e-01
4.525455570316536114e-02 7.511350115833617114e-01 4.263406997421007039e-01
4.632742473585029774e-01 -1.227473749450345986e-01 6.887741803230439386e-01
2.294461625561133311e-01 9.217941832956383363e-01 -1.204139752093301152e-01
9.348056410305641273e-02 -4.503457020235321906e-01 8.320390448989385401e-01
4.553915749973077021e-01 3.595927320114746667e-02 6.336223700077378007e-01
-1.442842021301654898e-01 7.725091724787768177e-01 -8.650703949874025134e-02
1.890961090682558299e-01 1.327364967380381955e-01 5.659681276267402028e-01
-3.602352512940934504e-01 2.340906580175896035e-01 -8.994210213766775652e-01
-2.679043125388514412e-01 4.491449216594536331e-01 -8.553416522882320017e-01
-8.519117107320491045e-02 1.173663976663563181e-02 -8.184201712748883084e-01
-7.456592899836426980e-02 1.318192308283656355e-01 -8.288114637359902392e-01
-4.574655140940653286e-01 6.405645487649706815e-02 -8.305696163403648580e-01
6.168847695372779716e-02 6.546986863549441038e-01 5.122205617851307569e-01
2.010342258685980307e-02 5.293370644952815063e-01 -3.092193656573785088e-01
-6.446990344351259672e-02 9.394936725485516504e-01 -4.738572799100659177e-02
-2.530138068087788294e-01 -6.505528525604770129e-01 -4.966271845197192149e-03
7.944550447965305351e-02 -6.605913696830376103e-02 7.096250361426004183e-01
-9.713251723320497077e-02 1.797425344803874614e-01 -5.945404367849932425e-01
-6.081897217236777176e-02 -5.241816770883307441e-01 -4.834714894502747384e-01
1.057734915525903041e-01 -2.003673830720984969e-02 6.597262469335963830e-01
-3.846885580519197601e-01 -2.916764853463678642e-01 -4.908988796166581792e-01
4.534993011137206098e-01 5.393056471425755616e-01 6.793079342903569628e-01
-2.123062919405547810e-01 4.591627382751646835e-01 -8.610558293542830421e-01
-2.790352153467276497e-01 8.445776259983801826e-02 -9.516066853523913460e-01
3.083748190510326656e-02 -8.311818457573348917e-01 -2.165517767627509194e-01
-1.121203218747222757e-01 -1.176298082554614877e-01 -6.385194128146950421e-01
2.784835545153212244e-02 6.600066265076451888e-01 3.932150303881939979e-01
1.304932359117677854e-01 -7.581827878154150380e-01 4.258407765063553646e-02
1.069596261363091882e-01 5.910596826426616213e-01 -4.749494040720377286e-01
-1.043991914494133422e-01 1.340692392999106863e-01 -6.073723769583899701e-01
-1.859600270980173442e-01 4.076691997160744596e-01 -4.261666167398580063e-01
-4.327845521221835856e-01 -6.729990329184935005e-01 -5.147510384710221043e-01
-2.380684847165855933e-01 -3.596509489454638442e-01 -8.688915933363164923e-01
-2.034643712428031992e-01 -6.669226472890312785e-01 1.628730932171706391e-01
7.169928927501566240e-02 -6.057284716888773346e-01 7.553642119833580137e-01
7.481534315175251970e-02 5.781456986855223468e-01 -2.054616276050384160e-01
8.493604186688777369e-02 5.006595250537912989e-01 4.395731073822299328e-01
8.717443766783199155e-02 -7.922562584621928305e-01 -8.098935734964621269e-02
-2.901841026109930333e-01 3.336095195161847826e-01 -8.996967236015063207e-01
-3.312517956829220678e-01 -5.883838925793172248e-01 -7.409025812998408789e-01
-3.411425674210025738e-01 -6.967491855641366749e-01 -6.353035739674869342e-01
-2.569606610791003165e-01 -2.632084809108228285e-01 -4.802828879257678429e-01
3.819320987553991853e-01 8.019721126104716324e-01 2.210207210565892366e-01
-4.323208870399125048e-01 -5.472834358838678526e-01 -4.005229552518579927e-01
2.356228765347043452e-01 -5.073396170980322140e-01 8.393545423487289714e-01
-4.186940713065258612e-01 -3.397930652681586117e-01 -8.360053299055389964e-01
-1.539853516968714593e-02 3.053445184237031373e-01 -6.538304775693787319e-01
9.249172142005218644e-02 -6.183625563505648071e-01 1.457062311830679691e-01
-2.288487810441151848e-01 7.711278828543605135e-01 -5.492577534586238208e-01
2.351619517356274419e-02 6.222562623414542582e-01 1.111635059718947549e-01
2.198239719133903147e-01 -3.176174592257690055e-01 4.873153080094504430e-01
2.228117945944303735e-01 9.093575718693290844e-01 3.669754787231692128e-01
-1.677366701010882602e-02 -5.883028989031577893e-01 1.318654939174788709e-01
2.092959038315056197e-01 -8.185545359012371680e-01 4.943887503049233523e-01
3.842776918021361676e-01 -4.711678891732021812e-01 7.297609282924092389e-01
1.888902982644667314e-02 -8.507905727922137062e-01 -2.270618675255222374e-01
-4.048539231790000970e-01 -5.500563624519174688e-01 -7.233162164653913484e-01
-1.650216706038004910e-01 4.927072250000907316e-01 -8.427002225755093612e-01
2.356762598391960728e-01 -8.050617983080712303e-01 4.198410829908575947e-01
-1.193952664652010720e-01 -6.452948602512319498e-01 4.650401221799128626e-01
1.881647908623837184e-01 2.117989465970511742e-01 5.421157947145837097e-01
-7.660560889743250890e-02 9.484026750381997495e-01 -2.493215825461526647e-01
2.352124910657966417e-01 2.737649563738798753e-01 9.003147857355973116e-01
-3.833588522474987714e-01 3.988584563329687915e-01 -5.891433524096121310e-01
3.461754271286777151e-01 8.619710195143917009e-01 1.651227634002048472e-01
5.239370141190062558e-02 -7.479401423396460080e-01 -1.681449388507222364e-01
4.675305699689669692e-01 -1.391408410496986214e-01 7.124935087105858100e-01
7.449898088103912297e-02 5.599868802880844099e-01 -5.752973556073505135e-01
-7.609862130996157548e-02 -5.017810767197357080e-01 -6.134157840200702427e-01
-2.726832347591220396e-01 2.986805411023797929e-01 -5.034743833582960848e-01
4.451816575375610596e-01 3.897455826773547627e-01 7.991396616946492282e-01
-3.500572867207038530e-02 -7.547005662463095454e-01 -4.158757973527348328e-01
-2.398364841163707750e-03 4.577464742874819970e-01 -4.307459541283153448e-01
-3.099945384925158892e-02 5.621022047668622346e-01 -2.152563385311919986e-01
4.385283330681715164e-01 6.411445211041472136e-01 3.702545045283559544e-01
-4.502133811506240924e-01 -4.353052231459299537e-01 -4.895034525809350279e-01
1.605101030965517539e-01 -8.673627859695984821e-01 1.734245109720150280e-01
-1.357296834007130637e-01 -7.637955948251139437e-01 4.364533262206171660e-01
2.847450076327898930e-03 -4.558114956226130277e-01 7.262339587321059442e-01
-1.831518703554316507e-01 -6.781223250174316375e-01 2.687473955227507871e-01
3.509882192772477150e-01 8.174503149218398379e-01 1.067310790185620750e-01
1.043643703546329529e-02 -5.777399209270218661e-01 1.759284658551317215e-01
4.822132172125502270e-01 9.421122882442425905e-02 6.658170137168951674e-01
-4.159802526507629383e-01 1.753272323095790564e-01 -6.213587780140423789e-01
1.690186305273126965e-01 4.040389641114264796e-01 4.260024277280434757e-01
2.643897697405842573e-01 -7.032995845817587854e-01 6.388159632153925793e-01
-1.283205258286687980e-02 -8.883533083563626143e-01 -2.436991699892575025e-01
2.143813606984688869e-01 -7.295367740174610871e-01 2.392942036074316714e-01
-5.886476894290285089e-02 -5.745628855642779254e-01 2.200553973022005838e-01
-1.603007034236901274e-01 -1.258745823642652140e-01 -5.779763965410542603e-01
-6.478600069193404809e-02 9.438194585304024997e-01 -3.101548030348677543e-01
4.108933970113538559e-01 -8.912019391161739301e-02 9.062155497475209431e-01
5.590324265919840302e-02 6.510992527040393441e-01 4.974285112033876577e-01
4.842908981681287028e-01 -4.230317725169791682e-02 7.744553862392263843e-01
-4.321258780659230081e-01 -3.667004619705759860e-01 -4.952754887944054718e-01
4.855981692224525803e-01 -3.551459682033479559e-02 7.676349236784704155e-01
3.204802261596879642e-01 -6.323816764299982074e-01 4.865353054020333801e-01
-1.063608506553596553e-02 9.787795413471450656e-01 -6.331806163837429280e-02
1.168236573109400767e-01 -2.895366475292776576e-01 5.261707504853704309e-01
7.633405571108767274e-03 6.511812667018430645e-01 2.307777113602613450e-01
3.546550818724445997e-01 -9.302566956448252156e-02 9.407642188490152879e-01
-4.041385289864988795e-01 -4.067440114856830657e-01 -8.171198549190256122e-01
5.350272162055978026e-02 4.921014991827964979e-01 -4.935457105208821971e-01
2.811428462548470342e-01 7.168395016527828734e-01 -5.687318695944564018e-02
-3.533277621494900766e-01 -8.280290983636328095e-01 -1.582044878245742192e-01
-4.011367831327090072e-01 -7.566426055354948943e-01 -4.382688014408729349e-01
7.841213415219665250e-02 -9.460920108892764135e-01 9.740033638737886912e-02
-4.613843671477518837e-01 -3.360642329113660565e-01 -7.855593329547296833e-01
-2.251389373194302990e-01 -8.509912334093826525e-01 2.084677338270408686e-01
