-7.253248053646529359e-01 -1.615828082342393446e-01 4.981224235889536445e-01
-1.714947155382816890e-01 3.153285041547180811e-01 1.285462311262578483e-01
1.791791268038680218e-01 8.988194514608842667e-01 -2.728936433499559167e-01
-3.632147503297420421e-01 1.007625082021750829e-01 -4.983491808034955402e-03
1.947406572913238931e-01 9.263138681414740949e-01 -1.956996567246184759e-01
1.360239652138001409e-01 -3.645043800165842507e-01 -5.829627584783878685e-02
5.165699061979228679e-01 6.808176384348152421e-01 -4.017282472465579235e-01
-1.505590108918284653e-01 9.509357829716400534e-01 -6.578996123978225752e-02
7.043627739230054474e-02 3.854998112962345069e-01 -3.147701985736287011e-01
-7.739204245907426172e-01 5.721625607740690178e-01 1.274868738577209226e-01
4.877407736869247001e-01 1.599082022859915908e-01 -4.891610346512205165e-01
8.990183946928157477e-01 -2.136550770548492073e-01 -3.352160118963481983e-01
-7.543595750570127878e-01 -1.339048877342508270e-01 -8.969381233808101928e-02
4.616887213806574186e-01 -4.934497730020773187e-01 -3.962779323405174470e-01
5.893317995981786073e-01 6.986702594146289025e-01 -3.229606204592128105e-01
-1.467731296499016347e-01 -5.243400792206119876e-01 4.316418403610591814e-01
-3.600728966335913772e-01 -4.662638826419375770e-01 4.932938896166496057e-01
-1.390047200918085590e-01 4.024994913665879692e-01 2.110201581136124382e-01
3.265551552161350957e-01 -6.304347714134296288e-01 -3.390166273496669214e-01
7.536674455399414718e-01 -5.882324077979081967e-01 -2.519422618763809685e-01
-8.640226162881821104e-01 -3.243136634585249700e-01 6.048022517608993287e-02
-2.273949079563409026e-01 -5.117455682057073796e-01 -1.376997809246940652e-01
-6.819867660574837620e-01 -4.785734141248030316e-01 -5.115860569186332640e-02
-1.017904834769924882e-01 5.538149398471162721e-01 -3.659741135946842361e-01
4.784696925626125141e-01 5.057626258987547863e-02 -4.635940684597913974e-01
-2.878978044620511545e-01 -2.971085865215276622e-01 -7.477867175062385182e-04
3.231768972173226229e-01 2.399529718187596861e-01 1.357129136354300741e-02
-1.029486973466287383e-02 -3.903869403015568507e-01 2.065790627865337625e-01
2.119969690859223599e-01 -3.167139588563795960e-01 -8.076667452193601882e-02
2.126990416955789609e-01 -5.309339355718659670e-01 -2.961053178179637313e-01
5.498602523949228105e-02 -3.756181825852825118e-01 5.878371650713708207e-02
-3.793940604356862978e-01 -1.375003724865052623e-01 4.027701288116355971e-01
-2.573242544565871315e-01 4.504535235591335951e-01 -2.802550729147995634e-01
3.251881232853796599e-01 7.059309257310195651e-01 -4.374506962368451268e-01
-7.159044036168084046e-01 1.996662639390007488e-01 -1.451778612476189445e-01
5.965905604236523274e-01 -8.723553970199057761e-02 1.353104907963593728e-01
-8.769241953024219105e-02 -5.803456543672623758e-01 -1.899446914051051705e-01
7.574877190115509862e-01 -1.664027624130098304e-01 1.269644287123073978e-01
-8.898351404082328886e-02 -6.245565156190314715e-01 4.355776236097869680e-01
-4.303467038915837484e-01 -6.398740980414140411e-01 -1.182296437903496977e-01
-9.139588232412919344e-02 -3.603890104409530060e-01 2.050275090346744822e-01
-3.921447307905612800e-01 -3.227534772564709473e-03 -2.021184016725289427e-04
-4.157021783949985672e-01 6.166648305831787247e-02 3.950453148290378191e-01
-2.996701541732460505e-01 -3.284577704110575036e-01 4.241716106693483868e-01
-9.407304094536951267e-01 -1.560790052710602227e-01 1.553845244889014432e-01
2.303635838383157330e-01 8.643552929743391067e-01 6.006506725734734459e-02
5.913559515831876556e-01 6.408707537940556698e-01 -3.898718120300883605e-01
-4.855521939950016019e-01 -9.768730499830689806e-02 4.755930850090424600e-01
5.181392849999009176e-01 -1.412195712624157162e-01 1.279951972121878834e-01
4.939082213563283363e-01 9.009809016392334238e-03 -4.648674946004716646e-01
-2.087470384321798156e-01 -2.896736687269401700e-01 1.198881862455311587e-01
-4.577618374666772572e-01 -8.248675168532280111e-01 3.198349255332082475e-01
7.250762049383142616e-01 -2.902482569265212378e-02 1.207552279518414595e-01
-2.161799651195024652e-01 4.676270221794223136e-01 2.993876375128234901e-01
6.584333298789326605e-01 -6.655965597092181607e-01 -2.677750016275716738e-01
-4.094100115161518616e-01 -2.965128011791546281e-01 4.804211866594931268e-01
7.645592965215175507e-02 6.921421126124468470e-01 2.149234098117396019e-01
-4.069566514503397681e-01 8.486773005507146639e-01 -1.211906044119860776e-01
-3.488644192422096224e-01 -1.116594567189813092e-01 6.215475631881137858e-02
-2.138481793696919708e-01 -4.396615021606984919e-01 -9.379596877467478999e-02
-3.773887305394366676e-01 -3.041898816388252658e-01 -6.191170281068034131e-02
-2.620997488530004693e-01 6.424132549367743694e-01 3.167459392134127638e-01
6.238837067824618554e-01 6.662400213930429471e-01 -3.289242089471547947e-01
-3.675850229656197898e-01 -2.539536987015613145e-01 4.414827015018639722e-01
-5.623119871729596042e-01 -3.629851810273762580e-01 -1.073889708723137493e-01
-2.735886283534729735e-01 9.197136483762493597e-01 3.215970565562568939e-02
2.174312208074394293e-01 -3.207647829436889308e-01 3.525655399060596829e-02
8.485612069140134883e-01 2.424115967018848905e-01 -4.385666419504424124e-03
-1.460934786263210217e-01 -3.601802414903653715e-01 2.695865611034456086e-02
-4.066186968530989265e-01 5.290773063696420087e-01 -2.794438684540795359e-01
5.382194083140878771e-01 2.781001846575150149e-01 1.088002791268072172e-01
6.217817016382849449e-01 2.724035223915551862e-01 1.066077629207145688e-01
-3.167633099518610829e-01 2.631728769155511349e-01 -1.211610054836595868e-01
-2.960304324401192844e-01 -3.443061285123519277e-01 4.298502746679735420e-01
2.620267873146362447e-01 -3.703808843088707836e-01 1.726782515844362820e-01
-5.498909451460102238e-01 -2.813781227695261733e-01 5.172904466519553379e-01
5.676447400805181287e-01 -6.889982088940541649e-01 1.901999387211895376e-01
-3.402710354375785284e-01 9.000652913776185926e-01 3.443782218421615610e-02
4.539049962572646452e-02 -6.801869230055941351e-01 -2.497519898242963055e-01
4.454016282093339330e-01 2.006586342227372477e-01 -4.784334579706913670e-01
-4.876746661604925981e-01 -8.427393080407322712e-01 1.033521718501067554e-01
-8.099982959878812006e-01 -2.579047040407951297e-01 -3.198737348490154203e-02
-2.645881302762128073e-01 -3.275759773388784990e-01 3.934804190610667884e-01
-3.751767536254430602e-01 -6.328311982282921466e-01 4.818381332220991742e-01
-2.902006352193650107e-01 -1.999287121435140702e-01 1.114482449445269030e-01
-3.075799749866974797e-01 -1.731262979380280842e-01 3.079171640560882106e-01
-2.596101972257623958e-01 -4.436144940627255728e-01 4.520021672596764017e-01
1.065624545819264524e-01 9.515430243970316448e-01 -1.167454772604425706e-01
4.950618347233429750e-01 7.934173677630529387e-01 -2.598741335840726863e-01
3.420651977396181320e-01 -7.555072543321387224e-01 -2.935249698448972322e-01
2.332418846039197302e-01 -9.578798408367530381e-01 -7.562158939405666525e-02
2.801482366215531927e-01 -3.804526086188104728e-01 -2.887988505038031617e-01
3.451091477123801599e-01 -8.129335924919179890e-01 2.636648509525062467e-01
2.387473894438171262e-01 -5.931257359920713013e-01 3.330659589125662401e-01
-4.438871938035123671e-02 9.185144845721063822e-01 8.604084828644856242e-02
1.571379805852990419e-01 3.187763048278468569e-01 -2.981462857026164204e-01
2.479044028239684450e-01 4.441697566062529079e-01 -4.541906016282842296e-01
5.060251548488323703e-01 6.945114033992526581e-01 -3.953900410163135315e-01
9.379909281826255552e-02 9.532292548058461934e-01 -8.839678313126111964e-02
-4.215839588109569491e-01 1.377110747976638405e-01 -9.259569603411325900e-02
-4.945448819931115292e-01 -1.560316999456422271e-02 4.665719574902683631e-01
-8.061972917016511087e-01 -4.423404610649760982e-01 3.619212099748002620e-01
-5.284623098648399964e-01 7.373777619502059899e-01 -1.484705267695198561e-01
2.069260760902564555e-01 -3.460847319114809806e-01 9.866942546121840185e-02
7.396540685443157015e-01 -4.592283563805467650e-01 1.339866508467772444e-01
1.223315676872580859e-01 -5.307387668990484197e-01 3.353316636521783689e-01
4.135697785076213329e-01 -2.156736143289193219e-01 1.072850945854421228e-01
-8.714481402475728888e-01 3.247368316656875087e-01 2.809109346230390103e-01
6.829791424869683381e-01 -1.024375200981948730e-01 1.389857883676127170e-01
1.473610377423213436e-01 3.868046817767610834e-01 7.778269105509300063e-02
4.313878417675804933e-01 -1.584625588362154336e-01 8.603447754265254599e-02
-1.416485871417441922e-01 3.099453916553754351e-01 1.643000454989061981e-03
-6.602872445659959677e-01 3.977881687104511954e-01 -1.796900057492456793e-01
-5.245248290794174428e-02 -3.955663867770690678e-01 2.581476742140979552e-01
-3.727345124298748757e-01 4.711555446160163307e-01 3.736707260494570582e-01
-2.779022710805875707e-01 -4.020478939107277050e-01 -7.952422422509092259e-02
-5.068327306996749382e-01 -3.684260814633068537e-01 -1.086426167363197942e-01
3.714013451585120307e-01 7.805950980631003178e-02 -3.010731707387950123e-02
5.599103331106188852e-01 3.217959225221125874e-01 1.110121424861610084e-01
3.371633372482159552e-01 1.314310378553341929e-01 -5.526396668641691406e-02
-7.773064262263850166e-01 1.287256341557028727e-01 -1.111210717186186803e-01
2.736885670231485879e-01 1.878963732902773076e-01 -2.789929097470557062e-01
-3.077230528463217318e-01 -3.767768283087111203e-01 4.519074587167845602e-01
4.205469376938803516e-01 -5.558528232118034595e-02 -3.951656259078724642e-01
5.994988558988247895e-01 -5.585121638440848635e-01 -3.742192314905039563e-01
-3.955255713995290967e-01 3.442221411001709641e-01 3.860872355063423855e-01
5.097293116362670018e-01 3.455169115679449510e-01 -5.118939396127439867e-01
1.716012004229344138e-03 9.589460162590452974e-01 -1.110437468073929984e-01
1.067049847847469785e-01 -8.646564631979268833e-01 3.287170307727145802e-01
3.174505594937752084e-01 3.125850889488703821e-01 6.191155879273205903e-02
6.708745456607457802e-01 -5.044861174133088433e-01 -3.792898291083793838e-01
-1.787767766686615134e-01 -5.198485983622533890e-01 4.428318660559872333e-01
-4.065916886712911404e-01 7.514837297950305306e-01 2.635062081915997556e-01
-3.309302850856726819e-01 -1.510680906141964076e-02 1.823180133736939101e-01
2.578416411595780278e-01 3.577558756635381143e-01 7.307599591930541427e-02
-8.649137770990932006e-02 -7.441063505454605931e-01 4.261035599711386346e-01
4.162858628878942646e-01 7.830948069204228812e-01 -3.504400013592390284e-01
-7.078274519541916110e-01 -6.277929466713042528e-01 8.343666149171581614e-02
3.959963666129189264e-01 2.923457915800724560e-01 8.194614941355810034e-02
-2.430373199426318354e-01 8.625063192355283404e-01 1.721849859170700436e-01
-7.048041365175357065e-01 -6.437358425212574842e-01 1.051464883620444879e-01
8.152944594063469275e-01 -5.094830284202154225e-01 1.684184855550388202e-02
2.962614904284042172e-01 6.193123354748956144e-01 -4.692529433854703558e-01
5.008255286165046866e-02 4.909161613733875051e-01 -3.899988941428880196e-01
-6.857793984435108792e-01 6.544842748344537053e-01 1.817261993842862466e-01
3.908131268957138471e-01 -2.039890901646585764e-01 8.075452765782345499e-02
-9.704692811257666085e-02 5.358110824154151963e-01 -3.608140255315112621e-01
-7.018852842862058905e-01 2.543380658866231103e-01 4.492345208242845001e-01
4.916482260304123539e-03 3.367255040493229434e-01 -1.357785403683543501e-01
-3.092187873828236566e-01 -1.790967122163684144e-01 9.300562476703037873e-02
-5.873286341658648380e-02 3.337842576137551864e-01 -2.816510953845717882e-02
1.193535457867219846e-01 -3.828033620996549868e-01 1.457898170695805518e-01
8.133149086726385590e-01 -3.759304633325322720e-01 8.416244531798955375e-02
-2.325629438689896522e-01 5.568002647719090259e-01 -3.311870356558203055e-01
-3.349433769911834280e-01 8.021882804288535951e-01 2.286624788175542211e-01
-9.463092060853562915e-01 -7.556067502957733439e-02 1.269409373457676682e-01
-3.903612047971860566e-01 -1.976139030912556493e-01 -2.521071226197810558e-02
-8.517699084568092216e-01 1.687632016526831868e-01 3.883518490534480505e-01
-1.073012102878060509e-01 -5.191027311325806526e-01 -1.548807784164824841e-01
-3.205343679601193596e-01 -1.823265837676916745e-01 6.682690791658074669e-02
-1.802040505269606463e-01 -3.612842046258348816e-01 3.387926503012295143e-01
5.309339207476435618e-01 2.100521845774804552e-01 1.023010951832329096e-01
5.085795770158862278e-02 -4.070532641253381545e-01 2.156614019548841188e-01
-6.449946292475551290e-01 5.354223042521373266e-01 3.484425576133082791e-01
-3.200029801422270559e-01 2.155919913539206811e-01 -6.572777362919557387e-02
-6.559034775358807412e-01 -1.092535841839005206e-01 5.111346363339165366e-01
4.244758997144327806e-01 1.556011318920350606e-01 -4.545549468356879785e-01
-4.040306925785370207e-01 5.157579949834634192e-01 3.760468444224375206e-01
7.885476032924965129e-01 -3.929066745748484024e-01 1.050446156668985581e-01
-4.527574546055557758e-01 8.420370996760769833e-01 9.635459717114761014e-02
-4.566472199011467059e-01 4.734659896050464889e-01 -2.568485030591053930e-01
9.265658860710819233e-01 -3.080943908857060598e-01 -1.198291645088191831e-01
-9.426829837609917995e-02 -7.836270157820018900e-01 4.143367613179099185e-01
4.116562653871481126e-01 4.248060970027218164e-01 -4.997068037671163476e-01
1.787340868983532949e-01 -7.890322433637131372e-01 3.452585715482598405e-01
-4.801002900026669629e-01 -2.253130734578228933e-01 4.960754373944780138e-01
-4.300705546206742280e-01 2.186358863906237016e-01 -1.456920251322948445e-01
4.392018063850765541e-01 8.108810081559927330e-01 -3.083743138500475572e-02
5.945417729500095116e-02 3.878311465476812492e-01 8.056277708274976745e-02
-4.268790566702711509e-01 7.705708352110990367e-01 2.394375334758763740e-01
2.700069518804520952e-01 -3.231436593749246189e-01 -2.383074157865508469e-01
5.957481489620539694e-01 3.649185771356433516e-01 -5.071681617358603233e-01
4.068470567446892394e-01 -9.150196518358955089e-01 -5.896888369782003758e-02
-4.377226212166588915e-01 1.051016028727163980e-02 4.228608494397898543e-01
1.594014719565747806e-01 3.034100760745137570e-01 -5.435943408982763653e-02
2.252438201151227282e-01 2.389909226891145100e-01 -1.211756428207292208e-01
4.207914658858104562e-01 5.165247046175166501e-01 -4.945922643658570705e-01
-6.583695584229898312e-01 -7.125552378182766766e-01 2.217579017322392210e-01
5.028158642116440369e-01 -7.207110940409106048e-01 2.204159028782422258e-01
3.001789350176307103e-01 5.444932115681112572e-01 1.555990440285467125e-01
5.451358990927457349e-01 -1.937342406851887827e-02 1.098344130678768210e-01
-6.328228035453288269e-01 -5.275438768069281581e-01 -6.290407581812053339e-02
-4.512076127848690249e-02 6.416505482694641049e-01 -3.970924372398956792e-01
-9.368974532521746612e-01 -1.544984694954162907e-01 2.642491089564564799e-01
-3.529911175247523736e-01 -1.919498205886688569e-01 1.385915162348020681e-02
-5.707439158639326937e-01 7.707763037212347346e-01 -2.450302960747516648e-02
-3.304103780945856772e-01 -2.229184445270834466e-02 1.896569156678259704e-01
-3.565717243598085506e-01 -1.396985688413963098e-03 6.244386303547078132e-02
-2.510294024763415899e-01 -2.691911777518474214e-01 7.757502134306018537e-02
2.665850331970589515e-01 -4.344173284849657812e-01 -3.002260574836563278e-01
4.959733697742018665e-01 -6.345815045043952107e-01 -3.528003442612268614e-01
-4.268520504192011011e-01 3.402866395772850550e-01 4.020309587703390641e-01
-7.610038821536987408e-01 1.053748051929827290e-01 4.637796514643310886e-01
6.008316615515380682e-02 -7.428948308020777436e-01 -2.472115185978866203e-01
2.803880870514348089e-01 -4.671583357225351785e-01 2.657140577825733985e-01
-4.908817082441018220e-01 3.715950040037958174e-02 -9.727961054467823554e-02
3.400381533728883549e-02 3.977328000747708536e-01 1.004211858883356651e-01
5.390113880712884553e-01 -4.047494991350906735e-01 2.197739768792971171e-01
5.262563717952269959e-01 6.250169601850156242e-01 7.340766463950061660e-02
3.259125654028828811e-01 3.801950647993804222e-01 1.025398931751163589e-01
6.819595718403428375e-01 5.335955115287711603e-01 1.346097158729099227e-02
-3.546726994713975678e-01 -8.048603972828600739e-01 3.952165249955948978e-01
-1.636500069257659229e-01 -7.139880429557479147e-01 -1.870396574645673271e-01
3.345115205771158062e-01 3.183769335119535082e-01 7.220458026488209280e-02
-1.292738986450673588e-01 -3.521581357332009277e-01 2.517877936963713315e-01
-6.544845634556561986e-01 -5.774411215563307609e-01 4.235806269923888534e-01
6.186850211168214847e-02 3.895864064018862982e-01 -3.141060176874472254e-01
3.049393017548293616e-01 3.665570468675639626e-01 -4.550678616823323752e-01
2.799811565377497424e-01 -4.428271982306604682e-01 2.480028695173494280e-01
8.350747506010912646e-01 -4.876187468277159431e-01 -2.374744225416234311e-01
7.470282555412476322e-01 5.475941235914925098e-01 -3.092207531169370305e-01
6.681146015469930921e-01 2.383210130829981344e-01 1.015140295610882371e-01
1.937864136534946380e-01 -3.361381512653669468e-01 -1.005805055773306422e-01
6.146713273024251301e-01 2.509279197148747698e-01 1.082801699047370170e-01
3.384265780331787155e-01 -3.093697952587480884e-02 -1.959758675763202118e-01
-3.524045249422324555e-01 1.745397388834553365e-01 3.212586461146191286e-01
-4.537265801414993444e-02 3.411823299491637540e-01 -1.359524020286677071e-01
-6.295594357689301424e-01 4.414853038890518278e-01 4.028176372386867987e-01
-3.664881389971567649e-01 5.323299763090320047e-01 -2.910371796640230935e-01
-2.953558063034362746e-01 -9.136751648350812660e-01 6.340777644433659779e-03
-3.976368236410606216e-01 -5.532707819420246143e-01 -1.327218974835346621e-01
7.331066557898355818e-01 7.323627152818106001e-02 1.052837429783190087e-01
5.868647128366393240e-01 5.973916328932278308e-01 -4.268486760830159099e-01
2.906036806361341623e-02 -5.610463567219966530e-01 3.804136741832020996e-01
3.101563118302270161e-01 -2.361390708766490376e-01 1.138734547542255039e-02
-1.697518323945144403e-01 3.296598607528459235e-01 -1.354904081683599992e-01
1.587811029909314831e-01 6.586419537374514910e-01 1.946767990740915777e-01
1.729053082440360489e-01 6.553119282639990884e-01 1.909344148562159560e-01
7.231983256074655531e-01 -3.207472141486850115e-01 1.539658467866475700e-01
-2.306394394956165494e-01 -2.654489618999085754e-01 2.528615109811411243e-01
-3.304480950327490230e-01 -3.835938526642308083e-02 1.646572789830328953e-01
-2.847578056329317930e-01 6.267635469906646106e-01 -3.246382569847348076e-01
7.116991439784424445e-02 -3.932059804791174229e-01 -6.036646547951782932e-02
-8.909468572068679482e-01 5.853304780409510771e-02 3.716483537583136210e-01
-8.547783821191702325e-01 -4.370519741921968238e-01 1.864861093855048335e-01
3.467329629549342207e-01 9.506258182667440271e-02 -6.362552838215340678e-02
-4.543483125838628234e-01 -8.414460234141371009e-01 4.119575253110677876e-02
-4.252584968662927456e-01 -2.150159696488072592e-01 4.677283118790352967e-01
-4.160661162431258941e-02 -5.666169926569110116e-01 -1.971384706659957131e-01
-5.440407403002066600e-01 7.168650669775283868e-01 2.447812356895527897e-01
7.611345796322690482e-01 -3.717316631511326519e-01 -3.986880625651109122e-01
3.787403539435240107e-01 3.892673696591197330e-01 1.134211849387152388e-01
7.177202082445378883e-02 4.528838813558653809e-01 -3.772977577888735334e-01
-3.566622442060505271e-01 -1.950479394123631749e-01 8.030754907325760722e-03
3.389774344912968584e-01 3.168874599436766193e-02 -1.265827877656234279e-01
2.565643099441912156e-01 2.734505278758346258e-01 -3.639053565932013345e-01
7.295111372315037368e-01 7.405018218409696595e-02 1.061993669945133778e-01
-4.854497909306560999e-01 5.540922315983277668e-01 3.730459494036379997e-01
-6.705445552060695924e-01 -2.045026222512230304e-02 -1.245302776971469599e-01
2.014572226767984142e-01 6.500873060426640704e-01 -4.524035450332070107e-01
-2.663951726776944695e-01 3.841833287823447907e-01 3.055276202996006774e-01
1.916175466424483997e-01 -9.829155675235184964e-01 1.030915116923762503e-01
-5.806720256335147212e-01 2.903710840688862316e-01 -1.921896508494412015e-01
6.931786340433117033e-01 -4.796222116619652254e-01 -3.826434085829546472e-01
-1.255202990717628302e-02 6.853978616149581926e-01 -4.029140526563853575e-01
-4.814844370492380454e-01 -2.039809706549167156e-01 -8.135602688774817848e-02
3.359956884219534867e-01 -2.558035287386397627e-01 7.660228718969062933e-02
-8.244679613857347489e-01 -3.743794234010116018e-01 3.820481503305893645e-01
-8.238933154665523118e-01 3.027950092519586800e-01 -6.862181189038688012e-02
9.578865993620727659e-01 4.788511832089314968e-02 -1.599793654991683578e-01
-1.458234375083583001e-01 -7.228874643531643107e-01 4.414394662430206062e-01
3.944291124040457674e-01 -1.507260259958780324e-01 4.630511696082453832e-02
-2.910250488828440216e-02 -9.867886660672040566e-01 1.864525839713092048e-01
-4.942421682570997676e-01 -6.766886051020730708e-01 -7.919035606858937371e-02
-2.607672476827458535e-02 -9.742088615161353937e-01 -3.596556702076679490e-02
-8.660179478513431173e-01 -2.753398117800774925e-01 3.724937051651145969e-01
-1.312237995539065616e-01 -4.231816107343430167e-01 -6.778414203400287552e-02
-1.120491604061503305e-01 6.119290419663594438e-01 -3.758951368390179848e-01
9.578085347524590842e-01 -1.351115010938095662e-01 -2.088573057510717534e-01
-5.539818144241094311e-01 7.746619849981180028e-01 -5.460197537743809171e-02
-5.403204792202852547e-01 -6.717934659395531360e-01 -5.489954967166510436e-02
2.551403373208183112e-01 2.401348057563012506e-01 -5.836746060339557257e-02
-3.828590813812902671e-01 -2.221035231818282163e-01 4.407712406445526976e-01
8.099415215557792536e-01 -1.490435709116297823e-02 8.411718753436969731e-02
4.135285258520067231e-01 3.159480828831401911e-01 9.544913081552734713e-02
9.288798068398826380e-02 3.393273529012498235e-01 -2.578541451681234942e-01
-6.543578376231126148e-01 4.760923755671233049e-01 -1.760457973569458934e-01
4.021940187129992017e-01 8.488780007726694221e-02 1.069227713148238404e-02
-9.170774804370324107e-01 -6.951615947618500213e-02 4.529592451788236329e-02
-9.056056093133375562e-01 7.666623350021770089e-02 3.468073331535824200e-01
7.199919315559361044e-02 3.581502285435742561e-01 -2.746825823066099126e-01
2.333075009881625528e-01 -3.693212533194621949e-01 1.602559149582679365e-01
-2.211737700007572194e-01 3.564894183928395965e-01 2.499288076347647714e-01
-1.304462239900474330e-01 -7.483179233213713699e-01 -1.912595297542987460e-01
-3.544542814312341972e-01 -4.036077058600396894e-01 4.818599963315761681e-01
-4.024588431619569029e-01 -3.211862211438049064e-01 -7.895200044281716623e-02
-7.179330230625262654e-01 3.507899804536067090e-01 4.111691593818112000e-01
2.781845905728423940e-01 -7.105442440112987867e-01 3.294998276205776122e-01
-5.953368827110436939e-02 -3.684760602032573495e-01 7.904794704762499458e-02
3.166764406786717334e-01 -6.283745305229991862e-01 -3.370728465142981967e-01
7.746172841177969559e-01 -1.170142061382173082e-01 1.142824991574654531e-01
-4.515652940064777687e-01 7.587341218710504931e-01 -1.967925284075848491e-01
-5.930154590820052585e-02 9.543746927758169907e-01 -1.296206424692945558e-01
3.111167591883043926e-01 1.189156225456832472e-01 -2.747817203248473783e-01
8.146652088056077767e-01 -4.325888413756198148e-01 -3.217699973254352086e-01
6.326360881967451055e-01 4.741204509587258059e-02 1.199043993914915979e-01
6.308259638818118908e-01 7.042203475683745939e-01 -1.553338384736490940e-01
-6.084438511677831354e-03 -3.768776514788514387e-01 1.369770555131006318e-01
-5.631387347575624869e-01 -4.986771687463221747e-01 4.968049754363710324e-01
2.778063737781557019e-01 -2.450131094243987451e-01 -9.237831829769214964e-02
-4.266953265407080198e-01 3.536561523619087266e-01 -2.201718315121849456e-01
-2.268484916250918249e-01 2.977687089591655734e-01 -1.050347128791277590e-01
7.391876133558130668e-01 -2.180259183435667159e-01 1.396329967371010283e-01
-1.293541628328769566e-01 -9.106061891960052224e-01 3.245997506064366434e-01
-8.760526125736534109e-01 -1.305976668112303063e-01 -1.210933995312257500e-03
3.126492592270154192e-01 1.061678849538128383e-01 -2.566722623411316628e-01
4.036335037483542720e-01 -1.358294736597778947e-02 5.032965137268659468e-03
-6.813246498691555297e-01 6.438531023600266856e-01 -5.404484477740485043e-02
3.162996093315281199e-01 4.346759279260828945e-01 1.251689806632126922e-01
9.183456756294461343e-02 -7.903426742870663935e-01 3.715020079302412404e-01
7.309585429118249378e-01 5.450468116951605602e-01 -3.411789291287685155e-01
-2.149046978930823082e-01 3.358592951798415327e-01 2.254348865340840280e-01
3.079298277102661754e-02 5.950495123830443767e-01 2.271875588246657363e-01
3.017955277565011474e-01 -4.581661879238096979e-01 -3.309634041251020009e-01
-4.696211605736418382e-01 -4.365470087326105142e-02 4.564637840060392082e-01
4.377695962877353741e-01 -8.795967474407750952e-01 -1.321467875733045305e-01
-9.485592289327781090e-01 -6.086692853894083016e-02 2.522305887982387307e-01
-1.714634263334386399e-01 3.001421669158007011e-01 7.762858873851306851e-02
5.822431787209458864e-01 7.066960888198575708e-01 -3.188627919788960541e-01
2.258857785510710869e-01 -3.804709727427196264e-01 -2.296910354590853964e-01
-2.382977004764128826e-01 -2.486860983418891780e-01 1.977468683308456765e-01
-7.474855413559258199e-01 -5.556527818773252525e-01 3.437299852951531398e-01
2.984813477876926968e-01 1.552791182193506148e-01 -2.935304797472370053e-01
5.400721894690861946e-01 5.511688147475924948e-01 9.394117037455682051e-02
2.682045342241368147e-01 -8.042347002159789815e-01 -2.610566609801533433e-01
-4.794627453630909142e-02 -4.303563606369910644e-01 -7.957451394602951811e-02
3.588827964765961553e-01 5.644014980190986686e-02 -5.955955868693117022e-02
-5.378395593289307941e-01 -9.740815690221150958e-02 4.969488762634128864e-01
8.178578089863226541e-01 4.590287008955398762e-01 -2.799647628968149893e-01
-6.374524518781350402e-01 -6.356183535727737421e-01 -2.723850300164959177e-03
-3.259051011474221049e-01 -9.324929324051051127e-01 1.737551421721878764e-01
-5.092950522669971170e-01 7.844859838032000598e-02 -1.177380042176515429e-01
-8.926126152430291505e-02 3.572869260837756578e-01 1.033267723115744996e-01
3.284510865341478958e-01 8.181806711374632890e-01 -3.465198585548995847e-01
8.254054362318776761e-01 -1.347312503428858832e-01 -4.318195989449032379e-01
-4.778664741011150463e-01 9.004381624403505480e-02 -1.065809628800294812e-01
1.891076777822519317e-01 -8.253232839486436268e-01 3.254834220277106893e-01
1.632144764487256094e-01 5.583457677542733588e-01 -4.487518072364905519e-01
-4.810850189148155320e-02 -5.859135482337541889e-01 -2.030004539669071073e-01
-5.269785821238311962e-01 -5.422774663562918152e-01 4.923108217557312094e-01
2.784304540546963525e-01 -8.783559824021965889e-01 2.477198332382480050e-01
6.926111533160591582e-01 -2.609373873388702858e-01 1.608281507233538521e-01
3.852934378670173632e-01 -3.960144004683127106e-01 -3.736191830915947532e-01
-7.776666367767139099e-02 -3.596857961964418093e-01 1.202884357603037635e-01
-3.335426251749541993e-01 1.824958223796603607e-01 -4.139163890573199084e-02
-2.812065402918471069e-01 -2.260827045607521624e-01 9.110235273011874080e-02
-3.438467544142380095e-01 5.300630571508845312e-01 3.583634337519199797e-01
3.462618445895849217e-01 -2.079047671754116061e-02 -1.156455911186139857e-01
2.380688462005469130e-01 -3.237471913804211288e-01 -1.815258258768397137e-01
-1.135961660468970402e-01 6.673133650773221959e-01 2.733770728162221442e-01
2.484737420033825417e-01 5.196654119760367729e-01 1.578479708350519761e-01
3.421945769862365649e-01 -4.560293535491308226e-01 -3.540028226442018533e-01
-6.464062508411276831e-01 2.814196188263643483e-01 4.525017031721011440e-01
1.056062614418065843e-01 -3.706910252190481758e-01 -1.968204056650836933e-02
5.612016513803786966e-01 2.632458675676149218e-01 1.092371088897997611e-01
7.903506136752387334e-01 -5.621601174993176020e-01 1.383458045249698516e-02
3.250584750991283300e-01 -4.736845867652850761e-01 -3.464937126228754272e-01
-1.775157770069252239e-01 -4.900847626859089479e-01 -1.280993803807002063e-01
-3.460441184607104814e-01 -9.255527533088595549e-01 1.481333390016751628e-01
6.050297342480536189e-01 -7.239997164257210294e-01 -2.448459460400028986e-01
5.506608353729331995e-01 -7.051904751118617254e-01 1.945514900293712490e-01
9.611539353538861574e-02 9.290661297313782541e-01 -2.246604904845317663e-01
-6.437354928165728296e-01 -2.692320995881783419e-01 -1.025235620179820173e-01
-3.981650586326796470e-01 3.487154341365037487e-03 -9.687108683885477592e-03
-7.724957935611546089e-01 5.730081517500117405e-01 1.342096217797824342e-01
-3.148251194492268645e-01 2.017428864848164749e-01 -4.017897097685690228e-02
-3.294441353308586451e-01 5.829356940466342563e-01 -3.085725946211188564e-01
-7.272677765300693542e-01 5.457495615824244917e-01 -8.215380098875833814e-02
1.416284534714307430e-01 7.045024595182280969e-01 -4.303658046924356273e-01
3.412767541390719916e-01 -6.274245861673605207e-02 -2.239945380942624797e-01
-3.146061564874358951e-01 3.514315768289877351e-01 -2.078915385781506808e-01
3.263622907836441489e-01 6.527394069558549450e-02 -2.501306711235392055e-01
-8.686975427804497496e-01 -4.084183263472654923e-01 2.017469380557603831e-01
-3.292814624764127673e-01 -2.874471434265852277e-01 -2.485703808114951910e-02
4.480027843143641331e-01 4.692238606611470186e-01 1.271475752962353545e-01
-3.783771692437553624e-01 -6.766487187372893786e-01 -1.280285245264916882e-01
-5.909727896508113476e-01 2.354624296618043622e-01 -1.779399287453501399e-01
7.963905993511213310e-01 -5.558372123975324763e-01 -2.227143042044740784e-01
5.745571393359348855e-01 -1.700265489243571182e-01 1.513812783061202760e-01
-3.001438621673148677e-01 -1.921174328702456580e-01 3.132126952341663384e-01
-7.850149988306748261e-01 -1.118816575082050846e-01 4.726275585065602969e-01
7.474341123824476685e-02 -4.100471817990904433e-01 -1.022633874960450773e-01
6.344905587831720650e-01 -7.525041931177329779e-01 4.931639014450977382e-02
-2.004142455392134148e-01 -3.722166827424853164e-01 -2.457998052786148843e-02
-2.681866357331401662e-01 2.487144275900534385e-01 2.171852801447484160e-01
-7.526699295558013647e-01 3.485265782059040474e-01 3.942763187273654601e-01
3.840300089511134440e-01 -8.672827330013806180e-02 -4.075207402802588988e-03
-3.564528894200575948e-01 1.130877199201247019e-01 -3.978462620652644180e-03
-9.370492805320411733e-01 -1.892621760108379597e-02 8.016374882908271216e-02
-2.065216619142534391e-02 -6.495190987716253916e-01 4.187741757745911952e-01
6.439397825302165534e-01 -6.766285343260505236e-01 -2.678879842109530007e-01
-5.811614475689055315e-01 -7.171770818114594492e-01 1.439492954114717817e-02
-5.158830614540086401e-01 -1.078732503399041642e-01 4.908654213470084460e-01
-7.219193357448607795e-01 6.394064060552412387e-01 9.685112834978634733e-02
5.090927915382501695e-02 4.698396207329855745e-01 -3.786702822742503693e-01
-3.683065426116973184e-01 7.458209275943468441e-02 3.304344947909572117e-01
6.378816651979901664e-01 6.763032754718534267e-01 -2.890067421861619579e-01
4.204552786405009179e-01 2.021757981780148150e-01 -4.655174207032442002e-01
-3.251964236870082403e-01 2.637880400454016838e-01 3.153325168080612917e-01
-9.016103332637934731e-01 -2.114473943926756805e-01 3.373083189700372686e-01
8.366606733643227045e-01 -4.529581566127653391e-01 2.075567181857539134e-02
2.987651760870513873e-01 -8.299724351761629260e-01 2.764629243113914669e-01
-7.965692484065761692e-01 -1.500820993477915144e-01 -6.575545159406702422e-02
-5.641095340141244474e-01 -1.358379623282003623e-01 5.081522286858837223e-01
3.458953643953383700e-02 9.516059064322190952e-01 -1.580508823245741490e-01
-3.990591000633954555e-01 -3.161478212478576605e-02 -5.135837078567838734e-03
6.104610952107558663e-01 1.118459027313629256e-01 1.133228874861075541e-01
3.585872318881445642e-01 6.518984523801844011e-01 1.363888058037123485e-01
5.377948239105380113e-01 -7.104767102305103998e-01 2.012945232787030636e-01
3.720735428849746285e-01 -3.578026946815931475e-01 -3.612733353275006110e-01
6.494498431556747775e-01 3.494889022684359303e-01 -4.977977900594399707e-01
3.507549816098718964e-01 1.146308757151589530e-01 -3.613759280531809170e-01
-7.442021771742234060e-02 -6.839607126926970926e-01 -2.136585281897186717e-01
-2.427593319682717909e-01 -2.845019369563158151e-01 6.437234524398399715e-02
3.811950437294046590e-01 -9.109014331101260575e-01 -1.063338700939066572e-01
6.608917201102599837e-01 -1.411651761036357942e-02 1.275932164236390498e-01
3.743478989450955141e-01 -3.859685746088417635e-01 -3.661513542354818407e-01
-1.293993693248338406e-01 -8.852398521149621446e-01 -1.221743876163676468e-01
-8.817261302553321967e-01 -2.848331390205999236e-01 3.407410759258001631e-01
-3.030181588844128027e-01 5.510488520981648985e-01 -3.114405784623455742e-01
4.776875691693809878e-01 3.837637505195026083e-02 -4.607455502351124332e-01
-5.888152442129173103e-01 -2.644269761135075725e-01 5.186808576370096624e-01
5.781249456975874335e-01 2.293963754290318791e-01 -5.153657693467843526e-01
6.449481920766944043e-01 4.474064030599280151e-01 7.523787513830930418e-02
4.797025896587278071e-01 -4.187887297008988097e-01 2.311812772473878785e-01
1.972698514001209880e-01 -3.722898422153153586e-01 1.500376472703160158e-01
-7.251139215581703379e-01 -9.388053618871601558e-02 4.974461409146244129e-01
5.284143626983530684e-01 1.862232170811904675e-02 9.862619388531952691e-02
8.100647087446134487e-01 4.892765523911406511e-01 -1.763268849064749677e-01
3.741945006287065723e-01 -2.175787115996450638e-01 7.624249525551583806e-02
-4.682902332824883662e-01 1.634440404723173229e-02 -7.842112873182442712e-02
8.583157383124231377e-01 -2.982892992690069356e-01 -3.515718476129612857e-01
-3.121100752756249541e-01 -1.228301699872764025e-01 2.410805700194454115e-01
4.507308018087383683e-01 8.201410257348529242e-01 -6.853811747932274379e-02
-3.176405683142181913e-02 9.313115277657252333e-01 -2.120625075991933728e-01
4.277573067417841934e-01 8.448272359023829559e-01 -1.115699064112173899e-01
8.482701893769593882e-02 8.864249243432217318e-01 9.888617065749437385e-02
3.024887201341772136e-01 -2.090718557244105602e-01 -7.828255893476862570e-02
-5.159901166658493743e-01 6.815446375205024276e-01 -2.019384274258713696e-01
8.951954348592304767e-01 4.889176336439999410e-02 -3.815158199818465823e-01
3.415367221346151116e-01 8.765022868916673149e-01 -5.925905109167813739e-02
-6.968993924766286874e-01 -4.693516431429389790e-01 -4.491501151765387584e-02
-3.674288959676684785e-01 -5.065592599396854384e-02 4.293353165488045936e-02
-2.589810361883416318e-02 3.971194247045982673e-01 1.241585365109505318e-01
-3.301857919789209506e-01 -7.569540011980990801e-01 -1.202966726484492876e-01
6.062387310409428354e-02 -4.132965882648867995e-01 -9.723440659762236371e-02
-3.489265503433733318e-01 8.965335031424306322e-01 -5.895266816902300366e-02
7.288913178685656469e-01 7.391124731561808658e-02 -4.961324698517108889e-01
-1.402455928240941008e-01 4.283015863958872238e-01 -2.793429481221479382e-01
-5.390734483209175948e-02 8.295575152084826431e-01 -3.335027453638885753e-01
4.564017455498860509e-01 -3.028871412100123672e-01 1.787946403408717799e-01
-4.441266869947378959e-01 5.043121814247640833e-01 -2.652840449860569549e-01
-1.369753643390937137e-01 -5.605159321619783697e-01 -1.708318486394261038e-01
-4.363895419759468708e-01 1.852419433639655166e-01 -1.290213435403881059e-01
2.722315905006628123e-02 -5.060764602169190995e-01 3.491359661316780216e-01
8.652775934066984087e-01 3.280738783199009800e-01 -8.038441174935602451e-02
-2.563248837072861219e-01 -3.867965565035130227e-01 4.248728599241468618e-01
-4.553437086838236225e-01 -8.570036497625240779e-01 7.959256768547325056e-02
-6.197211174182054583e-01 -7.481006180443959819e-01 1.495722656024672248e-01
7.686860996800702894e-01 5.014351590989606366e-01 -6.804617553424797960e-02
-6.306337854537958920e-01 -2.780177714895208929e-01 5.157667612662309997e-01
2.152263946256990079e-01 -3.120749562790839926e-01 -3.161286316449839207e-02
9.541722248408306822e-03 3.341053191552015855e-01 -8.103746995505037298e-02
3.692284351834881351e-01 1.540922626069161361e-01 9.886888988235754006e-04
-9.189424741789645745e-01 2.287800544695705873e-01 2.453660546011348365e-01
2.373768485511035531e-01 6.794363335361977008e-01 -4.486872241662705485e-01
-7.604381003478357659e-01 -5.832813208455964737e-01 1.351893256127913168e-01
7.758676304172219540e-01 -4.210252911503684636e-01 1.109249775691388967e-01
6.611680582725016908e-01 -3.047268857905616191e-01 1.756719480879466999e-01
-2.119713936381813213e-01 9.396411700819694568e-01 -6.250520399265920013e-02
5.845002014660179990e-01 2.517784359026596919e-01 1.094451497506566950e-01
-8.436742120753439877e-01 4.587158106452903783e-01 9.328675204217515282e-02
-9.099098760867736502e-01 3.030510176917691201e-01 1.635712287403192633e-01
2.766646748579280057e-01 -2.986965036521396222e-01 7.276266513843138162e-02
-4.226644756381607304e-01 5.433101219400225945e-01 -2.760620137065355473e-01
-8.505176472456384140e-02 8.509964447128040010e-01 -3.076898086595601378e-01
-2.542081634954848068e-01 -4.769627697378713838e-01 4.601729093551179539e-01
-7.574915950150745703e-01 5.832309682642883297e-01 1.679422463313793856e-01
6.154247305461347795e-01 4.433215170407987099e-03 -5.021779023212477044e-01
-5.056055271154321629e-01 -3.912854450886669166e-01 -1.106510315970773012e-01
-1.371557281986041099e-01 9.484786341660979003e-01 -1.656650505361697764e-03
6.775829145326638381e-01 -5.012279482512492779e-01 -3.782628428806283916e-01
-2.936539824837164359e-01 -8.608156053522759699e-01 -6.776062873158493483e-02
-4.218886942527372286e-01 8.496105687291571895e-01 -9.874922062025744129e-02
8.621234802229574834e-01 3.891445063759228495e-01 -1.580135657912656033e-01
4.053549764556373391e-01 8.417768127735530959e-01 -2.556975191791300284e-01
-7.870995892014666373e-02 -7.873650842935581151e-01 4.104365358739361369e-01
5.918064451336177978e-01 7.366513989276933794e-01 -1.416569584371975554e-01
4.058209126036632641e-01 -3.224006131437374689e-01 1.771630817933932678e-01
1.185357910082605742e-01 3.948531959712602291e-01 8.565508812704120123e-02
-5.742776126621094296e-02 7.152054165665636676e-01 -3.856806288883249945e-01
3.626181125051470278e-01 -9.321637625026638618e-01 7.891576675243304473e-02
9.013022846570298841e-01 -3.660515514868483700e-01 -6.966734851337776091e-02
2.724333597047811639e-01 5.894385693490985512e-01 -4.718114892858258913e-01
2.832835499504340881e-01 1.945313203086337928e-01 -3.145114368918793257e-01
-7.273118295183909066e-01 -9.917630273334894497e-02 4.969614579938466115e-01
-2.997342656631348246e-01 7.190758120507484419e-01 2.921233426538206723e-01
-7.157900141068136435e-01 -6.396037652414175712e-02 4.985279890487076537e-01
-2.929353170324846545e-01 -1.939966797520493724e-01 2.969433968692246628e-01
-2.096844769128001218e-01 2.758632793608489231e-01 1.120453040743418505e-01
4.639136461636890196e-01 -6.078289939752665877e-02 7.384850615731811119e-02
5.972634862883222651e-01 3.851319999660690607e-01 1.033287118534463450e-01
5.672909656724950400e-01 2.798838592909559664e-02 1.112752408583868313e-01
3.145647739861973657e-01 -1.886585788390772733e-01 -1.914767652261772923e-01
2.987734107012036677e-01 3.711086790555626069e-01 9.246347308212851668e-02
9.018071901399039580e-01 2.360181920708255277e-01 -8.817694559684813305e-02
-9.269615090973000182e-01 -2.346904457500356700e-01 2.263585145516231467e-01
-2.095684200362246397e-01 -8.640942585101993867e-01 3.683890983404611852e-01
-1.429104086598359524e-01 6.583185512166697118e-01 2.830607495442266086e-01
1.837155810113443588e-01 8.249284491467329117e-01 -3.652275353499950250e-01
-8.314392803860153058e-02 4.278079792766722456e-01 -2.922236305680792623e-01
-2.362741589953368249e-01 2.864704072120919376e-01 2.016997699610463546e-01
9.329853499029796549e-01 1.964159360013262301e-01 -2.284714838396632586e-01
3.146156868545927909e-01 1.078050212290749127e-01 -1.369613297348371839e-01
4.628102265957204642e-01 3.735493200552952309e-01 -5.067672875774518193e-01
-3.752995943398104717e-01 -2.528716490485664603e-01 -3.720302423955682697e-02
-6.186975557271493509e-01 -1.355110634842577877e-01 -1.125010930950713917e-01
-1.516101973938729364e-01 3.089301684249921576e-01 -4.377550753740010875e-02
7.633839498107012345e-01 -5.393987392894775690e-01 -2.920591333139091472e-01
3.843115444796237345e-01 7.264987435240837232e-01 -4.154280219220276571e-01
3.067599011013807386e-01 -5.553397631603519402e-01 3.053286984891124267e-01
-8.162758500021820574e-01 -5.055866694178555720e-01 2.442041116250012467e-01
-8.407043364742802227e-01 4.328413022853635495e-01 2.713586067813053213e-02
-5.500619358563660910e-01 7.623857037039982742e-01 1.702306171987556238e-01
7.096788940466752793e-01 6.090395133789492377e-01 -2.772368316798499710e-01
4.850216763909048767e-01 -1.061121587647638337e-01 1.008055157405509106e-01
6.677105263472329355e-01 4.602858960229762597e-01 -4.573198371498092274e-01
4.105129112310348938e-01 8.188095562926902549e-01 -1.243613234065494774e-02
-2.328340038949667234e-01 -5.455946875068590218e-01 4.671042692361144777e-01
-3.959269051536375983e-01 1.396149917520429218e-01 3.718597002804818197e-01
-1.264480385175698607e-01 3.840674224018913452e-01 -2.292404795298235154e-01
8.847981833844127397e-01 3.654423940439088976e-03 1.932987352155712477e-02
-1.841821146914271456e-01 -4.857968183104347526e-01 4.328428261113648756e-01
5.753849347946917714e-01 3.968677013564871348e-01 1.072644812445262552e-01
-7.923558996508330843e-01 3.337543777801680323e-01 3.735569069837927914e-01
9.462052992332119494e-01 1.309468286786268643e-01 -1.610422349163872224e-01
9.944106554867200576e-02 9.283194071835698669e-01 2.137236361219710737e-02
-2.086335590513016813e-01 -9.468763901791256155e-01 2.502813704339980072e-01
4.421321342845617730e-01 1.553957854947771722e-01 -4.656897757295948570e-01
-3.400066438380204281e-01 5.502458368567664238e-01 3.543373491390539587e-01
4.340167340315617128e-01 6.569060958856727250e-01 -4.472770591319388811e-01
5.247179341851198053e-01 -7.214273713481403894e-01 2.048772778463261446e-01
3.160211911038747767e-01 8.289794044409796170e-01 5.092112068685403919e-02
-7.746991554206825170e-02 -6.735407428655303397e-01 -2.124252412225260678e-01
-1.295289850139640098e-01 -4.712217313549535991e-01 3.980830435059211636e-01
4.848613431560586107e-01 8.969667116210411351e-02 -4.747694924537743666e-01
3.363580974847794614e-01 6.530719928624197923e-01 1.435455090967982239e-01
7.065920548886592822e-01 5.696245232497226807e-01 -4.450348842871745814e-02
5.690017492959845713e-01 -7.129374914779345040e-01 -2.798326141661031663e-01
-1.898014827515662889e-02 9.592401681265456670e-01 -1.064980071585367866e-01
-1.052858814120636310e-01 3.242184595905765465e-01 -5.457179219301641626e-02
2.657572505895574033e-01 -9.694193926798280181e-01 6.511362068468953823e-02
-4.181321711231483773e-01 2.039971335963204069e-01 -1.310823245289690075e-01
-7.550273045718249865e-01 5.245033894113415585e-01 -5.848807800149197905e-02
-1.280433513077932073e-01 4.585002604670902482e-01 -3.079584017857933120e-01
-1.503510873973081530e-01 8.610818312945532904e-01 -2.763348741803904329e-01
-5.528624633284521250e-01 5.574077139480039245e-01 3.650823581402299345e-01
9.455393611081329697e-01 -2.213968447533779804e-01 -1.249952157809573888e-01
-9.909872493815417849e-02 3.564699753578109420e-01 -1.812756615795018400e-01
3.533848867708559438e-01 8.565717612298567873e-01 -2.240363934373650751e-02
-8.639591685258841969e-02 -5.407861222582914795e-01 -1.720698043269491828e-01
1.153461652873268573e-01 -3.732338873660935863e-01 -5.253583968812161609e-02
3.438258772841918387e-01 -3.309435771343822302e-02 -1.272548545764111694e-01
4.792772973601501230e-01 2.715452032643242974e-01 9.960477537548953486e-02
-4.986261779631550040e-01 -1.965579461050139531e-01 -8.717525097257243505e-02
-2.858146715053009324e-01 8.948989043289415912e-01 1.051328461781088491e-01
-9.149936677629466608e-01 -1.277945183062277335e-01 5.755905730614181010e-02
1.454657610401658974e-01 -3.573895666937539350e-01 -4.732824478050893374e-02
6.496225505938033606e-01 7.501682054435127034e-02 -5.093842256998897255e-01
-7.202519961151704342e-01 -6.312244874166217379e-01 1.200812261029010619e-01
-4.787784896445612670e-01 -8.375539645240107633e-01 2.704904959345361681e-01
4.936239171168410045e-01 -8.506299489933802915e-01 -1.412671139639198603e-01
-4.530496811729917139e-01 -8.407675543396204709e-01 3.821386966895105181e-02
-2.857145400738999030e-01 2.643165951738764008e-01 -9.861494822643511460e-02
4.264038835839137342e-01 4.833260047447779928e-01 -4.990870944135155640e-01
3.214534774060092137e-01 9.193065243964741728e-02 -1.340472161350686198e-01
3.382775505625600088e-02 -4.202188500838920926e-01 -9.231453841117442938e-02
1.541381691922958375e-01 2.921649825400384204e-01 -1.010803999182997570e-01
1.869637057949370962e-01 -8.244755258898582850e-01 -2.406621341670157344e-01
-4.817653333553656991e-01 2.386391726458475804e-01 4.329972927690415307e-01
8.822368894389569505e-01 -4.605466058765384646e-02 2.856763444994824680e-02
2.170258372930681801e-01 -5.355376607310848858e-01 3.156996217257251880e-01
6.610937982025971715e-01 1.860817460503956799e-01 -5.110592829918924052e-01
3.289236400725424891e-01 -9.235841334507745026e-01 -1.128535242700327429e-01
2.899188082876293787e-02 4.682006616362339724e-01 -3.683303304990521720e-01
2.343731032828015037e-01 -2.960378018405412370e-01 -4.045010254834159602e-02
-5.095951443753243826e-01 -5.461323907600049155e-02 -9.095690976253431592e-02
-7.564207070902727592e-01 1.186625337637425975e-01 4.631699666176367081e-01
9.027762097546077058e-01 1.204623061897661246e-01 -3.606671710807323183e-01
-4.515441178270008238e-01 2.147445274362522194e-01 -1.517549264562531308e-01
3.657968816221672803e-01 3.981474080257406678e-01 1.150960838051295759e-01
-9.857517929964768055e-02 -4.205000556254294142e-01 -6.191827745301226038e-02
5.980133815636268224e-01 -4.458988349434345189e-01 -4.192475838372821673e-01
2.507911827327525822e-01 -5.244606896393928519e-01 3.035164246563899493e-01
-7.783399547506786309e-01 5.143848578030225660e-01 -2.746618080729692352e-02
-3.594015828411090685e-01 2.610245484588287201e-01 -1.438507862635867718e-01
-7.060343643476153508e-01 -2.484896198820494007e-01 5.002562862847096392e-01
5.754877863801835525e-02 3.386597138488884329e-01 -2.634367476618879739e-02
8.183218401298202327e-01 4.776536438590000544e-01 -2.026114077464634677e-01
-3.487703426356052461e-01 5.673509298585315275e-01 3.532652093571559404e-01
7.787573373750197314e-01 3.628021698222326785e-01 -4.223090019663465755e-01
-3.147259223592456800e-01 3.171784486560045857e-01 -1.772187193805444538e-01
5.998513422202409462e-01 -4.789939586149990491e-01 -4.078778700758567410e-01
7.234515018223689475e-01 -7.304760868345872016e-02 1.270540108102347909e-01
-3.383945427824334717e-01 -1.435625244688981950e-01 6.424203468561300034e-02
-9.422608907989824534e-01 1.200217890143010085e-01 2.423972585259615287e-01
2.436728425539018417e-02 -9.876694819654201485e-01 1.789533691325382314e-01
1.683199176011894171e-01 9.260042163439223817e-01 -1.668430292353712333e-02
9.141401742498692640e-01 -1.911439230494765829e-01 -3.191713089430348038e-01
5.618071465918760277e-01 5.977211281459035019e-01 -4.391497885284458835e-01
7.684191873042479637e-01 -6.294975585130095919e-01 -5.593880420968262018e-02
8.998349919699197841e-01 -2.269148532028652798e-01 -3.283568912199837375e-01
7.354738917778940177e-01 5.864495240540366083e-01 -2.560806527207392658e-01
3.167757384926979669e-01 -1.809892577261648650e-01 -1.893742905416661015e-01
3.143151382546380823e-01 1.163638095788129267e-01 -2.823187986827304097e-01
3.744956756038566592e-01 -6.123683247424432929e-02 -3.092752998689951224e-02
4.332286548230157019e-01 4.194512950786324912e-01 -5.029999581044583001e-01
