1.222379354665649315e-01 -1.580076508370831800e-01 -2.694375602969046324e-01
1.830022680322389572e-01 -2.086745556011765923e-01 5.588682655056735893e-01
3.776141566013990203e-01 3.495996951750583448e-01 9.647569537057587574e-01
3.902449928409086333e-01 2.354755725019046231e-02 8.681398299677910158e-02
5.689008527774055968e-02 -2.267068721183853330e-01 -2.147217710898619569e-01
-3.628084241347588612e-02 4.360944201862251846e-02 4.538424085460205926e-01
-2.036803934150941409e-01 3.826175013624891763e-01 -2.530841578701864547e-01
-8.278126102874607817e-01 1.693331093458451397e-02 -1.258861474150774484e-01
-5.183290832540323745e-01 2.471667223955969495e-01 5.212902844234857946e-01
5.678284213127443580e-01 2.527365843179361637e-01 2.121535175180535027e-01
-1.004648924221798745e-01 2.637260985553816495e-01 1.600482241181731269e-01
6.376025068994103373e-01 -4.235855057307666427e-01 -5.971547362239887358e-01
2.407153680310053223e-01 -1.349412754993848107e-01 -2.760246136929049299e-01
7.971616170029997006e-01 -7.135057606596975077e-01 -2.250371364284829701e-01
5.691502934608839714e-01 1.365860887456452621e-01 1.150592472168513181e-01
-1.765964475450543802e-01 4.210147729083319468e-01 -1.244721612153202178e-01
4.577898987026055716e-02 -5.365969665194862681e-02 5.500529141977604786e-01
3.793030179994441586e-01 3.276168161647525223e-01 9.692633940624854061e-01
2.972491491142302891e-02 -2.586539063813593844e-02 -4.148391593849768966e-01
1.278220811303142634e-01 -7.875589336095493165e-01 -7.179971635997614010e-01
8.759890048202906288e-03 3.991785719626131934e-01 9.659892640806533315e-01
4.445001661909540047e-01 -8.376344054306754661e-01 -5.222073689644262107e-01
6.835634846935747522e-01 -5.438994446235746461e-01 5.076165904170120147e-01
6.396048556136769980e-02 -2.983277004297809135e-02 4.420929277141907865e-01
7.404042724078356841e-01 2.401560835232582625e-01 7.431921229806632834e-01
-6.390959587389416496e-01 -2.869700940681424450e-01 -3.335259760429967746e-01
-8.267144191024773381e-01 4.288924759399684317e-01 2.964845906890732907e-01
-3.900540992342157454e-01 2.224198726882069821e-01 -8.355364850417427158e-01
5.393340786957177002e-01 -8.585224775073200254e-01 -3.474815306177991836e-01
5.926703995029695138e-01 2.762040366344512346e-02 -5.822532715593114333e-03
1.772833390125180542e-01 3.768927976339740415e-01 2.104606598187729605e-01
4.455208543225383511e-01 6.149684289833774464e-01 5.970993436975073898e-01
8.841742123734535053e-01 -3.491420512787666436e-02 6.352021989164543525e-01
3.479647568294429449e-01 2.456419221948566434e-01 2.041221396698618962e-01
-7.555490915432305776e-01 -1.176270272664693556e-01 -7.521925451104157778e-01
-1.876070299173093758e-02 1.830809916541073848e-02 -4.251345882834833279e-01
-9.838979547114758140e-02 -7.343605457042398643e-02 -2.924967689117480840e-01
9.034476988863628932e-01 2.607291190600856401e-02 2.416745106569575252e-01
1.381462758945225799e-01 -1.534045520032726040e-01 5.544330866443635264e-01
6.630736732219785212e-01 -9.200994961141092943e-02 -1.884492468757900385e-01
-6.706269245172717941e-01 -4.385083794682719666e-02 -8.551789579137237807e-01
6.270012666576066929e-01 3.037335804435990494e-01 8.394652445725795387e-01
5.119974548080920285e-02 -1.485709258046954695e-01 -2.846007587512488501e-01
-8.694249554770807631e-01 5.659499017457931824e-01 1.934644966439378888e-01
3.530417245286632810e-01 -1.104329458887927384e-01 -9.747779817664646573e-02
-4.324693330700812854e-01 1.626891165260733185e-01 4.087393221716613678e-01
1.199650440442556337e-01 3.496613437123609613e-01 9.858573211403620640e-01
5.490455290404105959e-01 -6.781165731410110364e-01 -6.351071516063354627e-01
-3.053593624387261896e-01 5.752433098551755775e-01 -3.284516938960416743e-01
-5.876713275815073079e-01 -4.382729778754772543e-01 -6.625169415199387846e-01
-2.804390165604705998e-02 -2.134123219038247810e-01 -2.387973354963223993e-01
-6.916195583939611646e-01 5.506735513489586786e-01 5.071054742142582228e-01
-1.679251463672591649e-01 8.912056807149042470e-01 3.213749079789255392e-01
-1.980262280915876527e-01 6.543041073205979608e-01 -8.141483441134063359e-02
-1.171242159412585609e-01 -2.720320086993323061e-01 -2.242255780257220166e-01
2.383128879746958806e-01 -1.375270550996991470e-01 1.966695957961458185e-01
7.791171870905772012e-02 -1.110592706733577739e-01 -8.626520578670843209e-01
1.594786409466386612e-01 -1.971764694741966195e-01 -1.977427644671718165e-01
9.733317772224399089e-01 -1.041509789961739818e-01 3.094398057384538658e-01
-8.858802610524462162e-01 6.303818923670897467e-01 -7.657027425720008829e-02
3.195231096721038999e-01 -5.593428082808072910e-01 2.866052884727890437e-01
1.570400003395595045e-01 -1.821150514878178417e-01 -2.222973198503189474e-01
3.094681338017692962e-01 -2.419848232632128560e-01 -7.907796200752915672e-01
-2.885147052230015996e-01 1.501685529557159060e-01 -5.296564836112174421e-03
-6.246396655725038327e-01 -3.890328822788688412e-01 -6.925950036825422318e-01
8.047408292581103018e-01 2.487550527918654109e-01 5.205115071538976013e-01
-8.820629402748220160e-01 1.403540783271960135e-01 -6.078997578151932313e-01
-2.479901031517264265e-01 8.702675121279251913e-01 5.855921385804787604e-01
2.808415391405043593e-01 -7.246643276371141917e-01 -7.644032800816257245e-01
2.499263200326691525e-01 -2.012793351016318733e-01 4.941809523755027328e-03
1.536918516194293594e-01 -2.056101384236972696e-01 -1.894944226801087706e-01
4.901319719172701483e-01 -8.783185388946891381e-01 -2.918982679926217516e-01
2.237555617664967467e-01 -2.990375094769504583e-01 2.694386841921929676e-01
-6.628873003422413035e-01 7.366969651462884627e-01 -2.638450967896762145e-01
7.749264405107948450e-01 -7.526357963442961152e-01 -4.429711009512705966e-03
1.840831202341717265e-01 -3.004633790368731461e-01 -1.250292598429795198e-02
-4.162112890827560086e-01 2.869349266261221887e-01 6.774919931306629950e-01
3.498643530089465270e-01 -5.982327204313671043e-01 2.841852949603014822e-01
-7.170049711065121234e-02 1.336048661236882706e-01 -5.726577357221944720e-01
-1.024378185733378355e-01 2.432873729121709794e-01 1.825523911522405340e-01
-5.835633173212304015e-02 5.691835260339410396e-02 7.426045036244652842e-01
-5.135628978140405199e-01 -8.034751718845302426e-02 -9.422865911504157976e-01
-6.178592778613946068e-01 -1.133029635480889835e-01 -1.369744805062138027e-01
2.557332948831724795e-01 -8.321945318510414191e-01 -1.561244397311421506e-01
-6.669906002869102624e-01 2.646336576466599699e-01 -7.753220899678697764e-01
-5.115411274833129296e-01 -3.035831408804344766e-01 -9.080372573914650136e-01
-9.694692826945888742e-01 2.767415277013853814e-01 -2.035157319645237162e-01
6.578152032078189715e-02 -1.835463536067928336e-01 -9.185670311850605563e-01
-9.685447066148434869e-01 3.144233976467785130e-01 -1.565732111889790723e-01
-5.518480447349402573e-02 6.843833378451731342e-01 1.076823967347138311e-01
2.948616565523236033e-01 -5.103374096107738955e-01 2.987368707449668537e-01
-2.378414131549309862e-01 6.270799750806010930e-01 -1.622796095847008901e-01
7.837869673961178618e-01 -1.410361407549254320e-01 7.471185699786059287e-01
1.500370082823639373e-01 -2.567755110713308975e-01 -1.245864412403370619e-01
-8.190753821855667471e-01 4.874146147795107020e-01 -5.007135857451076033e-01
8.378659893634726741e-02 7.854602440413001041e-01 3.591760747989815039e-01
-1.317458194395350890e-01 -6.471466494169451911e-02 -2.778327711648550524e-01
-8.410568402055661474e-01 2.598910311480711055e-01 1.599941748455763757e-01
4.253557138717951602e-01 -2.424169239004902165e-01 -6.850526640503800113e-01
-4.853763306184245563e-01 8.761108530374006609e-01 4.573261097614816223e-02
-6.486627760998751879e-02 -3.286044148806512299e-01 -9.920413488740857932e-01
3.113943657976755985e-01 -1.156960868527502073e-01 -5.685700266430799843e-01
6.792142750589368339e-01 -3.228240749348059158e-01 -4.979836003386057253e-01
1.584851249035121312e-01 -3.431712774712977199e-01 -2.149286617864285334e-02
7.765879340038398526e-01 -2.352161923703061097e-01 7.155750078147943283e-01
1.641061071173018360e-01 -5.862683975960816252e-01 -8.918924483665462422e-01
-8.240116922032825197e-02 1.540070869622161553e-01 3.021638406300223845e-01
9.357386564107436078e-01 -5.506833332957790095e-01 1.430577517225725404e-01
6.442032975133538120e-01 9.128691352674855874e-02 7.422259564932544296e-02
7.489815475389586252e-01 4.718013787973166645e-02 6.214668626138218632e-02
2.467997447915726561e-01 5.243239990677437401e-01 2.606258692912025721e-01
1.415571369301658888e-01 -2.809731969738442081e-01 -1.065388082649807305e-01
5.717145351826496968e-02 3.907804789807373114e-01 1.692261780069444221e-01
-3.567621868529465695e-02 -8.053352746175573840e-01 -4.999852769149705223e-01
4.205705108060430741e-01 -6.181907372250550203e-02 -6.369554263839026509e-02
-2.496788613430024617e-01 8.287531023059656610e-01 6.575822047934334891e-02
4.431558681310660552e-01 -7.753404025584561543e-01 1.096726387273822545e-01
2.757554867798670539e-01 4.690998270709323958e-01 2.529299486877896741e-01
2.001033354887774007e-01 -3.620367925873581028e-01 -9.112222897105943797e-01
2.169592298809914777e-01 -2.492005540963949384e-01 2.802669612167052460e-01
4.293742877525307255e-01 -1.120255069931433284e-01 -3.034298746851811224e-01
-4.544184509015630757e-01 -1.244290571368088802e-03 -9.458448794279550320e-01
-2.883795046561369868e-01 5.313758119833759119e-01 8.463427481083016790e-01
7.207124764691663632e-01 2.672933348625624039e-01 3.196951178085155054e-01
1.657533763093015644e-01 -8.267712953511979768e-01 -6.434678676902155781e-01
6.824179742535000370e-01 -7.655564582814976538e-01 -3.770875930358547623e-01
-2.545842572863128983e-01 1.589772667047095189e-01 2.464990898384444851e-01
3.377824971239890006e-01 -5.333647805367999206e-01 3.492042907764133508e-01
-6.450614405296646314e-01 3.340501297205474007e-02 3.623537388068574783e-02
5.168865285319516056e-01 -5.980668159384043836e-01 -7.029292930763061387e-01
1.245118437875582379e-01 -9.791738366277122352e-02 4.266501589969969310e-01
3.131388660909423249e-01 -7.170068519709970056e-01 9.074626510209168884e-02
4.609465555690472338e-01 -8.634416795814270351e-01 -4.342569712740691479e-01
1.747782378157504771e-02 -9.486890675596116804e-03 4.864063224276902742e-01
-3.134438588051732116e-02 3.529012593589702512e-02 -4.318930398006889382e-01
-6.044729101898251716e-02 1.906441475320777568e-01 8.862771627226192495e-01
2.404392175949752741e-01 -2.155995520559884915e-01 1.047507324053971733e-01
-1.079792861104430374e-01 8.672619472468651169e-01 5.884288318677056706e-01
1.296936744437649225e-01 2.451649899022909085e-01 9.787899306599080473e-01
1.982929922367645814e-01 -2.385637157108203010e-01 4.849218471299169830e-01
9.009221109054951215e-01 -4.317952214098491615e-01 -2.179348625604359824e-01
2.277557838855476802e-01 -2.132819741003451341e-01 -6.677410644511978799e-02
-7.301288457321359893e-01 7.980219636238325975e-01 5.418541254569981397e-02
-3.386082907311059875e-01 -6.007234869625512896e-01 -7.785902939085603824e-01
-4.874599288478767001e-01 8.048415426978878795e-01 5.582589693738725378e-01
3.179974325716105610e-01 2.151090310255237559e-01 9.868282007350551721e-01
2.050164937374275020e-01 7.258788095023843701e-01 4.019721485856800891e-01
-5.723804605140293544e-01 8.512688128508721919e-01 3.685794789540317029e-01
3.217766927087872264e-01 -5.989135292814749129e-02 8.832218803374713989e-02
-4.752507222606747878e-02 -7.918394367115300092e-01 -4.464341042627437139e-01
8.233219225818844134e-01 2.001912501084981977e-01 3.904354879880608808e-01
9.345573947931969938e-01 -2.077378863804292264e-01 -1.480086306787292520e-02
4.622095399512843317e-01 -6.398954568392978270e-02 -1.148341431921192646e-01
1.899518500281628663e-01 -4.089605258135402266e-02 8.583411969940917263e-01
4.968025121807599642e-02 -5.432881381292095635e-02 5.350695903204116810e-01
-4.069704467283364879e-01 -2.219059113156500729e-01 -2.084321054249008986e-01
-1.384516139455327366e-01 -2.328786570688372026e-01 -2.325791971273905578e-01
1.478599154159831452e-01 -2.153858020377508453e-01 -1.802435186518487609e-01
-3.219793392224834516e-01 -2.263833739418071034e-01 -2.163262601087447279e-01
-8.211943930076385234e-01 -1.119677744942290387e-01 -3.234000555572229541e-01
3.047989233410032806e-01 -8.836425233370361898e-01 -4.334410355094538425e-01
7.748445484632517921e-01 5.356008843546841008e-02 8.934992868772265173e-02
4.266547116434617481e-01 -4.546229176623514112e-01 5.631351750747675133e-01
2.849483145578556864e-01 -4.052928763432380177e-01 4.238306001989570193e-01
2.252170401540711520e-01 -3.045076002370000756e-01 3.137343728257090958e-01
-8.519888975893512573e-01 1.110286916991275047e-01 -3.225677796253164503e-02
2.109397502549364423e-01 -2.813262043266158141e-01 4.534377842337430214e-02
9.318728381032298502e-01 -6.743824161713946053e-02 5.354545881411904018e-01
-6.207199114144980046e-01 -2.270334576411500715e-01 -2.528523635398621794e-01
-1.232167970893780218e-01 -2.516809658968147817e-02 -2.975636789466224452e-01
-1.936861658515383611e-01 -7.330951040757168746e-01 -5.728416215558029823e-01
4.875663548660744140e-01 -8.751337773951294308e-01 -1.858511505517878859e-01
1.690419631104574383e-01 -2.199654737598636112e-01 -8.787876232831889345e-01
-6.688563201906514433e-01 -9.776283971791328853e-02 -8.516674401432967612e-01
-6.789976153546335436e-01 9.835375196006823639e-02 1.217169709123902405e-01
3.569566748303175108e-01 -7.532193669890959731e-01 8.245012620765337918e-02
8.815457422038910362e-01 -3.274210196280908369e-01 -2.199029461638158101e-01
-5.137997059438553782e-01 5.591164832519238681e-01 -5.343745750107644632e-01
-8.210073548733428650e-01 -1.456230753640836706e-01 -4.084813540272295151e-01
5.724616207638758558e-01 3.252563788168846837e-01 2.741999614611391189e-01
-4.479047729972427394e-01 7.627631948508772908e-01 -2.079783968103946501e-01
3.316240422777134711e-01 3.628176850005961351e-01 2.354732833682998960e-01
3.351175934912307142e-01 -2.268879435821095636e-01 7.663119140645188176e-01
5.417497868023215535e-01 -1.097921018354057615e-01 -2.758846603659936836e-01
-9.600352206358955254e-01 4.131916634690405710e-01 -2.519278298191690579e-01
1.107908207877810330e-01 -9.228221850368963086e-02 4.511130300872532306e-01
1.595011893664543753e-02 3.209607673877738487e-01 1.781064451309022911e-01
5.200495104070074204e-02 -7.379631485998628948e-01 -7.854144289672595480e-01
8.122703044377477255e-02 -8.155710150831548821e-01 -6.524993599394498522e-01
-1.581503065378383477e-01 1.036418718973277503e-01 6.859764341176256552e-01
-4.625309520257213092e-01 9.015375950630373225e-01 1.724735010814957559e-01
8.691009586456180935e-01 -5.433790336033600399e-01 3.551745354541738786e-01
-5.005144979056466159e-01 -5.106271102620617564e-01 -5.243013485460977785e-01
2.391513101182451972e-01 -8.518623244197212618e-02 -4.861688427715993854e-01
-6.666325152672387677e-01 5.660799367038784613e-01 5.355417087533244080e-01
6.549986141149568564e-01 2.140038594946425676e-01 8.533848224224043211e-01
-4.772448975920851044e-01 2.921800588900584916e-01 -7.952446907987769098e-01
-1.895558010258657777e-01 2.381022573811910348e-01 9.459541895368234199e-02
-2.524650635225928474e-01 1.996549143133989068e-01 -7.958994167082553695e-01
-7.736708568299596189e-01 5.703611472912454294e-01 -4.505367932735183656e-01
4.280322209154525104e-01 -6.441898883676168419e-02 -7.964590562303995591e-02
-3.615472181263244544e-01 -4.340833218963843776e-02 -1.323165122549188055e-01
6.102178417993424642e-01 1.152542857317555292e-01 9.570289075047229421e-02
6.654724657460203696e-02 -5.460483708571227390e-02 -4.012891234594315737e-01
-5.357549175742972736e-01 8.837013020842637845e-01 1.125446010454740770e-01
-6.838042072056138565e-01 5.336973200775151360e-01 5.179001857858360758e-01
1.003375507639352043e-01 6.330586970995262242e-01 2.168937908857351271e-01
-1.889963453643985491e-01 9.852441965768918286e-02 5.590563070806208179e-01
8.067119907676488788e-01 -3.941664231781001893e-01 5.885380296805491351e-01
-7.464834065999483015e-02 -6.143529945900980671e-01 -8.942534780512403358e-01
9.337356684320136102e-01 1.459937924515073392e-02 3.700479620431882388e-01
2.565716334690454348e-01 7.315344209229838190e-01 6.554650635424430494e-01
-4.324843921844395006e-02 8.688898899447152768e-01 5.056363689022478347e-01
4.377251228361137003e-01 -1.054275546637827160e-01 -2.610725584310871761e-01
5.289310559404886841e-02 3.066246287520776326e-01 1.968425735592344850e-01
-1.394402262485169297e-01 5.107986094988125059e-01 -5.053719040277291491e-02
7.716200552102520094e-01 -5.574686129745016760e-01 -4.359511688552162867e-01
-1.223330754001376031e-01 -1.147466882854729225e-01 -2.660347447677436361e-01
-5.551456248206489141e-02 7.931504135257605448e-02 7.845039509465165928e-01
-8.411063459530145892e-01 8.235635151898743067e-02 -5.406444357536424605e-02
8.481400364185069651e-02 8.073452143537989123e-01 4.169163445166301218e-01
-8.141845130139792330e-02 3.905504984296449822e-02 5.967899449321073524e-01
-6.045417742097827229e-01 8.670235578613342264e-01 1.779968020614155488e-01
1.467602024921833004e-01 -2.126170186764722320e-03 3.129828217918684263e-01
6.926180893210348577e-02 2.224687926823049056e-01 9.582221912568981148e-01
-7.596930194376853018e-01 -1.934318905145081535e-01 -3.490085807036873988e-01
7.645377720157252310e-02 -1.282172326075048940e-01 -3.080889774908919798e-01
-3.173307656891460327e-01 -1.578976394588701981e-01 -1.988226885363230390e-01
2.182941612450084723e-01 -2.802193586777252388e-01 3.679367665374813079e-01
-1.744011622342933332e-01 2.632945857732352235e-01 -5.351044308656298654e-01
-7.274758338445977968e-01 -4.368698652304564556e-02 -1.048364203841605780e-01
2.782166837995487391e-02 -6.572651225325801816e-01 -1.687831673320549231e-01
-7.455381213560592635e-02 7.122173315027237328e-02 7.470440092343664240e-01
-7.327933490878689726e-01 6.362471530925820629e-01 -3.926050897431356268e-01
-3.275236594256549783e-01 8.489327396327267516e-01 3.736191731922855475e-02
9.576643371724775922e-02 6.158488822128582729e-01 2.053070405714226276e-01
-1.935143185137246369e-01 2.110326752520842453e-01 -2.564732414451363351e-01
3.011123226745010539e-01 -8.667423613405579319e-01 -5.215906662976055319e-01
7.227676558339387602e-01 -2.418158712282744149e-01 -3.684961964600731443e-01
-2.560708315175150851e-01 5.106828886040153392e-01 -3.097410612497156768e-01
-1.807922281824859423e-01 3.742785875026767295e-01 -1.201448872397762185e-01
-9.580745837960728817e-02 1.837300401222158319e-01 8.587603393128290241e-01
-6.842041327686224639e-01 -3.390996205723863510e-01 -5.252457214605013025e-01
6.908948561086194484e-01 2.510056538669004356e-01 2.692393602781788520e-01
-7.287481218464010591e-02 6.299515008190408050e-02 4.549369272411332710e-01
-8.609871783722717886e-01 -8.977817300368555464e-02 -4.529166966370785641e-01
7.073025011989587663e-01 6.801636267193873590e-03 -1.397112192320834091e-02
-1.696194706605684277e-01 3.185981097880991042e-01 -1.438795019835154357e-02
7.000966675792811289e-01 -5.485473520874449838e-01 4.962581754136654588e-01
-6.741449182299226461e-02 -7.536895431634980103e-01 -7.225465059257798472e-01
9.018104946724438964e-01 -5.247795037012478181e-01 -1.936305711532901042e-01
-8.879439376447439969e-01 -1.255498956315705128e-02 -3.170065988477233088e-01
6.762953678611328678e-01 -1.017422725211022949e-01 -1.983253572794461961e-01
1.153732714139939219e-02 3.634030430469419037e-02 -7.262353452941168186e-01
9.865613528118851727e-01 -1.651678882041654473e-01 2.967313422378307641e-01
4.777967280798358085e-01 -4.930970371209575376e-01 -7.521132619902702876e-01
-4.641730047143476368e-01 3.150589266854664228e-01 -7.755611813396645626e-01
2.508291521400019541e-01 -1.609845138646027185e-01 -1.818961189070052720e-01
4.512584479183703867e-01 -1.274115032523499280e-01 -3.865934681972860720e-01
6.986748779990713532e-01 3.561154043750306974e-01 4.427300969986401324e-01
-4.865679315683824613e-01 -4.474191605483551215e-01 -3.913273138461265677e-01
-3.351121140534532583e-02 2.092398757584576496e-01 2.423441685209191954e-01
-4.360819987188746527e-01 9.509861584968840043e-02 1.159709107152215174e-01
2.202985849982279087e-01 -1.114358597432809905e-01 -3.517291688396580462e-01
3.823713355745700926e-01 1.056859063203896554e-01 9.667131588326579594e-01
6.114758917994869147e-01 -1.520228020360784964e-02 8.855703425455411226e-01
-6.503530657839811102e-01 2.330286514097623107e-01 3.627941378299543995e-01
-1.406814507181487761e-01 3.342316201995067515e-01 3.166611350047063289e-02
-7.836067485437658853e-01 6.799678152062703651e-01 -2.622796572382685709e-01
-1.387247403051893035e-01 4.425523208587954782e-01 9.202342291975029731e-01
-4.124827666325434627e-01 5.091045153599053075e-01 7.715634650988963950e-01
8.027427367176198647e-01 2.355178637634730912e-03 4.564325805056335811e-02
-5.705817730257352061e-01 -3.999463756508171985e-01 -7.805675167006341786e-01
-8.734913929554836143e-01 5.800335095778300643e-01 -2.900726023465318160e-01
-2.646368313381359250e-01 2.285428100386023842e-01 7.612434425499781110e-01
2.515757926611368878e-01 -1.522182280954280931e-01 1.511648926288519379e-01
6.279776309978271076e-01 -5.315428178469185916e-01 -6.171243358056101025e-01
2.124265211842979173e-01 -1.040088328439703197e-01 2.556235606748371025e-01
1.635799563754014585e-01 -4.483412940987631656e-01 3.665880576999969165e-02
8.148768571175688535e-01 -5.909130921391945179e-01 3.571656871417698831e-01
-1.095423418782067032e-01 1.092517721344095777e-01 7.673685148928669486e-01
4.054654334356978113e-02 -3.169284455732608308e-01 -1.611511500652938744e-01
8.816297018130903052e-01 5.452224314515754372e-02 6.042139487010009802e-01
-1.734719270747865083e-01 8.596620514160865367e-01 2.067490398544157837e-01
4.354776320388716315e-01 2.277211848674284000e-01 1.879926716947932230e-01
8.345821363144931837e-01 -6.222862094536099065e-01 -2.817291301909102819e-01
7.541574437434135358e-01 2.964831325470058676e-01 6.420234593448266303e-01
5.238922457689551004e-01 4.765822021307271616e-01 8.032922325766107541e-01
3.132812606237100339e-01 -1.411029835593993198e-01 8.356347369120221691e-01
-8.077583572815189017e-01 7.122126211021605480e-01 1.650395236519170694e-01
4.883819754745442054e-01 -2.689693989470747226e-01 7.809910652480167581e-01
5.450789522883165983e-01 5.024500327621056472e-01 7.343023407276541015e-01
1.283562369384190771e-01 -6.827264420085197294e-01 -8.518664631566313927e-02
-7.525715919847997259e-01 7.807212353878493216e-01 3.063662281602868437e-02
-7.750744489349193911e-01 3.812340251651670231e-01 -6.347380884439912663e-01
8.993351167800659463e-01 -2.227573878796209050e-01 -1.032713338463435992e-01
-4.079914232338063829e-01 1.975346830390027342e-01 5.506922778310281430e-01
-1.171298873618914216e-01 1.412501893940533160e-01 8.020656972585709088e-01
-3.593836497228447557e-02 8.671234927085352817e-01 4.990851627470551111e-01
1.206377157634781760e-01 -1.639646221728868203e-01 -2.618090265894575941e-01
2.970158985070157076e-01 -6.727837523706184930e-01 -7.989544598628148808e-01
-4.895367963304657621e-01 -4.546915297642235010e-01 -4.030391319845024745e-01
-2.123900748370433633e-01 6.411073054830325191e-01 -1.120828903421407369e-01
-2.224594890429572591e-01 8.616562113097055997e-01 1.601618558054410391e-01
-9.037229785454508058e-01 7.839859389953837687e-02 -1.871206294404428871e-01
6.146590500537149060e-01 4.623184306371950214e-01 6.570388328144366463e-01
-8.876298673488300373e-02 1.065873555978056747e-01 -7.513690338104194177e-01
7.026159845297024198e-01 8.536650306823428958e-02 8.391332882952076133e-01
-7.642806635892862577e-02 6.172766996124530170e-01 5.284964601922214483e-02
2.933388901993095321e-01 5.381001798892036669e-01 9.089691859158711695e-01
-6.051611551053167615e-01 -3.074664259805016675e-01 -8.264081529629321299e-01
7.957716384374072804e-01 -2.658306699134669326e-01 -3.042875997857576453e-01
3.307256842767661853e-01 -5.399748471251480941e-02 8.079606281622576935e-02
4.316003239507307798e-01 -6.090665712680192190e-01 3.605106793931628917e-01
1.777280156450504189e-01 -1.714934611341112636e-01 -8.387759400412189148e-01
6.324823320604473498e-01 4.521539175178059811e-01 6.033875528860551674e-01
-4.769256822488956438e-01 2.897197683404552637e-01 -7.971066061253765378e-01
6.241488592882025177e-01 -6.605931337699463279e-01 3.585086203020435014e-01
2.484173823086760491e-01 -6.059127038138658120e-03 9.092336248630610296e-01
7.620082007553786729e-01 -1.932571049300180754e-01 -2.638023277174070813e-01
5.345928556927365821e-02 7.713561544864182551e-01 7.486672392034029455e-01
-4.587958466258986179e-01 -1.758871439275654924e-01 -9.627468973618883430e-01
-1.535520022260134787e-01 2.344679692675585847e-01 -5.239095130651574284e-01
1.131390141768290197e-01 -1.228885649823733134e-01 6.042155260359903801e-01
-2.679215663714651363e-01 6.559196612461837272e-01 -1.790268638890759600e-01
-7.480192516436835470e-01 -1.588193970981882364e-01 -2.751318805789713662e-01
-1.365615361571092257e-01 3.615252316625120477e-01 1.229892688783512829e-02
2.067672549063944709e-01 -3.634010354104035834e-01 1.213822528315986055e-01
2.111185519631077201e-01 -2.475962322449629938e-01 -2.887419578235761106e-02
-7.373366936563340301e-01 7.531401324104607387e-01 -1.518125135121235203e-01
1.421191232654287762e-01 -1.581568678439901898e-01 5.570736122543763491e-01
7.711147085774141541e-01 -2.285284169557466050e-01 -2.963552331320217781e-01
8.310112639056675687e-02 -3.827875319052679443e-02 4.230226278647739035e-01
-1.724587637165017895e-01 2.972910020403247144e-01 8.763351110377537445e-01
-8.492062186400999302e-01 3.625301630534123465e-01 -5.721070526040328286e-01
4.045357154161371427e-01 -1.186650570839344332e-01 -3.711722895592990401e-01
-5.438985280461373639e-01 -2.272573037147865294e-01 -2.236736899246712096e-01
-4.173308356732774449e-01 -5.269632105765320595e-01 -4.245486194521847501e-01
-4.848266580913196400e-01 6.547792109054417775e-01 -3.957088129816765387e-01
1.164580562316027412e-01 -8.255293061655928355e-01 -6.379038537195154124e-01
7.850922149715112708e-01 -5.960680557979231020e-01 -3.980692448219744772e-01
7.771924096811509974e-01 -5.747914020974137506e-01 4.176422491677501125e-01
-2.575226905029064928e-01 1.828467303101551644e-01 1.077160735569890337e-01
-4.125179668694836654e-01 5.453737697068183898e-01 7.694299209060104783e-01
-8.075774153937164135e-01 1.450937850864381373e-01 7.403912782939126025e-02
1.282411240011307740e-01 -1.155278263148752649e-01 4.470029941743899893e-01
-1.705306757347189450e-01 -7.037247917672079245e-01 -7.505366522792655815e-01
-3.527798589886841918e-01 1.421748089956203498e-01 3.400700990996731732e-01
2.439014844621197053e-01 -7.690357390813700178e-01 -7.289108674286906009e-01
5.624374692708862256e-01 -7.281396671921198660e-01 2.425585111618563383e-01
-9.482496961864687046e-01 1.315098809218358256e-01 -3.250383296070657457e-01
2.933378372027816705e-01 -8.664125105020065165e-02 1.109211156042125279e-01
2.165977642415288507e-01 3.076174951580277692e-02 2.386906557759420622e-01
-4.924136709543652790e-02 2.602609702328836580e-02 6.755487536824431594e-01
9.892343721193155304e-01 -3.048660701222300484e-01 1.000489561695766944e-01
-6.685910893244751962e-01 5.877507992210921905e-01 5.288448971580225200e-01
-1.426292848817780901e-01 2.171972253354156335e-01 -5.634870367770528077e-01
1.301134933775868752e-01 -4.846370771247598963e-01 -9.341806050530717664e-01
7.178581767993212903e-01 -3.086788423065255360e-01 7.099954468141285169e-01
-1.714519752893193250e-01 3.554730723149613358e-01 -6.792684487378249092e-02
-5.561692385318180165e-02 -2.297041684349412360e-01 -2.327812726248403574e-01
-4.335649837485706093e-01 1.854162592167093726e-01 4.869742463321647397e-01
-1.288611849559175293e-01 3.729920571095277637e-01 1.647863640326557508e-02
3.064318499494572690e-01 -5.431735269892515872e-01 2.829837488271074730e-01
-1.745223354098993374e-01 1.780716194818942610e-01 2.454579599528818046e-01
5.867817155278677310e-01 -8.419573831592499502e-01 -3.346295542140863000e-01
-2.614604486995659727e-01 -5.957456874038429273e-01 -3.603067245108205752e-01
-8.641017584600242385e-01 -1.695023758362543612e-02 -2.468866498569742551e-01
2.975423589616449926e-01 7.006023462718592443e-01 4.909433703084175593e-01
-1.589189922909490238e-01 9.022336667139226052e-02 6.348800606546488590e-01
-2.926556301660079296e-01 1.540556369378076051e-01 3.002377404044035206e-02
9.295591374899862813e-02 1.259951867327002428e-01 2.836028701397824703e-01
-1.324916430900795195e-01 1.955266798426978647e-01 2.328273936120636989e-01
1.056906353160197432e-01 -8.124451024456992299e-01 -2.767644761172016743e-01
-4.641673269905927102e-02 -4.908573406286738661e-01 -1.748071632235836392e-01
-7.436188128703943301e-01 1.075153578181052144e-01 -7.847455210778201407e-01
-8.459312066260091800e-01 6.767196568630770015e-01 9.985017801653280067e-02
2.262375310903557424e-01 1.654906282355461111e-01 2.233562485174084844e-01
-1.626929480159101660e-01 -6.541272649200976508e-01 -3.330338808072849099e-01
-2.538886889045387230e-02 1.524460715652679321e-01 2.972189760819906601e-01
-5.551463765791094795e-01 -7.844799999662468992e-02 -9.247367579177102614e-01
-2.448473948955313118e-01 9.100995146981863959e-01 3.435577579846543217e-01
-9.439144588897259158e-01 3.724077227269104728e-01 -3.783193886045613241e-01
-2.169862918900284932e-01 2.259884901238349841e-01 -1.435267170468509379e-01
-1.754014058164094780e-01 9.380050994833592781e-02 5.161464786055606213e-01
-3.957988696470892687e-01 1.388217302877400028e-01 2.921186146006016782e-01
1.470125978866786975e-01 7.740871279159701190e-01 4.244834784454373788e-01
-4.029846582134199440e-01 7.930456430492396347e-01 6.376866670023885186e-01
8.858068974205367541e-01 -6.258414163938524899e-01 1.350431056146113584e-01
-7.368889538198689637e-01 4.458436676250963626e-01 4.375011674129645756e-01
-1.549880474543651188e-01 4.325892356681717010e-01 9.137109862622970757e-01
8.345759142219371096e-01 -1.290161821085560045e-01 -9.595976679061471448e-02
-3.213477776229580751e-01 6.728524765926686690e-01 -2.300384870275237470e-01
-8.426638510516066827e-01 -1.193973100053440095e-01 -4.350579442911777228e-01
-2.916956732615670345e-01 3.858789063389406887e-02 -1.416579619739846141e-01
-1.119426773360617522e-01 2.932886981241479285e-01 1.169078302720263224e-01
-1.455598893171184405e-01 8.111309965987296977e-02 5.132948380778923347e-01
-6.985403727659387219e-01 -2.383604579976460192e-01 -3.305293933184540456e-01
-6.140611569093403638e-02 2.934914129240933506e-02 -8.319624325907900575e-01
1.083289020711819279e-03 -1.677776079445872370e-01 -9.415623219709823299e-01
1.792010333084126106e-01 -2.931051479439128471e-01 -3.304627361505948352e-02
-5.752994506544280018e-01 -3.193350752327092090e-01 -3.201870143125909451e-01
-9.073508245096585378e-01 2.982569454012691801e-01 6.646304225376273300e-02
3.568112178601073187e-02 -1.349169273240674594e-01 -2.960478403213789855e-01
-4.103946590748482892e-01 1.509290044920710006e-01 3.724635070997640018e-01
3.485904360815781922e-01 -1.055667719005329575e-01 -5.659832894627234851e-02
1.915372095408850173e-01 -1.679896553875551493e-02 2.702720661491356258e-01
-3.214282242170166115e-01 -7.229439203849585827e-02 -1.696895184714842797e-01
2.295875671305806255e-03 7.290087563239144863e-01 1.978135178619791212e-01
1.534843070244439056e-02 -4.637755307709433561e-01 -1.319112687152635410e-01
-2.038798215497928112e-01 1.849119408611280546e-01 2.078781050171284728e-01
-2.501527894022234078e-01 4.428718120117630663e-02 -9.205237100725867094e-01
-8.060721345878944788e-02 3.593191960814834940e-01 9.062663421432606836e-02
1.045084279415656354e-03 -2.606600494212656938e-01 -2.086089261839008946e-01
1.229663608844390986e-02 6.324277847764202543e-01 8.945406506081932108e-01
-2.655811019653150362e-01 5.358784134962222279e-01 -3.020356088309204545e-01
-9.894608323029932540e-02 -1.154542363159007795e-01 -2.743132766418179824e-01
7.448010501696822327e-01 -5.743344959386479376e-01 -4.691012016636304516e-01
4.593510637733516644e-01 1.373921622158854050e-01 9.590120658303573631e-01
1.553936634431451469e-01 -1.313372988464967250e-01 7.095542870906281774e-01
2.719125736741590527e-01 -1.051039014052575771e-01 -6.105122945747073482e-01
2.739807042101622958e-01 -1.457967969186937385e-01 8.476380202678621134e-02
3.749859150564462951e-01 -1.101664898986430413e-01 -1.928532293807164455e-01
-6.705236423714396043e-02 1.283517017313358655e-01 3.350683667498684515e-01
-1.552732567828574162e-01 4.110690622230461222e-01 -6.265198822461262584e-02
2.686261257842104122e-01 -1.055418327902112041e-01 1.445239960695154369e-01
-4.293165465848443607e-01 -5.755259753792441035e-01 -6.749585055001861011e-01
-3.477201880021806857e-01 -1.351960992402407580e-01 -1.822980680258007580e-01
-7.589214363733559621e-02 -7.264063109630729542e-01 -3.345280031102386142e-01
6.004043039015649619e-01 -6.859602389393076871e-01 -5.803759641691543791e-01
3.146948997389693026e-01 -4.015378971262971719e-01 5.006921757657012417e-01
-1.880865733332265088e-01 1.120543614819170114e-01 4.309053942620040822e-01
7.322489050330299731e-02 -7.106797278669034768e-01 -1.661390469570001860e-01
2.433566489697429613e-01 -4.375137477935543417e-01 2.395577079531834852e-01
-6.344788523494712118e-01 -7.008192276769763251e-02 -9.410371922533460054e-02
6.257929567308787577e-01 2.850802448567166247e-01 2.633478346969919670e-01
6.424966569385495152e-01 4.330892982631786570e-01 5.107272695021183306e-01
-9.127697302808728264e-01 2.642540716185048377e-01 -5.224555184277749342e-01
-2.042427708233836292e-01 5.441461504955793504e-01 -1.632806579144289172e-01
-1.051690199275521626e-01 1.676845168586586776e-01 -6.159101407087147484e-01
-3.189742655912826685e-01 4.293793268328725821e-02 -1.082228161477428868e-01
3.198674770183574934e-01 -1.058344548710879879e-01 2.493471282418080817e-02
4.308053462784422472e-01 -1.821265679145488425e-01 -5.890860211828885529e-01
-6.619245209519650786e-01 1.504107334090183934e-01 2.187226814095845351e-01
-2.446991093120595984e-01 -2.943731532591126188e-01 -9.996883399872550369e-01
1.528800577041288522e-01 5.221485562138002967e-01 9.487123258013505644e-01
-2.674945516261496570e-01 9.055535657381783565e-01 2.696935051062195332e-01
9.647343402494638065e-01 -3.468132650748351753e-01 -2.855195970096888192e-02
2.250543911881511538e-01 -2.763173238530460263e-01 5.093064641560103301e-01
-2.984781124912134209e-01 -3.067152027196276554e-01 -2.367759251063369652e-01
5.750722963260748166e-01 -1.753389787968823443e-01 8.375653025105279648e-01
-6.214544682937777065e-01 6.362518235346962259e-01 -4.414266723662532144e-01
-9.538083273868770418e-01 1.757626407601428631e-01 -2.342811540247607405e-01
-5.678282815710095077e-01 3.710661772090096955e-01 -7.317508965161390044e-01
-6.112098963546759300e-01 1.866765775695274909e-01 -8.373491792671364786e-01
6.728277477990704525e-02 -4.950749232198867200e-02 -4.098287045683428054e-01
8.287831287292144467e-01 -6.051516745157992094e-01 3.158117156712269002e-01
2.603765981397074825e-01 7.061630413223261848e-02 9.506355791571953207e-01
2.088072978781540801e-01 6.997560856007172259e-01 3.653139813910399880e-01
-1.345733675775410143e-01 2.111313363115618902e-01 2.071060816721298492e-01
-6.898438093694216899e-01 6.080856865794991017e-02 5.833231670029451893e-02
-2.136731102511158498e-01 -3.506799161757861993e-02 -2.302244468083320394e-01
-2.162216725388957372e-01 5.821816496758570603e-01 8.678474563563481903e-01
-1.198216861552544726e-01 8.231661959894722713e-01 1.903037332543536797e-01
4.409440319053058444e-01 -7.373784682349281416e-01 -6.703046036950494058e-01
-1.517420883510575136e-01 -2.181652617101062785e-01 -2.344053720146551112e-01
3.036955722019862858e-01 -7.542777843240205948e-01 2.926537823955215056e-02
2.379145131760035392e-01 -3.788554625314014546e-01 2.739410712899963407e-01
3.498666296823114696e-01 -5.235844079338992929e-02 5.441035625233146822e-02
2.669456145951285553e-01 -1.527092759087774199e-01 -1.848838215730549406e-01
-2.033271472924718659e-01 -1.046194113949438370e-01 -9.774854462243872666e-01
-4.392639536459326810e-01 1.034788424332505757e-01 1.441567507450345065e-01
-3.060444650675294143e-01 4.457828615597084210e-01 -5.130907170142868789e-01
2.743451350361527652e-01 -8.722138871816388639e-02 1.457568720072109358e-01
-9.718451155350364690e-02 8.815626494220361042e-01 3.986791052938803426e-01
3.218625128877830588e-01 6.328778356568997010e-01 8.008820859213771071e-01
-2.283630312741667667e-01 -2.493243474335262166e-01 -2.272916820706268048e-01
-1.561396872812895742e-01 -6.274645362839217366e-01 -8.637620622179318364e-01
-8.339592205620360854e-01 5.167054204432428577e-01 2.921102343695433645e-01
7.990318929160010741e-01 -6.224581860698559233e-01 3.234892218280024934e-01
-7.188471884961945835e-02 5.126375737281760880e-01 4.284857099946575570e-02
-5.929311670371220089e-01 2.149479664920896649e-01 3.907200553970286983e-01
5.706583851769796434e-01 1.135735065151691064e-01 9.339234127904300076e-02
-7.519710143869026142e-01 3.871017712697474300e-01 -6.479902874170040405e-01
4.131458906459702929e-01 -8.797518871557007403e-01 -2.040078448142280954e-01
-5.571899228166350415e-01 7.725369092080125455e-01 5.313127125692189701e-01
-9.264923080754590146e-01 2.143468844204500512e-01 -6.213566836714584651e-02
-4.788669251523275938e-01 -6.932889411386090883e-02 -9.853757527367433544e-02
1.610549624533922641e-01 -2.444679585477812223e-01 -1.279065094981602646e-01
7.844288813621565215e-02 -3.284035014132132696e-02 -4.500179220562397497e-01
7.838675677726921753e-01 -6.775897271706872171e-01 2.347396379156173885e-01
-1.865817107086764626e-01 -6.975628934086287591e-01 -7.491235097288319045e-01
-4.059942256579240905e-01 -5.593225860686915629e-01 -4.619613080609824562e-01
7.914336556389237054e-02 -2.679225263714141714e-01 -9.447698728311796357e-01
2.406845994364665564e-01 -8.299813690412533029e-01 -1.660443736608353260e-01
5.347558770908579229e-01 -1.142963878153299279e-01 8.751459606406712943e-01
6.919985520487410557e-01 3.722371623538369145e-01 4.682901235118440142e-01
-8.817548639109938913e-01 1.160386037003888482e-01 -6.081702265450430467e-01
-8.319906039785943813e-03 2.951377658769241963e-01 1.831064283018169481e-01
-4.338694392991140902e-02 -6.266872812620430944e-01 -2.129414304636678135e-01
2.676372473185981149e-01 -9.338899456981396285e-02 -5.076247540908078726e-01
-2.268884179872331652e-01 2.131028548773122311e-01 6.871038901886569739e-02
3.688341270532120575e-01 -8.770211963675632605e-01 -2.071113219226398405e-01
9.805147116614091329e-01 -3.578207480313005950e-01 3.111564819878836485e-01
-1.389194810256708379e-01 1.063221172464120651e-01 4.078530490998030777e-01
-9.253172964450196991e-01 2.561291802928591377e-01 -4.963792518176792790e-01
3.043674173482841527e-01 -5.388798722487181392e-01 2.841799889344637786e-01
1.304303711892114692e-01 -8.415118200389881675e-01 -5.935905639635888909e-01
6.436844578562102015e-01 -2.644434219966951827e-01 7.685789836982670487e-01
-1.125468730529868427e-01 3.164225314517752352e-01 9.147817333162768794e-01
9.671057126756873457e-01 -3.181088270498758086e-01 3.968119418223897132e-01
6.643245110150884924e-01 1.801858894453379489e-01 8.551522240776212591e-01
1.490297189626876573e-01 -1.422255063452703971e-01 -2.883315157821587649e-01
1.774109279102838999e-01 -6.541099347966037314e-01 -7.844805610072114188e-03
-2.902218008170113217e-01 -6.072001493796937988e-01 -3.993473779419589587e-01
-1.474214559186813045e-01 8.361725811828440991e-02 6.366081896696709208e-01
-8.675899637026481814e-01 6.199047213013074709e-01 -2.193864774467374767e-01
8.707456807368814389e-02 6.846498301086878513e-01 2.386180683732358476e-01
-1.270236454127582904e-01 -5.750162962125349164e-01 -2.490525079499259775e-01
9.616510052185064383e-01 -6.875529377635469785e-02 3.959592043037903353e-01
-5.986214185543067279e-01 3.379636480158694223e-01 -7.522770851200208941e-01
-5.790641259104980509e-01 -2.589646496971995115e-01 -8.781993542900732308e-01
-8.488210096321736620e-01 4.279420835454653127e-01 -5.216332550695029768e-01
-3.597576724775527479e-01 8.187085302555058286e-01 -4.904113312742892222e-02
1.217762981723768956e-01 -2.744843747655226207e-02 -6.635543097597409457e-01
2.681088105103143215e-01 4.306916588060351048e-01 2.393002570588084466e-01
-8.575454315378799874e-01 1.300040778928115148e-01 -1.635574733389516186e-02
5.556644469477255432e-01 -3.999298944652190935e-01 6.728441720747184718e-01
-2.733076347595169708e-01 1.245431700072174158e-01 -9.840839940337434144e-02
3.291381710870500826e-02 3.938050651263053092e-01 9.712236553544790763e-01
3.861521778716192066e-01 6.442657767092045962e-01 6.949053699284724051e-01
-7.116237003535794692e-01 7.212319340641972776e-01 -2.604010095282155990e-01
-3.613603857151559962e-01 -9.400713181080000425e-02 -1.596116423215028501e-01
5.458713396776416760e-01 -1.440322008460511727e-01 -3.699457650216507187e-01
2.141822695103156593e-01 -2.810345830429000769e-01 6.204501571630620382e-02
-1.416308459964455146e-01 1.700781415468692048e-01 2.730475926311957124e-01
-2.495908731752233822e-01 9.115253953574049550e-01 3.825431051732594012e-01
-5.386064234558014530e-01 -5.390648511447349717e-02 -7.084758859898264427e-02
-9.085622329192539759e-01 1.022329783446759566e-01 -1.625864998432151320e-01
7.823628976417155156e-01 -4.790047011914946168e-02 -4.171142309527067771e-02
8.121587161723849979e-01 -2.618424561182541299e-01 6.727332498003415484e-01
-2.677127520689394358e-02 2.700741377449876190e-01 9.385350872172888437e-01
-3.168066493217901458e-01 5.367211320414926323e-01 8.302518109578586047e-01
1.180319892999804887e-01 -1.403966647655549294e-01 -2.941043606826736490e-01
-3.397764816282121680e-01 1.434488363612613504e-01 4.034346464038351954e-01
6.514161548535800650e-01 1.988019405342590917e-01 8.608094343880253740e-01
-2.286194767720960974e-01 -4.869436687210639825e-01 -2.699614660209193051e-01
-1.833928804622441955e-01 -7.380664653753906679e-01 -6.004671861668917643e-01
-3.534831596807184728e-01 1.407862580617098847e-01 2.963746584289101982e-01
6.002058124474166645e-01 1.884658944671712202e-02 -1.821922292501793744e-02
2.998661038813579816e-01 -4.432416177253060696e-01 4.004619041774484800e-01
-1.773937945462068233e-01 1.461318187719994333e-01 -2.877953677035587354e-01
7.808430979351687062e-01 -7.396650400755372390e-01 -1.962826148488779898e-01
8.654211714053329230e-01 -4.683244333228948064e-01 -2.921543461336507663e-01
-5.889921199752896630e-01 6.530294748432964314e-01 -4.206679199158450122e-01
-6.924017167686628005e-01 -2.619904005106624689e-01 -7.465819673362041886e-01
2.524525693191528516e-02 -1.046861206479044737e-01 -8.931279451195487384e-01
-1.104564318231107817e-01 -4.964418075557528454e-01 -2.134613246710286016e-01
-7.894076287352920218e-01 -2.075391319350329555e-01 -5.207170824571265566e-01
-6.448241663520224431e-01 5.475051831065165242e-01 5.627852968227622377e-01
-2.962104307030261618e-01 1.408033068137040655e-01 3.389076580108396630e-01
-6.116254587945831878e-01 -2.409090058639655196e-01 -2.620808198074799922e-01
2.085302017712419298e-01 -2.464785062831574280e-01 -3.931358494567189360e-02
-6.915216677351181396e-01 -3.136930759491077803e-01 -4.592626850251351200e-01
5.952779463433829354e-01 -8.414658686053468895e-01 -6.954017137183300667e-02
-2.983435853935622051e-01 7.566374150268303511e-01 -9.473131413736730899e-02
-8.000558867267600904e-01 3.176771076006408845e-01 2.750551257895303414e-01
4.796763826005543546e-02 1.814062970899099347e-01 9.354733764776872462e-01
-6.675412086018728264e-01 5.058270931033542750e-01 5.365401162788128175e-01
-3.704905354678799112e-01 3.454664080704786255e-01 -7.146483244528446521e-01
-9.642088578964869150e-01 2.294571116256805265e-01 -2.190066681045805541e-01
-2.649012987642074823e-01 1.806411778423915593e-01 6.210324849174512357e-02
-2.006852199969853812e-01 2.870758460786088651e-01 -1.234059909075495010e-01
-2.818780953937354838e-01 1.361797902333765908e-01 -6.083420082913383597e-02
9.394624918391977220e-01 -3.765243142375902796e-02 4.908397869996664609e-01
5.110433110271718204e-01 -5.329647146772689692e-02 9.044660213565496321e-01
-1.797966337596768605e-01 3.481415540835373634e-01 -9.196936281449726025e-02
-4.844227919027276341e-01 -3.015913892724824200e-02 -9.453591718715652625e-01
3.033453496876614142e-01 -8.558350396873072308e-01 -5.555865160540977010e-01
6.762150207241957034e-01 2.346162168238625501e-01 8.260586939993215250e-01
-3.625311551332493498e-01 1.047967765163411724e-01 4.577926635009769984e-02
2.630143935404127831e-01 1.111005692517297166e-01 2.074278832477070289e-01
-7.214928993324085660e-01 5.795808960021638923e-01 4.627718978150158202e-01
9.363639162315769149e-02 -7.653480122835377986e-02 4.640914265278563988e-01
-1.568170777215029121e-01 -7.111041133700236605e-01 -4.047604984827451458e-01
4.577618988094813157e-01 -8.529448646353154917e-01 -7.300230081519036573e-02
-2.969163163602652755e-01 1.091086379352259328e-01 -7.083208593450585067e-02
1.794399620450730926e-01 -9.940421476570925063e-02 3.158625517257946935e-01
9.853232300985966807e-01 -2.778680352913501794e-01 9.250051914357178273e-02
4.442475128344537949e-01 3.736952207866688913e-01 2.634632905801407299e-01
2.215072399846188533e-01 -1.678861393913851363e-01 7.415444414945264739e-01
-6.892234883771710674e-01 -3.321155814908197806e-02 -6.939384317828156679e-02
3.338678711001725197e-01 -5.982541669486850511e-01 2.619425670978637322e-01
8.513309746112196486e-01 1.624015644334863562e-01 5.646247518735508786e-01
9.350583438409229009e-01 1.274198706078404769e-02 3.991301078856819284e-01
-4.380666385482467895e-01 -1.209672962398560675e-01 -1.486998144750713569e-01
2.246001630442210628e-01 -4.812135270731686121e-01 -9.013937030718053300e-01
2.525136133904175573e-01 -8.815460709304967502e-02 -5.072936984858401610e-01
-1.340877322760896107e-01 1.690535767023212677e-01 2.764280931760917381e-01
-3.943351251498790344e-02 4.817788515121325665e-01 8.061599232073105026e-02
-8.177565695781450206e-01 4.131079328000816786e-01 -5.706131196245286530e-01
-1.969752355154235912e-01 1.048933031834375501e-01 -2.471295750838158889e-01
2.651183204764079315e-01 -4.049534004959650657e-01 3.591224644506075259e-01
1.310044548940010878e-01 -2.318760789798515742e-01 -1.721352158213531325e-01
4.886375410636905059e-01 -3.488941867220015092e-01 -7.092477088528856832e-01
2.504137846577566551e-01 -4.196726666702607078e-01 2.819188292214241942e-01
5.450653804369246513e-01 2.785247605721341002e-01 2.267051009776757109e-01
-7.029988037514216526e-01 -4.033657640958189516e-02 -8.289666285450844052e-01
5.562936293912398300e-01 -3.014536536000191891e-01 -6.123856116688745077e-01
7.369894704668144003e-01 -7.399278297933121751e-01 -3.216647679828137929e-01
-1.942446705420984854e-01 9.323810524976802738e-02 -2.511608903607701060e-01
-8.733422893308502299e-01 -3.748424829933366675e-02 -3.186369823895915387e-01
-2.317394245385053508e-01 1.758581434557331402e-01 7.287963829563346430e-01
2.022096102643392568e-01 -8.172494030296885426e-02 2.700096221549506681e-01
4.491008839961883603e-01 -5.380130084583214373e-02 -7.710809652956018834e-02
-3.886827401014589234e-02 -6.590519870324047791e-02 -9.029015688549262286e-01
6.849953218688531464e-01 -5.948145591551091682e-01 -5.389027403842640007e-01
-3.298060904379526148e-01 2.409619316272861578e-01 -7.996864203761873124e-01
-3.377631485271975764e-01 -6.286286011569799381e-01 -7.176040052617165266e-01
-9.163927254423871460e-01 5.727684356850197833e-01 -1.141607415852133461e-01
-7.796726997801221026e-01 -1.588733063181835825e-01 -6.822285109023716876e-01
-1.025717661451036877e-01 8.829572916372241398e-01 3.964081400760187113e-01
-2.287036219054796038e-01 5.003552108331847936e-01 -2.505337364365767816e-01
-1.778292501233106337e-01 8.890413527487546208e-01 2.960205491960900548e-01
2.653417603912418612e-02 -8.146340387272410499e-01 -6.217799960725136632e-01
-3.692869001398356166e-01 1.340881096331220101e-01 2.129068800545157736e-01
-6.523422931393320356e-02 8.759820475833890452e-01 4.587745936371966371e-01
