3.068550912287460464e-01 7.558276474912478671e-01 -5.363431565753573604e-01
4.032528468449383396e-01 6.408387242292779007e-01 5.743595477785418124e-01
-3.019983640530456426e-01 -4.259031247022952993e-01 -8.292350254774925045e-01
-2.312693534596118039e-01 -1.643495774112639918e-01 -9.542927318322047547e-01
-8.820726516370246129e-02 -4.669990068929898430e-01 8.869593661728868428e-01
4.185087803067427115e-01 6.912999480361988747e-01 5.023076821272091097e-01
-4.668704710554352766e-01 -8.703970146729296253e-01 -2.198716789092631241e-01
-3.587934102153804167e-03 -2.429383495784271374e-01 9.664904085539642864e-01
-3.754087211935527302e-01 -6.519305611350285634e-01 -6.646989916103700491e-01
-4.140768831401615002e-01 -6.614449998498002081e-01 -6.073310213797507018e-01
-1.694398875277744118e-02 1.922055844751859865e-01 -9.516370080430424094e-01
3.504485100289807531e-01 5.436699841966129432e-01 6.825925732480431218e-01
-4.281354983477302922e-01 -8.249879447123174003e-01 -4.156181040389679837e-01
3.994859295050393055e-01 8.471544939942060592e-01 2.922875979504525185e-02
3.989992668715638402e-01 8.478462535242884401e-01 1.039057697320611706e-01
2.586076003138762514e-01 2.450929480959404827e-01 8.915342463520223859e-01
-4.535802474219889913e-01 -8.812513418751646288e-01 -2.728681328914843163e-01
-2.020717703948236854e-01 -6.716558800726680767e-01 6.966348630935785824e-01
-4.437630983219623126e-01 -7.509195588196968529e-01 -4.808959831877402391e-01
-2.272218658410195269e-01 -1.595007306870049046e-01 -9.466401243957541789e-01
1.209962200533738069e-01 -6.227797056338705423e-02 9.822978140095430799e-01
-4.670420198700177550e-01 -8.757017110674135685e-01 -2.077970068527560665e-01
-4.625855725901052429e-01 -9.020272766985852897e-01 -1.060781325741576575e-01
1.857541355587144505e-01 5.734451722379625416e-01 -7.373591792983464899e-01
2.691146885386054288e-01 3.557480214568599641e-01 8.747307035689507737e-01
-2.629848594113634030e-01 -7.669346823164596705e-01 5.754233052301519491e-01
-1.594225803296347999e-01 -5.247260240547118038e-01 8.345450451932068248e-01
2.382721123191323676e-01 7.235111132347086249e-01 -6.007233069513557844e-01
4.026326307093030521e-01 7.887344235686050142e-01 3.170590677945751557e-01
4.033452480287810782e-01 8.045211927628074244e-01 2.761966679661448931e-01
8.027485847656998241e-02 -1.182611495593763329e-01 9.477456035931278722e-01
-1.227775004328835184e-01 4.198223566363308741e-03 -9.586023746053579098e-01
-4.518306342174717716e-01 -9.013651827382324067e-01 4.795333703926190488e-03
-7.221118181148593329e-02 1.722780033907591601e-01 -9.616990208742236534e-01
-1.051647940225895387e-04 -3.108379776898574920e-01 9.468338233576947260e-01
2.104032651320678904e-01 6.512283259547291259e-01 -7.162549435704356204e-01
-4.125788461597925116e-01 -8.851960179987270472e-01 1.278900551531670648e-01
1.177962037847632842e-01 4.741475916628790643e-01 -8.174622923394800900e-01
4.106348344796930117e-01 8.874949257777990930e-01 -1.933418916619058115e-03
3.786171452624917388e-01 8.557655906072054730e-01 -1.001132424256455378e-01
-8.064036232985580602e-03 -2.689070497616167232e-01 9.658313106368043854e-01
4.432244986496457484e-01 8.506958659917560617e-01 1.386638591468457582e-01
-3.374598179247992880e-01 -8.664907841311459968e-01 3.707600969579811778e-01
2.259615937276431789e-03 -2.302126034087000617e-01 9.371349188483119041e-01
3.178860401670964286e-01 4.466336805379348962e-01 8.197490657378918577e-01
1.813700828565155965e-01 1.561063884981029881e-01 9.529096711643045836e-01
3.486238192339891073e-01 5.212888259741699226e-01 7.023967768788642596e-01
3.769054360849884988e-01 6.087287899002641334e-01 6.085449648681874324e-01
4.347184382756888454e-01 8.717433000684294830e-01 8.664374026280091678e-02
3.775823814600036132e-01 8.694029627472762423e-01 -8.917080157145690356e-02
1.192502776617307692e-01 4.851186578920420600e-01 -8.609822985126781569e-01
-3.844375298593187273e-01 -8.684227887985653815e-01 2.525195662805333474e-01
-4.452295260815154476e-01 -8.855235745188887453e-01 -4.407193067704283373e-02
-3.606724716654008400e-01 -6.085688926122382325e-01 -7.026777611604916318e-01
-3.749814931387159267e-01 -6.520938642952474051e-01 -6.564802202479599336e-01
7.939491942561190119e-02 3.789877105640032662e-01 -8.819391755057429672e-01
-3.974539889195973230e-01 -6.775090898494882108e-01 -5.901433138624997410e-01
-4.236398939240846317e-01 -8.874322775510158356e-01 -5.716647710197648308e-02
-9.347184486325710306e-02 3.643330985544924322e-02 -9.886655944785401884e-01
3.626837972653408904e-01 8.654603069560979911e-01 -1.798184893448506183e-01
4.097109953463680676e-01 7.099618004873148314e-01 4.589293935775378697e-01
-4.449800875054917837e-01 -7.384401160114699714e-01 -5.347715506468100344e-01
8.228710208874234766e-02 -1.466435143538165897e-01 9.772364232459858080e-01
-1.910785481306198352e-01 -5.749086624231470877e-01 7.769488909147244105e-01
1.988940091689977707e-01 1.795477796167882500e-01 9.123957059708038830e-01
-4.264650717011155279e-01 -8.495667549456272782e-01 -2.712965135215824053e-01
-1.934163826541597242e-01 -5.784391326904824160e-01 7.832516535426176096e-01
1.353281196132497533e-01 5.485061708568570449e-01 -7.759994549864689395e-01
1.658937102669661157e-01 5.526889365135320142e-01 -8.052790523252811861e-01
2.377568509482346770e-01 6.814439273434302891e-01 -6.761327890450152811e-01
4.448365490969371505e-01 8.147600433626436267e-01 2.825707411044371953e-01
3.511472317940170784e-01 4.707465093760080932e-01 7.694596303501186618e-01
-5.740326894598098834e-02 1.979863569077514318e-01 -9.742307415626707545e-01
-2.571024160633108568e-01 -7.441433353758366565e-01 6.441041870517064671e-01
-4.221511694731254205e-01 -9.283780319590863028e-01 1.189566886904228904e-01
-3.721649592594694633e-01 -5.340167800889847882e-01 -7.416019177829579201e-01
-3.321732250256325125e-01 -4.847821523384319709e-01 -8.324339481038063315e-01
-3.399839369303983561e-01 -4.677744054449511912e-01 -7.913696614113423511e-01
-4.541678797274460444e-01 -8.250287825364809313e-01 -3.157563938444255536e-01
4.020818651707133151e-01 8.884212598132801286e-01 -3.790176555265686864e-02
-4.260286892775244638e-01 -9.313513734191529725e-01 3.461374579541488111e-02
-3.958654978419298698e-01 -9.159322340155031661e-01 2.333048524020818748e-01
-3.883792076077904332e-01 -8.600334697768625691e-01 3.109744804960689057e-01
-3.193718702235164297e-01 -4.814098481414558206e-01 -8.282130318981074657e-01
2.307245125505775207e-01 6.483448874380612903e-01 -7.024752853680172882e-01
-4.244707478149186697e-01 -6.870593881674730286e-01 -6.262337797931213368e-01
-9.898834325879186935e-02 -4.724046299239116897e-01 8.416360093755634875e-01
-1.342284679861273887e-02 -2.469295910186432297e-01 9.472058384203412285e-01
3.339555081701200273e-02 3.783777919040753890e-01 -9.065909352167551560e-01
6.134156598900202678e-02 -1.191117130056023321e-01 9.498711224480090864e-01
4.084821264080694680e-01 8.320276907916123177e-01 1.324907720958359847e-01
3.306347055017189174e-01 4.317341689659131565e-01 8.174891257534623312e-01
3.504786909601401712e-01 5.907367214501205721e-01 6.516180840862036971e-01
1.925092865343762949e-01 6.333224261146630507e-01 -7.361726937124128956e-01
-2.608431442552280530e-02 -2.866014725269409591e-01 9.225033199874626000e-01
3.934617753936527906e-01 6.105861605758738930e-01 6.123061250393041499e-01
3.401360187002799851e-01 5.670350967018988886e-01 7.037887964897149295e-01
-3.905834206035263545e-01 -9.098376166554236200e-01 1.359639298821565534e-01
-3.319923657267883632e-01 -4.811310458365858356e-01 -7.843532287350124532e-01
3.419884331132372890e-01 7.902677194823239937e-01 -4.132598746421530245e-01
-2.157049379879154849e-01 -1.676047327642275486e-01 -9.761552415024661311e-01
1.893352850373064902e-02 -2.216287537228294191e-01 9.773201673541022094e-01
2.405266722709160643e-01 7.257222039016593129e-01 -6.062037722164785869e-01
1.344011958671582352e-01 4.776910949451251831e-01 -8.481580988916402886e-01
3.481981448383426603e-01 5.926942118200027032e-01 6.598042909884602736e-01
-4.270822733724516929e-01 -8.732570740695324574e-01 -2.685063617593498320e-01
3.591142613229646868e-02 -1.626476055084951078e-01 9.798266826389991913e-01
-2.828449368880555648e-01 -3.951713724954767915e-01 -8.592333506986826741e-01
1.707227822786545612e-01 5.980930519784276589e-01 -7.225940239382393493e-01
-4.483589988673009619e-01 -7.494749261784142691e-01 -5.051775356924852467e-01
-2.435371377722453379e-01 -6.622095763721281836e-01 6.891656140618723780e-01
3.304697798178334311e-01 5.417075633787746813e-01 7.232186010875905069e-01
3.680273223348667910e-01 8.384766250907224050e-01 -2.037463313814265597e-01
4.431672382572504065e-01 8.160001376149681462e-01 2.340177719831227354e-01
-1.005481315324691233e-01 -4.730160463458782938e-01 8.405285534390799507e-01
1.835003003250506026e-01 5.558049251352552567e-01 -7.716860002969861965e-01
4.291465867858562100e-01 7.238282724210808317e-01 4.552317547821538302e-01
3.866751364355072162e-01 6.316485675724078375e-01 5.789086910174355838e-01
1.843375087326249440e-01 1.564399924646710238e-01 9.555773344099190991e-01
-3.257814209210843637e-01 -5.023394936714224990e-01 -8.108881430142311775e-01
-3.313243417909146893e-01 -5.061703112093761669e-01 -7.741611997288589953e-01
3.416208033513631892e-01 7.993294937975767844e-01 -4.376797294923287507e-01
4.269731956890624458e-01 8.808271896212077623e-01 3.197289427146824542e-02
4.224559714842081593e-01 7.592052111897665823e-01 3.593339740314919206e-01
-2.974685844238562638e-01 -3.698023720610527088e-01 -9.013909795136177960e-01
-2.329424508977312805e-02 -3.096783293926714808e-01 9.561526692784043657e-01
-3.656339366743118768e-01 -8.347508156283064418e-01 3.980341090492205969e-01
-2.572641186074437480e-01 -7.606874467014927976e-01 6.074010368431341789e-01
-3.984110528662030415e-01 -8.736285125533325147e-01 3.018937364392563771e-01
1.558713653959395706e-01 5.355403224968857678e-02 9.382858912207551194e-01
-4.224558462837603168e-01 -9.035986548309676847e-01 -1.281748704290590624e-01
-3.858118956845592029e-01 -9.135967083205333017e-01 1.798671943512293592e-01
3.655971411891746903e-01 6.499543445844621070e-01 6.016044595108284154e-01
2.433555632316920792e-01 3.026577432084650021e-01 8.981637736256330440e-01
2.550385543388603016e-01 2.284939179597239023e-01 9.068040619180405271e-01
-4.156594378257122413e-01 -8.866025506149358693e-01 1.062327047050062034e-01
2.465190547874163696e-01 3.190921164651626118e-01 8.706662913129020742e-01
-2.203813394883158694e-01 -2.088159157114058140e-01 -9.665234498424970511e-01
-6.864142769769387975e-02 1.810518127314447723e-01 -9.705658570909396765e-01
3.996622187367409040e-01 8.466379687984720848e-01 6.826079066842999366e-02
-2.447452487229312690e-01 -2.387034059416751619e-01 -9.563104234583023056e-01
3.003173806065024820e-01 4.535771426855991773e-01 7.825882533524797235e-01
-4.571212265278409848e-01 -8.612668411550952197e-01 -3.245713135850697983e-01
-4.210530440817296105e-01 -6.534916276803025559e-01 -6.404678506326979548e-01
3.600437683583807558e-01 4.994264327682593207e-01 7.550544114722237410e-01
3.489752741623941557e-01 5.113141983914302191e-01 7.660861846071327363e-01
9.684442398673705210e-02 -4.653937887529108891e-02 9.887710008188843602e-01
-3.415553214342138544e-01 -4.381116210014863177e-01 -8.204036577467802571e-01
3.401516327236603354e-01 8.345179938609965653e-01 -2.862158717985103240e-01
-1.744818947241016382e-01 -6.315183979288135907e-02 -9.550240256594304533e-01
-4.129783504140420725e-01 -9.213235527381252732e-01 6.601947586506992649e-03
3.331892622977233528e-03 2.413362006897966927e-01 -9.647377180693560428e-01
2.751074066453687017e-01 3.908520974438925433e-01 8.426797176359960284e-01
-3.120021930460361581e-01 -7.725863103406195309e-01 5.210338236996459038e-01
-4.220363064370177275e-01 -7.796558969453478705e-01 -4.283047183860051454e-01
3.213550937630964000e-01 7.964931404204503851e-01 -4.801079303473426707e-01
1.203510908259160239e-01 4.527727994093914132e-01 -8.391114909165653390e-01
1.295880364847397936e-01 5.459780435644407959e-01 -7.863644318014493262e-01
4.006728669679858745e-01 8.021806488589473538e-01 3.205420342343664464e-01
-3.260701544426579668e-01 -3.960756670710803840e-01 -8.484606049810471395e-01
-3.058956895904783035e-01 -4.514912977076555034e-01 -8.452762610009881827e-01
-4.546930898620005906e-02 2.250029310134229188e-01 -9.501890577390539327e-01
-2.334003885467752504e-01 -2.041490378005669515e-01 -9.235367467127348906e-01
1.022473067657229118e-01 4.275313500407525447e-01 -8.510683326963400797e-01
3.735594191947034792e-01 5.951938778738896652e-01 6.245522143076086552e-01
-6.404749584521637895e-02 -3.454204885663825220e-01 9.216271875101599287e-01
-4.656969989324709069e-01 -8.509112902217050856e-01 -2.748484486837924345e-01
4.160603373158220514e-02 -1.363977278422757733e-01 9.644938134039841016e-01
-2.388423364414848753e-03 -2.356998129506382433e-01 9.654815202980832067e-01
-4.545542622236424801e-01 -9.017263749711669218e-01 -1.932852940754151982e-01
3.936447745952261767e-01 8.491848880593033666e-01 -4.125479568396137747e-02
-4.061407121834684220e-01 -7.180200218162489101e-01 -5.362964980186174513e-01
3.337661354024863414e-01 4.359463727801381472e-01 7.808587133962101579e-01
-1.342839060074419999e-01 -4.877606042938235631e-01 8.306673469632233076e-01
-3.574559233979337503e-01 -5.677527246951930007e-01 -7.164724768533408117e-01
-1.209955780970893291e-01 3.194160137851032033e-02 -9.580045217587478401e-01
1.785416810775798391e-01 5.473064282550499371e-02 9.643726474453498954e-01
3.740871041528505136e-01 5.414396504302971813e-01 7.192641032836187831e-01
-4.143846972197360867e-01 -7.516094500299791425e-01 -4.825468847578132103e-01
-3.243363433320933242e-01 -4.164718887589126672e-01 -8.270658819635439141e-01
-2.189749550124862332e-01 -2.380367562731352526e-01 -9.261429661833293636e-01
1.723580135468252283e-01 5.374446470072956616e-01 -7.912982465868509951e-01
3.130683481892569953e-01 4.691472566673052791e-01 7.582892571573099927e-01
1.233609024984086699e-01 5.113038757060074380e-01 -7.957933196225758232e-01
-4.323164494565942539e-01 -7.687336420507533408e-01 -5.250409220591256698e-01
-3.114507764668928980e-01 -7.673350152058642237e-01 5.351642454879667055e-01
3.717948781880127118e-01 8.583906340674387625e-01 -1.307542595596768442e-01
1.974108563905319358e-01 1.786053188618657583e-01 9.513737195366055444e-01
-4.076872923236001256e-01 -7.379008344973986278e-01 -5.114935309082618842e-01
-3.262994101814608583e-01 -3.920569361404187547e-01 -8.560413368840610326e-01
-1.507622515549243980e-01 -5.887360474059651905e-01 7.975165176165832648e-01
-3.688507021565969324e-01 -5.734300527668436676e-01 -7.616680691115351731e-01
-2.195996949610701677e-03 2.935629054589316556e-01 -9.188328220762775889e-01
-3.818354630523824733e-01 -6.010814707896560138e-01 -6.749760703055609490e-01
2.476650773839394193e-01 6.638096745284057798e-01 -6.387624739373056748e-01
4.108847661479966829e-01 6.682426295507772895e-01 5.827059665498872665e-01
3.561161312183497296e-01 8.286649957322123061e-01 -2.600896893030915091e-01
1.924634622287229591e-01 1.805921377432930797e-01 9.185984714252825034e-01
3.107711369306876970e-01 7.674287156098276164e-01 -5.237016604219220106e-01
9.318463271865170053e-03 2.393443020650740938e-01 -9.491077750366614385e-01
-6.333419928724666470e-02 -3.936665813023744742e-01 9.259233703522841141e-01
3.175139717768032388e-01 3.931311468018147126e-01 8.110110721715912963e-01
4.111317447898244493e-01 7.324878317558508600e-01 4.169279074511001992e-01
3.333314866540729171e-01 8.451155490628090572e-01 -3.239269958237613878e-01
-1.940110458517132763e-01 -1.283322207506350232e-01 -9.418912088747553035e-01
-7.023596044850981268e-02 9.742782249571059483e-02 -9.595021477308296465e-01
4.071076340991826026e-01 8.566862736999083516e-01 -1.721874263105129532e-01
2.116630128612287387e-01 6.789404569471919615e-01 -6.467818064165288261e-01
2.765124968126345673e-01 7.706619678579660349e-01 -5.403465900997693749e-01
4.006368875621906245e-01 8.020264515210635548e-01 3.202137306440293596e-01
3.744297360791948304e-01 8.575997053405421955e-01 -2.958103125115794652e-01
1.668528948938940437e-01 6.916863109382472008e-02 9.789815974163831314e-01
-4.220567692004784099e-01 -9.301671853214331653e-01 2.476806547178159873e-02
-4.369752808798483823e-01 -8.961506213596339698e-01 -2.185959409035086176e-01
2.939397012794623953e-01 7.399079957580572131e-01 -5.684597652763744291e-01
-4.661260423727208724e-01 -8.610146474086912693e-01 -2.428824453577159703e-01
4.342610669938939960e-01 8.475742450838210651e-01 5.996949190521161377e-02
-2.857022346909898203e-01 -3.985011828327295058e-01 -8.783397453564494306e-01
-4.306528642682790342e-01 -8.075928816926880582e-01 -4.565994977782611985e-01
-2.228247617500482558e-01 -6.552993002678711987e-01 6.850257410576607864e-01
1.310644133995658989e-01 4.914985707608128807e-01 -8.051656470561697754e-01
-2.891080465727735582e-01 -7.334872259837604824e-01 5.934740882788968053e-01
-4.388928788232053235e-01 -9.168260654450116620e-01 -1.262344737283918328e-01
2.709652092726517192e-01 7.023105996644962712e-01 -6.219788672182087197e-01
-3.436449277108050149e-01 -5.127651642715405078e-01 -7.597848731671842382e-01
-3.806836486864841329e-01 -5.502911196560785756e-01 -7.671001862922653958e-01
2.225560705899291836e-01 6.210876259482804862e-01 -7.130201925228034643e-01
-4.279540373926693508e-01 -8.712594492157461623e-01 -2.800202530367262299e-01
2.617570795192080690e-01 7.103309972940574646e-01 -5.638243806289805482e-01
-4.298720190660996754e-01 -8.975121039130569134e-01 1.540007220583136938e-01
-1.568323422754699936e-01 -2.236329161769723406e-02 -9.596758666556051143e-01
4.223540873897779768e-01 8.513295755690010180e-01 2.250259279464011941e-01
-2.549613380615111113e-01 -7.547274291220222864e-01 5.930726798636697383e-01
-4.533600302571670626e-02 2.122987713683142375e-01 -9.763453526344259004e-01
-2.152689628824905610e-01 -1.502555304457716123e-01 -9.762439312779758183e-01
4.055226498741896224e-01 8.151611308003268164e-01 2.301942505935372640e-01
1.766384109697453353e-01 6.234668262614360135e-01 -7.395401316482311804e-01
-9.035279120824259158e-02 -4.785325758006763186e-01 8.765155741778020149e-01
-9.609742584722072434e-02 -4.151841072117580245e-01 9.034000051529764708e-01
1.542190207024272397e-01 5.910936211499758786e-01 -7.548877469489098102e-01
-4.419405093757978742e-01 -7.247215130054173171e-01 -5.450363583916073562e-01
4.098785288729266396e-01 8.502118380411153309e-01 -1.218029187337739683e-01
-4.323918022810453454e-01 -8.218454462851700892e-01 -3.267957105966929343e-01
4.218206714025500847e-01 8.425927181347226957e-01 2.557685170900799165e-01
4.327460741225214180e-01 8.359014317518156378e-01 1.087665127434118695e-01
2.657274131618261870e-01 7.089646876007171805e-01 -6.289980600804299105e-01
-4.548452714922900375e-01 -7.782948954964675758e-01 -4.498669620006959247e-01
-1.728839489169726740e-01 -5.939966420465503383e-01 8.035447329449839637e-01
-1.717910611999292347e-01 -3.912259765834003727e-02 -9.863711396978884771e-01
4.202950605272652851e-01 8.099639303406744872e-01 2.124675724742785543e-01
3.748940991649467036e-01 5.572405752958539127e-01 7.137301321677625987e-01
2.821879863527527732e-01 4.065736759492835084e-01 8.356637022488487831e-01
4.153905095913372758e-01 8.262068085599946210e-01 1.458247117920388192e-01
-3.391081310256395809e-01 -4.359269370905300978e-01 -8.508443957415948722e-01
3.306661840117458562e-01 4.774767839020974125e-01 7.417871926076372580e-01
3.817082262067436615e-02 2.952825759492140323e-01 -9.275062598404553160e-01
8.850179634049626376e-02 -9.897173055943213338e-02 9.910407101512224148e-01
-3.333846733926842387e-01 -4.257519684584732400e-01 -8.598105471161113789e-01
4.361673907386546811e-01 8.702065358261172889e-01 6.974751029432635363e-02
-1.989109193280220178e-01 -6.676989370431153370e-01 7.029431723009187394e-01
3.855887177481601147e-01 8.853781073553432801e-01 -1.167759903085315298e-01
-1.763693626910460832e-01 -6.203420234210517137e-01 7.791096350618341715e-01
-1.242307198785984855e-03 2.214377958511200006e-01 -9.463917681548305039e-01
4.414367658600633626e-01 7.865085919748061594e-01 3.603242224079546419e-01
3.980161746945963253e-01 6.127231359206162242e-01 6.422515571276490309e-01
-1.820961827308369418e-01 -1.523842300202530864e-01 -9.725697376612665312e-01
4.020521874146328889e-01 8.279456034174182966e-01 2.232469414408155273e-01
-2.793496744932721376e-01 -7.535480827928856540e-01 5.558989149207055336e-01
-2.199437852249540998e-02 2.328336551589189618e-01 -9.315464259817392012e-01
-3.008274326756946726e-01 -7.495588844654241800e-01 5.894103678301354510e-01
-4.174331534517956022e-01 -9.195036278390238405e-01 -3.205770454630136462e-02
4.250893003827546646e-01 8.440083521342283124e-01 3.435381410364408278e-02
3.622369089672480835e-01 6.389926859792212088e-01 6.146567467987199551e-01
4.325755705132538487e-01 7.811497861788341268e-01 4.013699217689765120e-01
3.444046910481310952e-01 5.719157212481200681e-01 6.716851648408266318e-01
2.175886668539855906e-01 6.416126388321834462e-01 -6.610346247266035702e-01
-3.316054420324255902e-01 -8.141214318686825768e-01 5.131916882060949536e-01
-8.754283531483393610e-02 -4.673589821926369958e-01 8.523445926374825232e-01
3.025090399769208016e-01 3.436927311540849406e-01 8.563230124436032042e-01
4.432211455684629264e-01 7.919233747346230423e-01 3.280175800245965778e-01
1.890685434146173113e-02 3.515432933806773574e-01 -9.171383754067045091e-01
9.517875353264461380e-03 2.493164699157024711e-01 -9.328600230429688889e-01
-4.625833766409985226e-01 -8.967913913749343546e-01 -1.015468434119179697e-01
1.773187101590980030e-01 5.873057801195022964e-01 -7.236329753871161286e-01
-5.221568018463013799e-02 -3.436815034620745446e-01 9.011746139634456698e-01
-3.580242379973865297e-01 -8.515777528247400197e-01 3.304527226533623963e-01
1.431487041517930320e-03 -3.133763211693648687e-01 9.355864635024762066e-01
-4.138734858117028015e-01 -7.915413052864451737e-01 -4.418083108470194920e-01
4.208943029184475382e-01 8.314222178787177286e-01 2.909466393683948771e-01
3.387290738133208468e-01 4.845556313389425274e-01 7.885685392912235026e-01
7.835533265285646960e-04 3.012222346933015049e-01 -9.514482959789859473e-01
-2.380794354689802217e-01 -2.843910730287209088e-01 -9.105114473300957023e-01
9.730572907432030738e-02 -1.032452495889674277e-01 9.862978526217194286e-01
-2.714893388629366355e-01 -7.823055127355699190e-01 5.680450803260465031e-01
3.809460013231912301e-01 6.094477553257781066e-01 6.071354861680005044e-01
3.583580399755702528e-01 5.138974256034941623e-01 7.122704421119913087e-01
4.332263744466313682e-01 8.738043793707203077e-01 7.821169780564549145e-02
3.399716922214734982e-01 8.046200599271345899e-01 -3.480973032541576084e-01
1.583854634181338372e-01 5.157867863685074994e-01 -8.149143007359566093e-01
1.746134396055471494e-01 5.417848035685778330e-01 -7.895571560062077943e-01
-3.468280815435241249e-01 -5.687725923488515800e-01 -7.431900016315516888e-01
-4.300175348360119609e-01 -8.951146989764563466e-01 1.446365811584714722e-01
-4.311177771752267573e-01 -8.500348446781926803e-01 -3.556935145279423449e-01
3.587379324267770953e-01 6.031982324658899941e-01 6.289996799560579888e-01
2.860433624961804533e-01 4.210296522131361519e-01 8.163267889139446121e-01
-1.395340288663932116e-01 7.603045535146762957e-03 -9.595553262170849473e-01
-4.257785920220836795e-01 -8.938775433368697509e-01 -1.869084362244597397e-01
3.104502716943683960e-01 4.324624600540811770e-01 8.299908786700780361e-01
2.387309060734905397e-01 2.703464715436420529e-01 9.188403133348316265e-01
-4.298374733623589461e-01 -8.898936511260654436e-01 9.386910957514085774e-02
4.106252816924674809e-01 7.233643984004359817e-01 4.343470141158357611e-01
2.338473300941028565e-01 6.676184049732691861e-01 -6.897026101160229627e-01
3.938542062359808860e-01 8.472794071503862989e-01 -6.773610759886838917e-02
-4.527577321593014847e-01 -7.937817262474938795e-01 -3.973933110135505764e-01
3.484832834858737211e-02 3.331238848218921467e-01 -9.424283166373167431e-01
3.988741498327157964e-01 7.696240900112263361e-01 3.690386206749650122e-01
-3.188910802754268969e-01 -8.322153324109282657e-01 4.969857397834756552e-01
1.021917380859508132e-02 2.973274057356343758e-01 -9.115526346087844400e-01
-2.568614005215102414e-01 -6.864424954617858177e-01 6.552722123841733248e-01
4.320184034304536125e-01 8.687966267228106609e-01 1.336114192333829331e-01
4.261349086768933536e-01 8.517520419704878165e-01 2.230937346044578051e-01
3.352407011245641111e-01 8.398154116533268487e-01 -3.798564820854523627e-01
-4.525746085959603815e-01 -9.017841030298956451e-01 -1.969910228751582670e-01
1.977562852860152709e-01 6.516135081584466526e-01 -6.725438453926272375e-01
-4.615397136134501976e-01 -8.911881993358604648e-01 -1.030306187607703539e-01
3.442868550128425076e-01 4.870104206237200195e-01 7.339025028893871871e-01
-1.279776017581159830e-01 -4.070360884444040872e-02 -9.814692588424516195e-01
3.822955413969649774e-01 5.625173470097866169e-01 6.761830627491911549e-01
2.864908305004066347e-01 3.104456817948806902e-01 8.623201615697141387e-01
-1.995929175111712528e-01 -5.950837024420236876e-01 7.514455896401105450e-01
3.277332330934167870e-01 7.947622349304642730e-01 -3.811794363611021863e-01
1.458079429806293792e-01 6.696919702954293174e-02 9.760535313546030434e-01
4.034266868364821401e-01 8.455870971227393840e-01 -1.037336912022984170e-01
4.258934803814778403e-01 8.576348776579048039e-01 1.998944051774047825e-01
2.576237140463649156e-01 3.349214349019594139e-01 8.833576317217448626e-01
-4.534332616681170935e-01 -9.050490403023438990e-01 -5.476506825776364515e-04
-4.806609271487678747e-02 -4.044361102494232751e-01 9.102484060241060604e-01
-3.893493309609349362e-01 -5.928643427296476087e-01 -7.363209692067099743e-01
-2.312339336656970834e-01 -2.199893819937693284e-01 -9.634160136396353602e-01
3.325873752425295149e-01 7.799936287985415051e-01 -4.324178754042357076e-01
4.186411132473493169e-01 7.035891339588101756e-01 5.353413069600118090e-01
1.588370959628036538e-01 5.633294168482446684e-01 -8.028863420550607088e-01
4.434292569336592549e-02 3.912215530352484150e-01 -9.101983060872675946e-01
6.351280962051121526e-02 -1.194555273756577191e-01 9.881339869901238915e-01
3.455444126213346179e-01 8.388138053400721050e-01 -2.642851612544420137e-01
3.146075669681264175e-01 8.139717247733225802e-01 -4.515609138192320793e-01
3.959426328312155574e-01 6.020974582004500197e-01 6.363880379570748813e-01
-1.034971223654563149e-01 7.615123626069669749e-02 -9.575672041733644946e-01
3.434967870921714073e-01 8.009232950925497807e-01 -3.598709853607821585e-01
3.635919365460540398e-01 8.165220358639428966e-01 -3.122152080132826746e-01
2.641309850313883212e-01 3.495819397496539027e-01 8.431436825407964131e-01
3.857655619578989059e-01 6.053712002251389057e-01 6.134652506369285829e-01
-4.642218284485635782e-01 -8.401573650913066738e-01 -3.473075908372337262e-01
2.498290592992562786e-01 6.835509543601770988e-01 -6.632560838284499161e-01
3.363077706924099686e-01 5.055497428818406247e-01 7.191927370229788119e-01
6.170858333963612913e-02 -1.193523597563929395e-01 9.872090973509224376e-01
-4.511446391028583469e-01 -8.535377675189053104e-01 -2.193606513086084620e-01
3.778115379986320965e-01 8.633344162091441953e-01 -8.856834580083806918e-02
2.686873260388836226e-01 7.053432124856443552e-01 -5.710729228273676572e-01
-1.898625822596719526e-01 -6.559381894051821149e-01 7.330315136649477870e-01
-1.902223483303827067e-01 -7.289010029663200996e-02 -9.728056820210627675e-01
3.182037234075379972e-01 4.207499384692490185e-01 7.855563257625307605e-01
4.979973684320752880e-02 -1.195937332682096566e-01 9.705194860630419473e-01
-3.525693406594903045e-01 -4.597838421083146887e-01 -8.124733121195193419e-01
2.331142667754111664e-01 2.846312689945898478e-01 8.849235607415163463e-01
-4.438920536657086080e-01 -7.995170698770187601e-01 -3.736784469833669964e-01
-1.912564403774152932e-01 -9.892248509716206062e-02 -9.869081719636958461e-01
-3.414552577448416448e-01 -8.047639295405504267e-01 4.709714887747390999e-01
4.055643927055816444e-01 6.958415471068172264e-01 4.834059126504732240e-01
-3.114691325855091786e-01 -7.783518638734285844e-01 5.689791519624406435e-01
-4.585212688840524797e-01 -7.941383468929872347e-01 -4.274328263679813000e-01
3.410285410003136564e-01 4.790330416114770284e-01 7.405695195399353281e-01
-2.025879855193790657e-01 -6.444359984470151570e-01 7.023491218749297049e-01
4.358983711693454333e-01 8.331706318227283248e-01 1.331782392500990286e-01
3.166261521322514400e-02 -2.476718201607020775e-01 9.635428744385163835e-01
-3.130093433476193177e-01 -8.332774948475211163e-01 4.904347877310012427e-01
4.045870750749027134e-01 6.287687252410549821e-01 6.107796756979356756e-01
3.156222108581109853e-01 8.118953637076029572e-01 -4.569093168939152294e-01
4.318887604525038504e-01 8.349827814125259096e-01 1.104151745117710054e-01
-3.437745262157552162e-01 -8.124192296272649827e-01 4.401069351958187270e-01
2.191674634791198339e-01 6.366368346808529699e-01 -7.212331972116031720e-01
-2.784758352716816820e-01 -7.861758621445826822e-01 5.364771986583040109e-01
-2.086231256058479200e-01 -2.122884109246235829e-01 -9.329480334085877846e-01
1.185857807668282554e-01 5.297129098593637009e-01 -8.182713645268512304e-01
-6.508278931402505796e-02 -4.371873950608998749e-01 8.933640510258119560e-01
8.007613306329791625e-02 4.145827648473325855e-01 -8.555692815653062056e-01
2.548918599300047938e-01 6.704365875913654849e-01 -6.476031997057907219e-01
3.816350328745084508e-01 6.192353581309026911e-01 5.951380872632112684e-01
-4.326515965919120466e-01 -7.174735281594808445e-01 -5.870269386136069967e-01
-2.324050281104085014e-01 -2.063270537402633331e-01 -9.658746519229827188e-01
-4.487424912465797777e-01 -9.210592577743913489e-01 -8.382466396385060414e-02
-4.240883238885364559e-01 -8.755292990395506791e-01 -1.960753382273016099e-01
-4.209518979045005493e-01 -8.320868956080426093e-01 -3.590512676404315484e-01
-1.940417820963765416e-01 -1.016611114861128845e-01 -9.505241825351425922e-01
-9.691899726120010994e-02 -4.167712884703145826e-01 9.026792738514778369e-01
3.793265765339782769e-01 6.929718419350965330e-01 5.233499727534471901e-01
2.537261876901172886e-01 2.455581040813753779e-01 8.864554408209058822e-01
-5.178056071788239567e-02 1.727008859619029724e-01 -9.450010439362619419e-01
-4.545990687279848896e-01 -8.054576666959200049e-01 -4.404601206233444421e-01
3.735023361238479223e-01 5.340860441268194814e-01 7.094599548299954650e-01
-4.422129195362151655e-01 -7.305700867902994444e-01 -5.248627154682902196e-01
1.362829043181385674e-02 -2.638462578539031433e-01 9.281411842922323574e-01
2.747904580819436338e-01 7.586449477736449953e-01 -5.003852044238480401e-01
2.950523148813481017e-02 -1.633385667443123246e-01 9.569522987777622225e-01
1.839391337545965011e-01 1.329497357957598602e-01 9.660835276823039885e-01
-1.004896080333820829e-01 5.468578280535787983e-02 -9.579919589290342152e-01
-2.933379273067293277e-02 1.766052316804286315e-01 -9.492849389586931474e-01
-1.992466851443005504e-01 -9.271219941778602314e-02 -9.695257311312167614e-01
6.106082621676929556e-02 3.593603743299262354e-01 -8.857051179991410894e-01
-4.148210686656498836e-01 -7.935587264518485506e-01 -4.586112133091158061e-01
2.602128429223307116e-01 7.328945118231595668e-01 -5.416255861285891315e-01
-4.161023554855333151e-01 -8.898135319248744457e-01 5.498575472465878217e-02
3.163521289499478945e-02 -2.179293279933800787e-01 9.785025481773952372e-01
2.423636438301092488e-01 7.096713050048265581e-01 -5.825746403431931730e-01
-7.048325693846581308e-02 1.377696843694196094e-01 -9.940220536256729744e-01
-4.305712690895383554e-01 -7.793588613819092403e-01 -5.087424584464738109e-01
1.032291381086832167e-02 -2.106934230509700801e-01 9.706718725408128856e-01
-8.114578471231118084e-02 -4.685049962529676537e-01 8.694410887672534560e-01
-4.290556523811645540e-01 -9.247420257424272538e-01 -5.567401491256158963e-02
3.880727313250243449e-01 8.465138007772524675e-01 -1.043512204834295271e-01
4.070025030492250839e-01 8.080854321777359850e-01 2.470477443613879331e-01
1.213778832405854741e-01 -4.405701253518711641e-02 9.503302988330195600e-01
4.460310295351387067e-02 -1.938272849539117437e-01 9.402392080774275573e-01
-4.309840512247193889e-01 -8.762674331634081604e-01 -1.265751072584756221e-01
-3.855462205302612744e-01 -9.023668617315053764e-01 1.621296347478879407e-01
3.254050354598133077e-01 4.023246810459604750e-01 8.169159748901101414e-01
4.382021526667648770e-01 8.617282430910396807e-01 5.848136520091411911e-02
2.730333827677570158e-01 3.600062095409021778e-01 8.735983215666751622e-01
-3.343055927646370051e-01 -5.338311506651919336e-01 -7.743649627148893044e-01
-3.897530826663544445e-01 -9.110762576676013635e-01 1.429968094233984299e-01
2.044748135745155793e-01 6.264741727784690628e-01 -6.801655093452844136e-01
3.883699143141094989e-01 8.371687358263352197e-01 -2.215628258000367223e-01
2.219609328665982095e-01 2.497480988515621003e-01 9.219628513253270707e-01
4.085005632889950333e-01 8.031008347145048853e-01 3.572783043429769156e-01
-4.466956471001155560e-01 -9.067457228094475408e-01 5.455099871657440036e-02
-4.380703316531262548e-01 -7.442872034288623428e-01 -4.865804669720854014e-01
-4.285045007336454326e-01 -8.584569056792199504e-01 -2.309092854326656175e-01
-2.464163878468662028e-01 -1.996183459025638873e-01 -9.408291612317158936e-01
-1.581569031353112775e-01 -5.972683307811732512e-01 7.948516261151102880e-01
2.567587107051591544e-01 7.499453731926128963e-01 -5.628392997091516969e-01
-1.912463196255251852e-01 -7.770760737792957451e-02 -9.643489960338361699e-01
-4.391845202474147225e-01 -7.606507535526957353e-01 -5.302082321491616845e-01
4.014390079792833910e-01 7.806345820870496111e-01 3.387148457881888897e-01
-4.483589027903339685e-01 -8.514952580220244149e-01 -2.249245317471224026e-01
-4.203164103393468576e-01 -8.912098003917146016e-01 -8.793308125185592128e-02
-9.023140116364035401e-02 1.315789400353346572e-01 -9.849828509878647553e-01
-4.164972038819692579e-01 -9.198238531788910377e-01 -2.442410183124681458e-02
-3.622757783857783465e-01 -5.931107327598508228e-01 -6.970102766170279684e-01
-5.084519967878003976e-02 1.196591505450085025e-01 -9.725736103179909442e-01
2.533169451885634582e-01 6.765756985070876528e-01 -6.593269268143645556e-01
-3.745038295591300304e-01 -9.054062886241979191e-01 2.351240561367995696e-01
-4.388967281105794482e-01 -9.015221988255476271e-01 1.010279581585659808e-01
-2.634248370112949877e-01 -7.132932494563521963e-01 6.704030741828418405e-01
-2.794614697125516467e-01 -7.936445599395084427e-01 5.486254643987847901e-01
-4.158269026696538861e-01 -7.933300462232500960e-01 -4.646503397898364973e-01
-3.301333346111453015e-01 -8.588768810715746715e-01 3.978625743102833789e-01
4.202535540537175596e-01 8.046373828342190393e-01 2.318443190720426428e-01
4.319330419937178478e-01 7.586542041098760514e-01 4.392158425665490529e-01
2.568161934055331885e-01 6.774786326424860894e-01 -6.507365085977048214e-01
1.332034715112351275e-01 5.179065323315642511e-01 -7.870794179532623058e-01
-4.987364728915331252e-02 -3.901169861553285267e-01 9.257256514632317135e-01
1.498315361250573408e-01 4.996096724459580529e-01 -8.120499200779152105e-01
2.300417588833545551e-02 -2.584496235099079664e-01 9.648725674023393983e-01
-9.916269220345164115e-02 -4.263052115117393348e-01 8.655345481432681343e-01
-9.081544134172235549e-02 1.362990952787600241e-01 -9.772464468886005173e-01
-3.506656432263156042e-01 -5.539658614538457426e-01 -7.762117633182311627e-01
-4.562382599672238914e-01 -8.825602193692384523e-01 -1.041851529681352140e-01
3.849805628705157412e-01 8.822031777751714321e-01 -1.822309434526883376e-01
-2.522961383567036073e-02 -2.783249312066530812e-01 9.281614037713130649e-01
-4.580426349368866279e-01 -8.217612112119591083e-01 -4.053328163047975607e-01
-4.245930184386234041e-01 -8.747673434583460583e-01 -2.411361713793805095e-01
-1.075588510818551446e-01 8.038821320965774606e-03 -9.690581570229167552e-01
2.616015162415389894e-01 6.817366630387978743e-01 -6.189495936379679764e-01
3.422647200495153030e-01 5.705562784772870710e-01 6.777055488340001377e-01
-2.315579123412041529e-01 -1.898772985182977380e-01 -9.671787464882528607e-01
-4.517753301067480298e-01 -7.733790945696639163e-01 -4.870302994625552717e-01
-3.820442926495858371e-01 -5.719992083039489028e-01 -7.047993884949380616e-01
-5.276105855868397365e-02 1.959647804624974898e-01 -9.803701042450601033e-01
-4.172622241447258573e-01 -6.629841092524215718e-01 -6.078693390277664088e-01
-2.633635356939124095e-01 -7.084183212368088123e-01 6.724190716498394949e-01
4.234779715151110735e-01 8.705249722575877369e-01 1.397767366920441567e-01
4.147468401784361047e-01 7.774827784063591540e-01 3.166509467254076671e-01
4.133157019169375057e-01 8.762631508815167392e-01 1.008947312615856157e-01
2.083304337814210205e-01 6.267764285080301701e-01 -7.364837893303464167e-01
-3.701506999079886007e-01 -9.004850031022757495e-01 2.479539342185909656e-01
-4.608092771880449856e-01 -8.218976633762334894e-01 -3.427069194277990727e-01
-2.706678181606199107e-01 -7.040970987347534571e-01 6.391288682799270982e-01
-3.104640045102328716e-01 -3.787159230525958820e-01 -8.915029725659322501e-01
3.457707105727280683e-01 4.867178795673899883e-01 7.821370611679915319e-01
2.617140618512302508e-01 7.535751213247907643e-01 -5.668706789802698820e-01
3.716514756217542681e-01 8.379885820083708969e-01 -1.983649320025775709e-01
-1.749515718661749375e-01 -1.330164389149725845e-01 -9.783469987357956699e-01
-3.464611784333392897e-01 -8.538614796717005628e-01 4.444439804459469068e-01
-1.009017696670481551e-01 1.076100029478061632e-01 -9.640892300479988464e-01
-4.185934527019981588e-01 -6.467186343215779454e-01 -6.434927543396916638e-01
1.078503026490147815e-01 -6.521761318262490892e-02 9.494993762928038983e-01
3.877384503229865942e-01 7.146515021656107969e-01 5.252918262059453891e-01
1.486908419128057657e-01 4.833429726491725309e-02 9.829825786787312891e-01
1.118295491493156157e-01 4.746348251887163028e-01 -8.180220518619336634e-01
2.426552289926302841e-01 2.941707969694521418e-01 8.709183770333027708e-01
4.274347049021267608e-01 8.395062364488247164e-01 7.181698901839983495e-02
-2.063520619252864896e-01 -2.158599752861230514e-01 -9.433066422467688561e-01
3.610847183358558699e-01 8.279389583818818066e-01 -2.554724371399927363e-01
-3.602650079636393055e-01 -5.689484584546865564e-01 -7.130208422839872107e-01
-2.230912933232371761e-02 2.533176458232789807e-01 -9.674486308246837973e-01
2.112032537301753166e-01 1.493425526225063416e-01 9.566593649725805282e-01
-1.143513962495060210e-01 -5.956095762778897129e-03 -9.683755536241107631e-01
9.597346641694717850e-02 -1.231103541988906314e-01 9.655240323869020980e-01
-3.367324477224379331e-01 -8.244012818413005705e-01 4.086964123852655506e-01
-4.238391563303929299e-01 -8.745757443954551569e-01 -2.148479490939612102e-01
-3.661857986041857638e-01 -4.954044753498574871e-01 -7.875343943897076260e-01
2.096366655174450588e-01 2.030291391092958198e-01 9.443212414869249782e-01
3.049738434935780895e-01 4.693344570500500579e-01 7.881422729390038517e-01
-1.739648422807013872e-01 -4.905710304110191822e-02 -9.611823910370582702e-01
-3.742485777236858602e-01 -9.039390476344634218e-01 2.867383191328208847e-01
4.362699071548933327e-01 8.130322687673789961e-01 3.272224711455836710e-01
3.311486354918242170e-01 7.776950215733103855e-01 -4.603160611923075574e-01
-4.604291457116240771e-01 -8.044565643709192804e-01 -4.025392343246124160e-01
3.989029783091661840e-02 3.581553932216641201e-01 -9.323561021980441010e-01
-1.409903188602707469e-01 -5.528228809197399674e-01 8.349535981728192224e-01
3.335366924766477448e-01 7.800017188206972429e-01 -4.402822932707657899e-01
7.706137313926270105e-02 -1.337503110082012558e-01 9.878380660308384575e-01
3.587953785542463137e-01 8.342824665078366619e-01 -2.380226849230996367e-01
1.257102284097214862e-01 -4.454440371817417615e-02 9.855254169594519498e-01
-4.372692341843263386e-01 -8.498826650795118232e-01 -2.366569956942672082e-01
3.054137847679583850e-01 3.627852569232436486e-01 8.598269454003075740e-01
4.363868988778338842e-01 8.599176023184015305e-01 1.683532008389707901e-01
-1.832004811272001377e-01 -5.698056884808790912e-01 7.718823418011901971e-01
-2.435788532191881517e-01 -2.191363185593642737e-01 -9.201023387112305940e-01
-4.525607907647605233e-01 -8.956453044780364747e-01 -2.106152551951760016e-02
9.235798747388618279e-02 -9.875481134964912699e-02 9.493795876930674060e-01
1.076552661940570754e-01 -3.236195836547593047e-02 9.485906748822299228e-01
3.144262913279309846e-01 4.224566812667944760e-01 8.348106763315054080e-01
1.106738055826814449e-01 -9.072621203443385907e-02 9.634456027482862783e-01
-4.266310100210460310e-01 -8.064675535821393959e-01 -4.560341458432631279e-01
-2.256220124732171983e-01 -6.792368946330068491e-01 6.625717587358379568e-01
3.698969311474715332e-02 -1.599147834946791635e-01 9.491040543599469359e-01
-4.313528254546188934e-01 -8.722722459299939723e-01 -2.892776668343324253e-01
2.556885927669899639e-01 3.428474597514284405e-01 8.602092385745020442e-01
1.356812825383696686e-01 4.796244724807169346e-01 -8.208110282432353744e-01
-2.031950388433879373e-01 -1.014187217077217318e-01 -9.674990169773062254e-01
4.245320835384364111e-01 8.339060906713890997e-01 9.929283238819676394e-02
-9.117025282505977768e-02 9.128220589121745221e-02 -9.555212539317501363e-01
2.368251409050640133e-01 6.439526984364478679e-01 -6.694097572407834429e-01
1.211878340359639206e-01 -4.708677603542819542e-03 9.466132400968966243e-01
-4.241397732122228481e-01 -9.261151741369646473e-01 1.293878572424294049e-01
-2.569455682399756080e-01 -7.611765157884842203e-01 5.997356483282830775e-01
1.521199383235872712e-02 3.446428677313122524e-01 -9.191859066833119041e-01
-3.953821842982231938e-01 -6.758203349420239814e-01 -5.939735451430400159e-01
-1.206523772256070347e-02 -2.499905448567848743e-01 9.586576997890877694e-01
-5.558752586534768808e-02 1.626121310415197252e-01 -9.905011063569415519e-01
-1.772214274806191980e-01 -1.413919372569316935e-01 -9.510063986826651217e-01
-3.503544106830568383e-01 -4.700676011143665178e-01 -8.307554793062620346e-01
-3.744951897520703565e-01 -8.534002784913927719e-01 3.929317922613319580e-01
2.437107112168598599e-01 3.077064419792833738e-01 8.712277785962027066e-01
-4.387630345076988791e-01 -8.522886671891989341e-01 -2.257113710067052692e-01
3.956872926029319504e-01 6.749474748975412552e-01 5.925921221335129774e-01
3.055937851973534181e-01 7.816762629398694706e-01 -4.282479216334826311e-01
2.255693131432072729e-01 1.647937405318035675e-01 9.227200645089694842e-01
-4.637796429012572830e-01 -8.427488153136200033e-01 -2.895408436914369554e-01
9.734121371337819961e-02 -3.647823536865589522e-02 9.533175679181177253e-01
1.685270451894606558e-01 6.120045277801576811e-01 -7.490571645755849106e-01
4.056666150040094121e-01 8.503366026297779490e-01 -1.618932677260159492e-01
-3.207697025188391282e-01 -3.819584608922557134e-01 -8.772803209767130461e-01
-2.559470844799027200e-01 -3.329490036365251870e-01 -9.005081779178412127e-01
2.102651410134733501e-01 2.270244881229005474e-01 9.278235952909235085e-01
1.519256243984099253e-01 9.784903795913389712e-02 9.599824187987041624e-01
-1.510981194583602971e-01 -2.492103779487474594e-02 -9.566117204509998473e-01
2.622153963519117115e-01 2.469177308711312246e-01 8.967353532045421183e-01
-4.440253410938845291e-01 -7.804278696213439170e-01 -4.970215500405497644e-01
-4.013099320336185327e-01 -8.799352911624231943e-01 1.811427088363398441e-01
-2.434265766680940302e-01 -3.026394128460003774e-01 -9.155292307070709290e-01
-3.055907777550204707e-01 -4.490869269605538561e-01 -8.223329897665950794e-01
-4.600260432381482745e-01 -8.511151126019751434e-01 -3.423030768719353412e-01
4.201703776087383213e-01 8.608514942203167042e-01 1.860298972574529752e-01
4.377050055427367248e-01 8.674248064249883150e-01 7.929105583224310694e-02
3.183465000707496051e-01 4.577309240399628498e-01 7.597084616337076435e-01
-4.252048454304367398e-01 -8.074488216394111184e-01 -3.726018876497442234e-01
3.403461139417408021e-01 5.391301208258694189e-01 7.434477014820239926e-01
1.077669228794669587e-01 -1.790906416575090490e-02 9.510906784602785047e-01
1.984384452642653507e-01 6.630158637973112556e-01 -6.830051458011477949e-01
3.077784891850764426e-01 4.739286599560053603e-01 7.671217184188913185e-01
-1.181540274146323510e-01 -4.474503604529725953e-01 8.775984451105325324e-01
4.186261978475575574e-01 8.838704133286275910e-01 4.249143425390377454e-02
4.383284140890979508e-01 8.497421622191174695e-01 7.993533001741728872e-02
1.655022127380797736e-01 7.626683633158413966e-02 9.343619929875909280e-01
-1.003831050362304078e-01 -4.693010360996710539e-01 8.417023212442283908e-01
-4.551349492180698508e-01 -8.548524614436112667e-01 -3.440996366580714172e-01
3.524959742899427262e-01 5.724155147847476144e-01 6.586442782586969802e-01
-4.241138769708890366e-01 -8.370293701436850586e-01 -3.724600224625947975e-01
-3.782975137383940978e-01 -6.150343813679186589e-01 -7.222502304111448890e-01
3.634973039546853801e-01 8.695658417997158551e-01 -2.621687067996791853e-01
-2.687091455147872510e-01 -3.562139129914691504e-01 -9.006554138643505514e-01
3.499672294531435135e-01 8.021551423547824688e-01 -4.061851150432227997e-01
-4.183838420627308263e-01 -9.224380976105649443e-01 1.661833918943182442e-01
1.608173800887443272e-01 5.292906319363716028e-01 -8.152279329183785839e-01
2.007991907746847771e-01 6.129942552229018515e-01 -6.943243734721120664e-01
-4.371965905492581350e-01 -8.051032358542884459e-01 -3.613908456089514054e-01
-3.942130402071802320e-01 -7.146679634688372085e-01 -5.830913133134206783e-01
-3.514292265543202815e-02 2.053130444668536947e-01 -9.382068310020601487e-01
4.289878523140668309e-01 8.697509610731487539e-01 -3.106802962749312738e-02
-3.095762351180140204e-01 -4.507197163971067289e-01 -8.155976511961632314e-01
-3.535888737849168795e-01 -8.854123898100400014e-01 3.181295374630875306e-01
-4.433679968105438407e-01 -8.941094808146364814e-01 3.196691565187347733e-02
3.923030012993649618e-01 7.522546021737597233e-01 4.318575907636966749e-01
4.124992305814797477e-01 8.523028939593917386e-01 -1.153938528023907700e-01
-4.503402690271861575e-01 -8.794916472766401982e-01 -9.853921411983575240e-02
-1.819663770968458494e-01 -5.593658085093815568e-01 7.897370669610376259e-01
2.878986803216784796e-01 3.700799134920189082e-01 8.694760152284234378e-01
-3.393431811012204147e-01 -8.322401360028969242e-01 4.839732076191149424e-01
-1.978911235084321874e-01 -1.949285987358316263e-01 -9.450535726970001882e-01
-2.177154305804120116e-01 -1.837292277378768379e-01 -9.287319830205564841e-01
3.410049622547939863e-01 5.397543003828888519e-01 6.926738342164412421e-01
3.121203168075535328e-01 4.133564004433679107e-01 7.903447819037209277e-01
8.885555255839717092e-04 -2.669324468687125917e-01 9.237016559852264663e-01
-1.094556309710400938e-01 6.479769511679343841e-02 -9.995122658011197370e-01
-1.510530809101592320e-01 -7.227348315337409068e-02 -9.908542075214671341e-01
1.661690810738295498e-01 2.703002142411072006e-02 9.580544757594740002e-01
-3.564503291665533924e-01 -5.418889373938592380e-01 -7.338857356889182393e-01
2.867168531259676190e-01 3.975306012719217463e-01 8.095082678307383706e-01
3.711338877072824505e-01 8.773664687613582647e-01 -2.093709453234193496e-01
1.511428433013031480e-01 5.846961907235574962e-01 -7.568226210350820216e-01
3.413947049441098391e-01 4.828596936505319959e-01 7.877842929228010549e-01
-1.518588908138882553e-02 -3.380039845653054487e-01 9.152014746383622112e-01
4.548006085057444692e-02 3.957514478799834534e-01 -9.061156127181267950e-01
-4.592040952634355855e-01 -8.213946299212120383e-01 -4.021022819961874162e-01
2.955131152702785702e-01 3.415548959379802740e-01 8.408536890317480639e-01
