-9.967420041963910571e-02 -2.976817760896365850e-01 -7.185824404498632190e-02
6.445844559830563592e-01 5.841782655441090100e-01 -4.281106202337723876e-01
-3.693566151902863675e-03 9.359661044474645863e-02 2.321766769530468344e-01
7.958123392807764374e-02 4.380998835727403784e-01 -9.556161573714691548e-02
-1.459901237661938023e-01 -8.648657860682787413e-02 1.340078605729277950e-01
3.466548335360646327e-01 4.078370335506364963e-01 7.900977606766844685e-01
3.030088280524702027e-01 -7.016396785231490685e-02 -1.883768890114553840e-01
6.617412579127422978e-01 6.718076801555367128e-01 1.148242982656934169e-01
-9.464881914967405996e-02 -2.911406155461753742e-01 -9.439247012609969234e-02
3.091365911263794716e-02 -1.039201960911577127e-01 2.133044781210740870e-01
6.498095205139393649e-01 6.341912267815515980e-01 2.976114344316626026e-01
-7.306406796461204500e-01 -5.755915541618913389e-01 -3.104948156932620384e-01
-4.191502250434527288e-01 -1.255239395285839554e-01 8.605771814202310965e-01
3.461626211459086222e-01 6.564912618935637711e-01 -4.822191771057310894e-01
-2.808802045687325832e-01 -3.418092988079928785e-01 9.027689955966652358e-01
6.940675776285107901e-01 5.899974088774000841e-03 5.568047703621602507e-01
4.183952583873251641e-01 -1.265590990970617002e-01 -5.672669094397053691e-01
-2.114770482224814785e-01 -2.790345728952501325e-01 -8.731825540905274741e-01
2.694212155551843346e-01 -1.809882141382625209e-01 -7.285327998081084777e-01
-8.781369845951437769e-01 -4.178795195820528829e-01 -1.061154099061586836e-01
-5.635164046983145297e-02 -5.479165724655803427e-01 3.473781965837378083e-01
-7.485505990291545231e-02 -5.776857561999693136e-01 4.018336941895037095e-01
-7.076468424071972185e-01 -2.685907298764372841e-01 -6.105739449432007193e-01
-1.090941439498907123e-01 -3.976233233063116712e-01 -4.239417691911429725e-02
-1.012973716275015063e-01 -2.886788001560317563e-01 -6.523622119952431075e-02
7.654662078533186476e-02 6.960334484359859131e-02 1.883723097019573689e-01
-8.470188338706910458e-02 3.434586546205796731e-01 -2.677762283498545948e-01
1.636959152044265287e-01 -2.277630264009472827e-01 -3.710616297637135963e-01
-1.767950523440521005e-01 5.666147278973569096e-02 2.446666936562646721e-01
7.338798352765841804e-01 5.253078408703780733e-01 3.955355075858615899e-01
-1.964457966674324763e-01 -2.887281881567941300e-01 -8.669238272921512278e-01
3.182888769080806091e-01 -1.912770773503529032e-01 -5.928725976386557406e-01
4.409435607090921860e-01 6.944323025220481282e-01 -3.465298651604449831e-01
-2.747715689754234858e-01 -7.985877337458984968e-03 8.908465607217761276e-03
4.013296632567856514e-01 -1.218238802007666211e-01 1.905196374848450724e-01
4.528337367354883791e-01 5.025682416397426744e-01 6.644414714534242483e-01
-3.695223102551650762e-01 9.421554683160608679e-02 3.017171501760720909e-01
5.700064957458349235e-02 1.364079907504216205e-01 1.948360874016716593e-01
1.317066961448472295e-01 -2.485776292989612390e-01 2.767320782214570674e-01
9.634341048309047473e-02 -4.643580985859243615e-01 4.687504167466184923e-01
-6.955406388853471178e-01 1.915388552081931720e-02 -7.621329713127740491e-02
1.144580742061749312e-01 4.919979311385511145e-01 4.918235694796287971e-01
-3.380139737933471333e-01 -5.777516722224182999e-01 -5.298653819262426623e-01
6.822292373131693122e-01 4.076246025809844853e-01 -5.494292869744029639e-01
1.836199863379738562e-01 5.121534422763117378e-02 8.790994157754768168e-02
3.857107556564554618e-01 -2.800761557428541049e-01 5.037270456902279703e-01
-1.391472645258836072e-01 2.566229738935556504e-01 -8.918821820198318262e-01
3.656593742566030536e-02 -3.482197294593213921e-01 -3.917012386831671966e-01
4.016576571929884182e-02 5.584881066746852918e-01 -5.061263739705313958e-01
3.624830164748094607e-01 -1.250182151842483824e-01 -3.224294655938690357e-01
-7.857999871102830935e-01 -5.631149048690365921e-01 -2.068350607286190967e-01
-8.433948708658383087e-01 -1.414173677748327140e-01 -1.299051020727646534e-02
1.637288832847593606e-02 1.942397709941990624e-01 -1.513372415757239797e-01
-2.271567172717588179e-01 -5.835458464622211849e-01 -3.734948108549055457e-01
-8.533315029709070965e-01 -4.825858159364941335e-01 1.389175127209101857e-01
-5.439614521436954009e-01 -2.327427006310076041e-01 -7.778214105412553092e-01
-2.954611562014639037e-01 -6.913022092974973054e-01 1.584602831731577177e-01
3.183723473687303240e-01 -1.865347341953821070e-01 2.794290810796135616e-01
6.251851671346582151e-01 -7.722015602861857786e-02 1.964665086899157198e-01
2.641149438601028687e-01 -4.873669420516408418e-02 1.314311979748651327e-01
-1.845394478133508265e-01 -4.935402952833287116e-02 -8.029783984177618628e-02
-1.024700753468189424e-01 -2.121915909665292033e-01 -9.393838062975227998e-02
9.147500119327854617e-02 3.405748527189878527e-01 1.215506018805443678e-01
3.653661655881945136e-01 6.498185304786102678e-01 3.408766854431692916e-01
-6.916344852139646449e-01 -2.284900071411853292e-02 2.771859462717118361e-01
8.143007917493375603e-01 4.772518938574182856e-01 2.870431733772143557e-01
1.858082197796964985e-01 6.352018800008174537e-01 -4.182761877276867657e-01
-1.732467106561321191e-01 -5.485476000484241776e-01 -1.646510269363453127e-01
1.815664512850938273e-01 -8.407986459810282143e-02 2.004973752920336527e-01
7.215512862711888076e-01 6.056829884154036892e-01 2.451234872879258231e-01
1.427069304814290729e-01 5.981399447089341681e-01 -5.432638801867892830e-01
1.786960914209354545e-01 -2.584384572033011085e-01 -4.438163946688274408e-01
6.278456785033549314e-01 -1.577238977945643814e-02 -3.323248391891784892e-01
1.688329371773595877e-01 -1.606337150905136624e-01 9.643546201180044353e-01
6.236948602947004483e-01 5.862450432340309270e-01 4.390520944882747578e-01
4.126226891469606528e-01 -5.959183345673466775e-02 -3.542271668805336421e-02
8.093662464480422258e-01 5.531785474312647111e-01 6.848592599379010881e-02
-3.785493263984379686e-02 -3.781508889389458838e-01 -2.913314022434284056e-01
2.735431214617367046e-01 -1.836936084430845495e-01 -3.926935416695349068e-01
7.877753885726442029e-02 -3.997072267281620017e-01 3.404727775317079597e-01
4.042238103377907010e-01 1.343625145743078397e-01 9.055793669574916382e-01
-1.080990098880743600e-02 3.210480361045510711e-01 -8.873028948906330760e-01
-2.061727682876570433e-01 -6.338430348280009730e-01 1.611967835070083344e-01
7.751650874645019673e-01 7.218408813479601505e-02 -1.137190691587540159e-01
1.308107096696329852e-01 1.593064684761562877e-01 1.253250243935429692e-02
-3.855850950411169875e-01 -6.542431690989006787e-01 5.489115734987479733e-01
8.301087409312747634e-02 3.685386701918555441e-01 -3.999644467613910209e-02
-1.275521068749342068e-01 -4.603194423694247917e-01 -6.409010522113863795e-01
5.587155906736049893e-01 2.206156100834996414e-01 7.951971564527353653e-01
1.270716539050035787e-01 3.151310633973162245e-01 8.647811973801644569e-01
-9.120920782670795604e-03 1.146851880191536305e-01 -1.718466699323684121e-01
-5.569390624655553568e-01 4.956094088745877091e-02 2.766940863989067467e-01
7.950201150639318870e-02 5.325622459657859409e-01 -6.702292102476339331e-01
5.507282954725321034e-01 2.320022815783524539e-01 -7.288558242415297261e-01
5.165590134496977903e-02 2.859072773461081018e-01 2.165913615577523543e-01
4.996884092473580230e-01 4.005716212310420632e-01 -7.296985138828786521e-01
2.481895986126042286e-01 -1.964035624778159850e-01 2.765004001495821595e-01
3.461340945982454564e-01 -1.617199476146753689e-01 2.522645356660651594e-01
-2.438441741553676045e-01 -2.065771330882407997e-01 9.508879469256255046e-01
7.456798752363095195e-01 5.223468059895057004e-03 2.032302602563034188e-01
6.622523805838845812e-01 -7.513266033767947161e-02 3.604657808239055683e-01
-4.473090619436538851e-01 5.252180961067341031e-02 7.906285471934049180e-02
-1.276260436933915610e-01 -1.086317668005588738e-01 -1.053486003485934880e-01
-5.118260440534727618e-01 -4.243448138754604693e-01 7.535249320758641289e-01
-1.483624158948475824e-01 7.225773674485240494e-02 9.408142087427285860e-01
3.908502058237458554e-01 4.552778784367678133e-02 9.153168317533025844e-01
-2.723018457227305844e-01 1.677288814163225561e-01 -2.294628034125135163e-01
9.544797645701438848e-02 -8.994798112937603396e-02 -9.206900724606728037e-01
-2.867075269401114235e-01 1.851881075718724012e-01 7.158907313723571475e-01
-5.304319699448410974e-01 -6.132294663705137872e-01 5.573474236085514955e-01
-2.686773251931915407e-01 2.871609954824023286e-02 -9.295744081416907889e-01
5.180091377455803281e-01 -1.405930684128472441e-01 2.783338527764830372e-01
4.504626370427903259e-01 -1.984912497927290298e-01 7.277870035835195539e-01
-4.731841374155089652e-01 -6.771980675572171204e-01 -2.970256046644915715e-01
-1.168293731443999506e-01 -6.043665778396124511e-01 3.834100226376330744e-01
-1.601584304601862407e-01 1.976233842118614026e-01 -2.301068540954031849e-01
4.482131722030428533e-01 -1.708566317007169932e-01 7.692789298310328538e-01
7.921889299523148242e-01 5.146585068949257602e-01 2.849618893769001460e-01
-2.336078908843068347e-01 1.186586646870353180e-02 1.775356631662244056e-01
1.020061500448222191e-01 3.896246451550403611e-01 7.019241774774782894e-02
-3.014879484073379468e-01 7.857884737423440069e-02 -1.338048224472059289e-01
1.110758296106677118e-01 2.611469626179389533e-02 1.784846453591858728e-01
1.606249221631312896e-01 6.033778070090799472e-01 -5.458669357871420713e-01
-2.681835875900291377e-01 2.566470137449758937e-01 -8.214395730870762691e-01
-2.678495845512502971e-01 -5.663249727904688946e-01 -5.138450415582402897e-01
-6.646335202887253268e-02 -4.679665399759520145e-02 -1.689014741608785009e-01
-7.340509572262834403e-01 -5.556907887805497825e-01 3.912577525859701200e-01
9.499248023152274956e-02 3.172228886706064954e-01 3.329180181446984160e-02
-2.652563155449592647e-01 1.509643480582585628e-01 8.041820972904593079e-01
1.027321750369836473e-01 3.980145162871212561e-01 1.079125292315955414e-01
2.379243415770263270e-01 6.132838671796478902e-01 1.692359612756017262e-01
3.632208344578932713e-01 -4.763368552498852687e-02 -5.075072239584467459e-02
-1.020517778230658479e-01 -3.134467973893745318e-01 -5.292947642402952985e-02
9.032944168125143364e-03 -3.558865594917953734e-01 -7.186329227675305464e-01
3.291917780825437956e-01 -1.568512560132550304e-01 -3.821665573271660343e-01
7.121496387307643672e-02 -4.900708432139602722e-01 4.933176551918465602e-01
-2.345719937428968338e-01 8.277784661418195744e-02 8.909362250559956786e-01
-1.040178944912285297e-01 -4.181050726491984948e-01 4.446429374077730950e-02
2.617241787651539142e-01 -3.638424248705786346e-02 1.158051171202688773e-01
-7.008004223415915668e-01 3.318673225384768249e-02 -2.274791210094245231e-01
-6.725363667998488504e-01 -6.809866191908744426e-01 -8.231959325673113281e-02
4.966250166794301535e-01 5.463312162590853310e-02 -7.265014326987739857e-01
-1.397817378660737297e-01 -4.991915679731749877e-01 -2.440310564485836595e-02
-6.924379112167701467e-02 -3.127308189801481508e-01 -1.689285967603771366e-01
4.071721943299542734e-01 -7.488766051865117235e-02 -1.752800701355923529e-01
6.149228544597087343e-01 3.527509697402368416e-01 -6.500218544121506570e-01
-6.046857743608873015e-02 -3.598198775593340892e-01 -2.200143121985140282e-01
3.936253987564289902e-01 -2.282019837313435107e-01 3.768657247799415133e-01
9.998893293345310906e-02 -2.718970044440178757e-01 -3.670393611997087580e-01
3.182668086017262365e-01 5.669982669434967537e-01 5.580659079257929145e-01
-5.003240682011818041e-01 1.749803682424234952e-01 -3.507618450341118410e-01
1.679584811503202768e-01 -1.468046749963894393e-01 -2.816801806861440327e-01
-5.417996496698027770e-02 2.790025163752123394e-01 3.600676151129314495e-01
-4.338595696068566210e-01 -7.146813575348130998e-01 -9.851557698516187622e-02
-9.162913744526057780e-02 4.185915139320338096e-01 -3.479457029960946746e-01
5.859118857707984462e-01 6.804483028042979109e-01 2.201971002835156621e-01
1.880682141293238685e-01 -1.382931745851264937e-01 2.308964373657694802e-01
1.477483044500263742e-01 -3.369157677876066792e-01 3.456442324322681614e-01
-7.690611810896584577e-02 -4.625249450305391474e-01 1.670767396636405888e-01
9.597336894731725576e-02 -3.061640737171476001e-01 -7.166449980056101010e-01
2.569653506338218651e-01 -1.118080067809881784e-02 -9.327734150073301034e-02
2.520118048006110834e-01 4.107135490075061179e-01 -8.300544147011921225e-01
-8.835009423456682831e-02 -3.564072284809403079e-01 7.482902689102362281e-02
3.292323965208667214e-01 -7.403207726508580222e-02 1.258824310090150833e-01
-5.953380347185289745e-01 -2.325716085856565640e-01 -7.373514713524865760e-01
9.740235108123239394e-02 2.064586965140287333e-01 -4.595706754033972163e-02
5.079236109790521425e-01 6.616782865857121498e-01 3.398728163873689367e-01
1.059666056195834177e-01 -4.566995608392104833e-01 4.678767786816543928e-01
-1.284611625168869675e-01 -1.951992666077913274e-01 3.749405559303596418e-03
-1.665271705721676695e-02 4.320099198281511788e-01 -2.632440066420960734e-01
2.085804389009935089e-01 -1.975334654354860553e-01 -7.732904370133871774e-01
1.263627450310881861e-01 -9.022309369312871141e-02 -9.094949357683315139e-01
2.838367032682336810e-01 6.417718455707563940e-01 1.983130957140912809e-01
6.713470727831984952e-01 5.433770394471962861e-01 -4.498417496015659767e-01
-7.037569692674170430e-01 3.189480327818785405e-02 -2.419631906882409589e-01
-6.766909185446732256e-01 4.389888635227952307e-02 -4.655828269829694888e-01
-3.267798230641611457e-01 2.705084731181838301e-02 -1.287845254478653390e-02
-6.568787452578160602e-02 3.071651905236991720e-01 -2.315558833507851411e-01
5.609132638610080795e-02 2.619595084124017315e-01 -9.970485361550829317e-02
3.831440284163618037e-01 -1.719883778753191761e-01 8.381785892390530845e-01
-7.109710473039948520e-01 2.395104458841861017e-02 -2.131786359295488043e-01
2.012300985929924846e-01 2.063927632673013927e-03 1.251345784052159960e-01
2.681672039165248211e-01 6.388738895815407881e-01 -5.126618486169669531e-01
6.094413500186596222e-01 -5.055756301825892196e-02 -3.018378734974790176e-03
5.355172229774177728e-01 -9.217111138675170359e-03 7.941234696042683838e-01
-2.461243739163622435e-01 -3.786049642085536071e-01 8.930460355852418708e-01
2.452347770774228608e-01 6.129137534309051505e-01 2.247126496993723244e-01
-4.228797082989111528e-02 1.328349396784151426e-01 -1.817297846690762719e-01
-8.094664653025791523e-01 -2.709468360868499404e-01 3.849483875521383380e-01
1.106984520039963199e-01 5.909384009073108679e-01 -3.258265298482586059e-01
-7.306292987160557806e-02 -4.643401049391018276e-01 -4.267478417530643497e-01
3.866272376681739731e-01 -2.889970772681004774e-01 5.978764937122069689e-01
8.029429932592925534e-02 2.042124768226710740e-01 1.565735471332947715e-01
5.702610773711432879e-01 3.404350924105825626e-01 7.411380914831408040e-01
1.495062019441208423e-01 -2.998491775494639411e-01 -5.168593005559557474e-01
-5.268134784278574179e-01 5.754493842567159900e-02 2.544579387150506800e-01
-3.650843950686124550e-01 1.320215630448578203e-01 7.000537054030260276e-01
-1.028985958743668522e-01 -3.150979782447194122e-01 -4.323672638454438555e-02
4.178936680447943308e-01 1.900243211188967218e-01 8.886054567492457368e-01
1.628251470711810645e-01 -3.237833689936790438e-01 3.450676482642210940e-01
-1.649768339559800623e-01 3.979477819361495472e-01 -7.192583104038290376e-01
6.371378867920780564e-01 -4.674906191246623079e-03 6.625670741427215349e-01
1.405235804213002815e-01 5.758132755343906561e-01 -1.615633910321073452e-01
-7.503503044183137405e-01 -4.158945237526232575e-01 4.933511493705367013e-01
-6.851385316638153311e-01 5.073366243344171883e-02 -3.535343090627688922e-01
-6.301113847854970806e-02 1.392180002123392379e-01 -1.878521985629431346e-01
8.250755608375406891e-02 5.408793354937807552e-01 -6.539089918359196618e-01
1.653788273084892957e-01 -2.455752805093519286e-01 -7.466479502195318974e-01
3.697162423475448823e-02 2.201620308366761536e-01 2.207890247093640956e-01
-4.146134832849217022e-01 2.237376771599129122e-01 -7.025547626657003830e-01
2.845009227331372070e-01 -2.153443228644864871e-01 -5.699561341301981887e-01
5.080946554515531483e-02 2.049297303722478428e-03 2.082872137486433961e-01
-2.718291940204853874e-01 2.553238893959556277e-01 -3.164415832879641788e-01
-1.965984598121973126e-01 2.394155586982334438e-01 4.741763293441811911e-01
-2.861311249828401571e-01 -6.465146082350258228e-01 -1.869188622245256670e-01
-1.424641896684255282e-01 2.874274881418457106e-01 7.072962126860415921e-01
8.811847175809350841e-02 -2.642435289219646766e-01 -7.918354642983673752e-01
3.261027397996374977e-01 -1.296903625916504821e-01 -3.125467068247830826e-01
-1.024555776647247674e-01 -4.147841761518789028e-01 4.868220957121336540e-02
-2.033703513359992887e-01 2.362684057572839169e-01 4.768662928214730812e-01
-5.190047743157910620e-01 -6.514741796106279237e-01 4.961189989066038253e-01
4.041582408211999988e-01 -6.836667361798449971e-02 5.157177021500008313e-02
-5.448950474456979443e-01 4.972561600883444732e-02 1.247648883923008212e-01
-3.444521989504252812e-01 -4.067432260064569871e-02 -9.065144816406273121e-01
-2.982395588384750829e-01 1.313382032735651017e-01 -1.945772632453625084e-01
1.911821591585144697e-01 5.894034325950571196e-01 5.794267803272599125e-03
-1.249496958280413468e-02 3.377196040929791310e-01 3.684004326846062050e-01
7.849028784007134885e-01 7.672391840892167636e-02 3.808709683959653480e-01
1.993180219661485342e-01 1.880215442194499084e-02 1.081080777128538284e-01
7.898603001369450816e-01 2.065747412760595147e-01 4.913122590068330076e-01
7.965291888073196269e-02 3.707387645894978379e-01 -8.662125477146921382e-01
-2.767311490052489220e-01 1.456584994044777918e-02 1.475550946859955637e-01
-3.150575770765332018e-01 6.035950748271979444e-02 8.493897434712031069e-01
-8.292465406568028108e-01 -1.473916253736596016e-01 -2.982706144247844748e-01
-6.547963013173276059e-02 -1.043419452982261367e-02 -1.727971211942968266e-01
-1.620718179106206414e-01 -1.023994661756714858e-01 9.135377832502278306e-02
-2.993331781370619504e-01 2.683554118926614329e-01 -7.820282534675443431e-01
6.288383123834555277e-02 1.584326651986142365e-01 -9.552499634576879783e-01
-2.051889770766064935e-01 3.817395665498163893e-01 -4.431481387646434289e-01
-5.608746464158340661e-01 4.927308842060936639e-02 3.333193306344405249e-01
-5.143760750943444406e-03 -1.549064272493318184e-01 -2.076795835501381859e-01
-2.078551769447404274e-01 3.352476473593214989e-01 -7.804229655353068784e-01
-1.879851591403624289e-01 9.330196408133002717e-02 2.779556460243821636e-01
5.894057979740985331e-01 4.448455064906661760e-01 -6.318667918147000684e-01
5.414101341553353292e-02 -1.423833869469885716e-01 2.203849459156967672e-01
-4.003892119471870181e-01 -7.217848251858903774e-01 3.666940026495062177e-02
-6.893983752767767204e-01 3.172324661833689219e-02 -4.539402475584684016e-01
9.702615384634995233e-02 3.551855679274048549e-01 5.007788906520905386e-02
1.798884437736694153e-01 5.549835226735096994e-01 1.915264921184713642e-01
2.367700671730905981e-02 1.305865999907742103e-01 2.215216581427898457e-01
-5.651882554136546943e-01 -6.898526937136456594e-01 3.537565599207900813e-01
-3.513120295348498012e-01 -3.538681170851968316e-01 8.737078811497812625e-01
1.515867687761223992e-01 -8.115208516408560502e-02 -2.224968229181637780e-01
-4.351164682027924835e-02 1.296657884580463826e-01 -1.819005454924678966e-01
8.371570164423109972e-01 1.374121482085784440e-01 2.237119945490210204e-01
-1.209154280693778977e-01 9.443712011627326819e-02 -1.850164039082496936e-01
6.970813486290768080e-02 -2.173564174459282905e-01 2.387608142652928034e-01
6.834485253114162828e-02 -1.890994471640772001e-01 -2.676867695797128799e-01
6.481674426427856961e-01 -1.031486032482897830e-02 -2.679227532299990888e-01
6.088970228837511378e-01 -1.176553932817678838e-01 3.870752799432797819e-01
1.387796524922386698e-01 -5.524941170898330089e-02 1.975468374511626657e-01
-7.966590892549575698e-02 -4.217796440435035432e-01 -6.769785334220360662e-01
-1.134565913741614335e-01 3.741249032525137408e-01 -3.204926538107498168e-01
-8.675914849768162629e-01 -4.583124498460156016e-01 -9.182447682576008741e-02
7.626943558811725143e-01 6.021646834167625889e-02 4.384583077697677411e-01
2.933960056083692036e-01 -1.547617615908556676e-01 -3.471014734821376568e-01
3.276953722142908476e-01 4.676509388001776762e-02 9.445982344950955012e-01
-2.792759343180505338e-01 1.522596549477874678e-02 -5.333723921932811973e-02
1.204975271885748850e-01 7.457656031360609949e-02 -1.180171123229724756e-01
-2.274971622470167709e-02 -2.073025443896816481e-03 -1.814642919944660371e-01
-6.157612365677942456e-01 9.366427016745916545e-02 -5.330785150662805671e-01
-2.945041002419860332e-01 -6.698556602429787121e-01 -4.511531569061112690e-02
-1.035620473314938783e-01 -4.885783277373089151e-01 -4.718826023317876373e-01
4.484515803442093440e-01 1.873226046428477787e-01 -8.109591934996658313e-01
8.008783497441558374e-01 8.235463919115534881e-02 6.084498718228764473e-03
1.450800612036242387e-01 -8.707093645882370281e-02 2.093739796799115593e-01
-8.282695023826917857e-02 -4.934721362555070656e-01 1.887357530284196061e-01
1.699828210121725192e-01 6.695797852571015729e-02 -6.846230641564404751e-02
-3.722581420175786748e-01 2.791754715998860381e-01 -4.581142102789821924e-01
-2.845375481564171305e-01 -6.293678755896601196e-01 -2.935442315761362941e-01
2.813918445736471319e-01 -1.088714115949746680e-01 -8.056538716884966700e-01
5.575517763492621182e-01 -3.643761921792251779e-02 -4.988444589517288530e-01
-1.162873530183399923e-01 4.181876274578157360e-01 -3.809752535528332928e-01
5.286667495631078295e-02 1.834987979303831507e-01 -9.508246613047144358e-01
-4.797068006356332570e-01 -7.328230915647354626e-01 4.136845353975743267e-02
1.798712052931735750e-01 -2.654066957958663431e-01 -4.641603926180545292e-01
4.287324796946156980e-01 -1.768744934442737227e-01 3.006286065637909788e-01
-6.492655638237804228e-02 -9.760355988268045596e-03 -1.730119484819645503e-01
3.706592057545939900e-01 -1.157398998514670430e-01 -3.012301130554211892e-01
-9.455710864775104807e-02 -3.677945458825283565e-01 -1.240898879743241312e-01
1.454134268771690719e-01 -3.520326370241863012e-01 3.580070338082916304e-01
-6.874680447167941244e-01 -4.836212073409651424e-01 5.442928450583462974e-01
1.154229476061425647e-01 -1.419587593369325274e-01 -2.598672266935464492e-01
8.584819493768743870e-01 2.118029959309361554e-01 -8.034178262029825768e-02
-1.499420432195181507e-01 8.326846978099766705e-02 2.656488029481133273e-01
-1.333123149079700753e-01 2.416078270174943921e-01 -2.423132112089224910e-01
3.943695823527901267e-01 -2.185913582653689902e-01 3.587934006048704161e-01
-8.542894400138892896e-01 -3.831733075253513365e-01 2.545830536678644340e-01
-2.866858173850201363e-01 2.058481349718242481e-01 5.548888094418280570e-01
-5.168782614876928916e-01 -7.230331679908821307e-01 2.498934721830896877e-01
5.029849189367099349e-01 -3.957211753052560649e-02 -6.152800975538437189e-01
-4.894587964352619114e-01 5.937315519354019466e-02 6.249994504063887124e-01
-8.745952245820700632e-01 -2.169082990792708387e-01 5.882976936881574755e-04
4.089966278221658369e-01 3.966711382659385832e-01 7.858246907743841048e-01
-2.958185634618737403e-01 1.020538073641751725e-01 3.015579718440347667e-01
4.248736564858728859e-01 6.889169119639400041e-01 2.206628569364072479e-01
-6.699459172877972879e-01 6.454999142488662689e-02 -3.515917647958891612e-01
6.552317849413429318e-01 -6.152229209176099389e-02 1.957952135662552606e-01
2.499484254702014907e-01 5.769580489188462780e-01 4.634665272120173651e-01
-5.702267129088542941e-01 6.060553501020816275e-02 -2.757705165282402920e-02
8.489486669487900095e-02 1.222557830731230977e-01 -1.179864481525662173e-01
4.171931415906877938e-02 2.933500407636839280e-01 2.379794747301176294e-01
-6.630445992936836452e-01 -1.952677234220032976e-01 -6.732083426507972090e-01
3.803860658252918719e-02 2.631913806896660768e-01 -1.243318296556180091e-01
-5.974200049541464885e-01 -1.415276930608463379e-01 -7.417426362632724146e-01
-3.310310708457226969e-01 -6.901818948524635067e-01 4.218785529635692422e-01
-7.368191344060878722e-02 4.298466693145087669e-01 -3.393417910393805581e-01
4.733183188161718680e-01 -7.323047699117718468e-02 -1.832225911812214170e-01
2.843133636826066235e-01 6.398063114599384926e-01 2.147358583932495735e-01
-6.369997734386347865e-01 -6.689302178756267869e-01 3.197065460561081540e-01
7.651208097079822412e-01 1.712298007874794858e-01 -3.805881155118656656e-01
-4.925269960118712487e-02 -4.097368293306458686e-01 1.821726965426947453e-01
6.234968378730877392e-01 -1.080103767897560019e-01 4.571124454741561927e-01
-1.037747023671940078e-01 -4.996804020257885059e-01 1.432914415156100463e-01
1.122631560628576004e-02 3.839549738166850856e-01 -1.874030844600338419e-01
-1.569797396592729766e-01 -1.255251347674221918e-01 -3.125053154334940519e-02
1.294824771066591940e-01 4.888753627873232976e-01 2.271084556492214412e-01
-6.742042439613176175e-01 -6.114522886314091576e-02 -6.215818491512792310e-01
5.663524003956430519e-01 -1.476822575504050106e-01 3.989634263146163429e-01
-7.123299443661654760e-03 -3.202227657325980581e-01 2.066830953934578885e-01
-4.735365833583629613e-01 7.017304255120357381e-02 6.323794452089637197e-01
-2.551445635183128835e-01 -6.427512657886284009e-01 -4.416922116597044035e-02
7.953976412370257210e-01 3.861637243978870981e-01 -3.637343755845673376e-01
-2.924809231518853969e-01 -6.837877131092128247e-01 4.128293270090663825e-01
-1.039136819170386056e-01 -4.389706305297300659e-01 -1.889520483190096356e-01
-6.866466799439996382e-01 -6.529094086239882466e-03 1.803646395166276228e-01
2.243202942965392965e-02 -6.250071562614194220e-02 2.126169535999117566e-01
-4.071535423437062234e-02 4.265588080089047218e-01 -2.906415568648494929e-01
-3.535313549382233106e-02 -3.330859260176652348e-02 -1.802560240559162585e-01
-4.291806128891290650e-01 5.266828642994231258e-02 3.223318163203801184e-02
2.400915601583168413e-01 -3.485850070020816982e-02 -8.822131727564438419e-01
-1.956457862572929529e-01 -3.598247678418413087e-01 -8.111498529570316807e-01
-5.468515073918032987e-02 3.542170909824112202e-01 6.695779100596512823e-01
-1.675089714317624101e-01 -3.593711064081345219e-01 9.146065625633574836e-01
4.429394753267363316e-01 -7.195346389812865007e-02 3.723195333432150617e-02
-4.145315342717789675e-01 -4.846214530649746721e-01 7.688353846071703801e-01
-1.547106778023103757e-01 -1.438005016968051455e-02 1.909938404524360867e-01
8.146199400617595843e-02 -1.566738273983854790e-01 9.854916447133977853e-01
-4.387163871630481160e-02 -4.277870285392828542e-01 2.031867003598546439e-01
1.070696242212004490e-01 4.165900492895056595e-01 1.158061619685774729e-01
1.302045186608746519e-01 1.498334395331236135e-01 -2.023597264982287744e-02
5.322369395685683235e-02 4.442094817946062313e-01 5.446960133800372583e-01
3.552757485766666057e-01 4.060764774156074286e-01 -8.035856853820174672e-01
3.906925381805597119e-01 -5.609743598526910346e-02 -7.091210432762679039e-02
-4.829217410043140091e-01 -7.314347123284691277e-01 1.515464340431979529e-02
3.648384070996863598e-02 1.553331274079692292e-01 2.133463082014078194e-01
-3.627913916239565717e-01 2.890354675127291273e-01 -4.728056896254542729e-01
-4.602837428648740570e-01 2.196461213319863270e-01 -4.343920206085303271e-01
8.244315265979581531e-01 3.086761581752258121e-01 4.064094616844818875e-01
1.134175697137658340e-01 1.356698540442650702e-01 1.262756246309163777e-01
3.678262230535604971e-01 -2.440494913249337816e-01 7.774312133458819440e-01
7.027915522322499831e-01 5.202448823389370647e-01 -4.311237921824969677e-01
2.453498130968141677e-02 2.679487637232908503e-01 -9.216484784194832747e-01
-6.741155008969794693e-01 -6.801749822233303933e-01 1.798746741642391622e-01
7.116140407332719464e-01 -2.975864749324350425e-02 2.780930881342769112e-01
-1.276249870991459645e-01 -5.116595602688335243e-01 8.341844781477635029e-02
-7.462559441330502974e-01 -8.187813999426060696e-02 3.074993278094003135e-01
1.091489732707406762e-01 1.685177654798972469e-01 -5.321869262905691567e-02
-2.887257598431646755e-01 5.776872607931891890e-02 -1.131105120142169990e-01
-2.014330341580425343e-01 2.281089071486372410e-01 4.557749091242923600e-01
5.106612093429281352e-01 5.241877186634812391e-01 6.139911413019369935e-01
-1.443818224122563609e-01 -2.180943163008173744e-02 1.897262489541803598e-01
5.430992994686416331e-02 -4.983682066389015508e-02 -1.997802224096716928e-01
-3.097593751364622339e-01 -2.308887586502900158e-01 9.241269689837374735e-01
-2.931398990582995689e-01 -1.745470611015381354e-02 9.080628529587134734e-01
7.271708321087904103e-01 6.373746173363379341e-01 -7.127789816758763053e-02
-8.278623745049876748e-01 -1.122325191954467588e-01 -4.831369863783611246e-02
2.169631431264210930e-01 -5.296498549604693185e-02 1.654388777815886946e-01
-4.945359958138663137e-01 6.586873819244515316e-02 2.629778332004833463e-01
1.291288854236115891e-01 1.529702994355790491e-01 -1.803056003548990024e-02
5.381817544309865919e-01 7.184614877949339062e-01 -3.737908251174926633e-03
-6.536547314511120810e-01 -3.664394810932175561e-01 -6.340426523039248696e-01
-3.975980244000910102e-01 2.267642068775831687e-01 -3.591751808690153980e-01
1.144795449452860464e-01 -3.247804761589825895e-01 3.113139510892539152e-01
-4.982605540031459501e-02 -5.777929475708531819e-03 2.186555867749412352e-01
6.327832475098521536e-02 1.852912076877201442e-01 1.847503481729546593e-01
5.484832164666952892e-01 3.889187414393009967e-01 -6.982847952597895924e-01
-1.167070830504813445e-01 -1.145494588878647052e-01 -1.155616755428303943e-01
-1.164531413784381242e-01 -4.342576687622361487e-01 -2.220285129201605631e-02
9.997751741524837921e-02 4.324032670101047859e-01 -2.261872934199504748e-02
-2.029190097656594083e-01 -3.144836767164150421e-02 -7.723437826202371459e-02
-3.425411484741385237e-01 -6.874273363612315446e-01 4.426320676787121600e-01
-5.627105205340084959e-01 4.801566361599898802e-02 3.008218608727137866e-01
1.092113930959954377e-01 4.464897156570997172e-01 2.760493278694674691e-03
-2.379310866942024524e-02 -8.288100136958446995e-02 1.000000000000000000e+00
-4.358971978779099810e-02 -3.430832018262107708e-01 1.657316917050057903e-01
7.377730381479373767e-01 7.822284683709421205e-02 5.370460528253044874e-01
-1.204817622377379882e-01 3.097797250842558858e-01 5.243045469309480788e-01
-8.715825673810803642e-02 -3.072919530395700760e-01 9.444825592622928534e-01
-2.628263392493692119e-01 2.348448589137935513e-02 -8.507308710888850101e-02
2.419399898754296674e-01 -2.853901088431777811e-01 3.588178855463776684e-01
-1.295436820347038720e-01 2.772364007153496623e-01 -2.593824491987415937e-01
6.631729107797420530e-01 -4.424119233179203171e-03 6.140043005403742482e-01
-1.802808786169358968e-01 -5.589874509275807313e-01 -1.104654703944278338e-01
-1.084081918347402362e-01 -1.756599455624688333e-02 2.050698842650720000e-01
-4.491914542766241025e-01 -6.315085179492775369e-01 -4.282437632467563371e-01
-7.857063563344413026e-01 -5.411466870417987879e-02 -2.434246936458427379e-01
-6.133508926436481712e-01 4.888426783999585967e-02 -2.355360330855543402e-02
-3.987480665085210013e-02 -2.399394509672024001e-01 1.675342222926355651e-01
1.689619743151387909e-01 9.438108477219256387e-02 2.466545679008574909e-02
8.214264577633013653e-01 1.385161245489785198e-01 -1.162354717247226776e-01
2.658887477862821869e-01 3.393377013908446815e-01 8.559492236470993554e-01
3.987740896854639616e-01 -2.054923039555313080e-01 3.374420666138440716e-01
-8.548165296167953286e-01 -3.706241296776096594e-01 -2.806824505885073817e-01
-6.323181890893216917e-01 -4.703947608453007412e-02 5.455351795312970431e-01
2.128948482527974750e-01 3.786472497212298866e-02 4.618870067542130836e-02
-8.848586682790458013e-01 -3.606165044238986428e-01 -1.338211715848321992e-01
-3.911261567153744706e-02 3.732636161460836655e-01 5.260333155827900953e-01
1.074202583534965144e-01 4.275892505490175854e-01 -8.224939786921111606e-01
-7.620182547989797772e-01 -4.739421370212831275e-01 4.331247798830627493e-01
-5.317087837907784609e-01 -7.317454719059326429e-01 1.155302405767133639e-01
5.729229051084119284e-01 -1.008144710001448313e-01 2.064916991829964243e-01
-7.234099954721553427e-01 -9.895709409178291005e-02 -5.584127112771024581e-01
-1.174571200229723444e-01 3.013781191971269258e-01 7.140055652574958112e-01
-2.166461971668229569e-01 1.990291072164260822e-01 7.886496557454563128e-01
5.753207434005773724e-01 -5.637990062725999757e-02 -3.736652897259273159e-02
1.971237222751631435e-01 4.518652083236169847e-01 7.228387980428108150e-01
1.558047912313693106e-01 6.223563247211298943e-01 -3.495192332677670710e-01
-4.747273011848703733e-02 -5.943694157555564489e-02 -1.761240939483178225e-01
4.389481887846745090e-01 5.554931412814969605e-01 5.920269679731767765e-01
4.681137599350133072e-01 -9.737375386080084072e-02 -3.415994592797507168e-01
-3.013346021130620667e-01 -6.215917605973838578e-01 -3.691065404352451562e-01
6.723151520775132173e-02 -2.270699989048257650e-01 -8.447199939519051126e-01
7.387922039663747942e-01 3.112771631153741780e-01 -4.915881749173526272e-01
5.907110994357272007e-03 -1.731524121024622664e-01 -2.200137860689461433e-01
3.170025952812979830e-01 -2.563333888618855583e-01 8.183618931806481145e-01
-7.274741370636070847e-01 -3.783797597131778323e-01 5.458067959152381743e-01
-1.366557257115159907e-01 -9.762759922444912142e-02 1.336398947408340698e-01
2.580069098665971339e-01 -3.561322624746036114e-01 4.882229623369048199e-01
8.674119263950490488e-01 4.074636751535799517e-01 -8.598060717136293829e-02
5.134294978267118781e-01 5.776180963076820163e-01 -5.666284920860160668e-01
-6.041629442799271166e-01 -4.396364841649605393e-01 6.687336606912533954e-01
7.178575064549265194e-01 6.444353644839569961e-01 -7.231180763354953800e-02
-2.126387620006696677e-01 -3.993024019658849566e-01 8.859546305143668476e-01
-3.380099333267576056e-01 2.664295063913190709e-01 -3.796029671053556265e-01
-5.807435872475524841e-01 4.053545874982489999e-02 2.634641723319210982e-01
-2.456313338746917430e-01 1.774270900105371154e-02 1.788117585187753711e-01
-6.193361029485774383e-01 4.460030936024961951e-02 -7.627532560612558347e-03
-7.488391885239155388e-02 -2.659413958845198711e-01 9.624209688450457989e-01
1.170616978017697957e-01 4.894704537961169222e-01 3.349122475174886038e-01
3.200760364165536886e-01 -3.101716714668042996e-02 -4.213410518065204002e-02
-7.158315263444594567e-01 2.216649050392601600e-02 -2.531827399576723203e-01
-2.448107002235982155e-01 -5.830717876158367785e-01 -4.248843207973975744e-01
-3.729229099593499019e-01 1.051810844568057818e-01 -1.507503946138781525e-01
-5.466968376717453726e-01 -7.298882240544067868e-01 5.863351618898371420e-02
5.789011635145158152e-01 3.045529589653273583e-01 7.521539617899095642e-01
-3.088819157436649143e-01 -6.993657897122462774e-01 1.989630211436602125e-01
-1.040669390628773255e-01 -3.632682340254919096e-01 -5.291714794814428302e-02
2.912288739212468558e-01 -7.009046916840699915e-02 -1.916537828963635892e-01
-3.327919902780792638e-01 -6.733879852842770131e-01 -1.695846005402931733e-01
-7.964771316712552229e-01 -2.732167817145130795e-01 -4.640444734475728250e-01
3.323659229245085056e-01 -3.819024802333369217e-02 -6.280415500568928278e-02
2.233704550905545039e-01 3.378158815343906829e-01 -8.777208895287244017e-01
-4.322047145702471171e-01 1.086146772635732671e-01 -1.518221747455210935e-01
6.146109316129343136e-02 -2.175733616023211858e-01 -2.811073612581922454e-01
1.523659210336628378e-01 5.246553823356212565e-01 2.863409172686851023e-01
-4.141898134385019747e-01 -3.510851128599157822e-01 -7.939474856772448241e-01
-3.731894028985295857e-03 2.555729371528858151e-01 2.829556058323774992e-01
1.743588979508176040e-01 9.871894421729782154e-03 -1.364837682912881656e-01
7.559721548534821534e-02 3.033240279243205051e-01 1.684891180606793160e-01
6.290010876988570698e-02 4.433025029723554611e-01 4.072031782763588237e-01
-4.050956214518556808e-01 -3.270898945145218062e-01 8.589634333439943870e-01
-1.001919230957383639e-01 -2.009138859565765683e-02 9.844270820862754956e-01
-8.223452566416212806e-01 -4.927679729091160032e-01 2.619596497473750119e-01
8.660863567045163913e-01 4.303715023099656256e-01 1.200666786898576116e-01
8.615404848387911985e-01 4.479318244678585637e-01 -3.929150401871155107e-02
-5.249188656680894294e-01 -3.580763824275676188e-01 7.731366157930371630e-01
5.765365107055416827e-01 7.114822292633760092e-01 -7.133823347771638124e-02
-8.678438696466261870e-01 -3.204958726094289667e-01 2.059084498722582868e-01
2.144425712210719648e-01 5.875105413650589803e-01 2.324033993770688311e-01
-2.457931975191650353e-02 -1.762469486964900467e-01 -1.975322799314810640e-01
-2.099247219166887057e-01 -3.727081920888495464e-02 -5.987345531641526108e-02
-5.704687109050656790e-01 -2.796690145785103720e-02 6.342963264489900332e-01
8.207491723480182799e-02 2.606360083304451458e-01 -5.063073967579535123e-02
-2.902142524716628744e-02 -3.212752086756967551e-02 -1.818837359006323373e-01
1.786945547807603785e-01 2.665481385673309361e-02 -9.293620630563611540e-01
-2.083659276114381009e-01 3.136756496813623840e-02 -1.314699381928441657e-01
8.212450463042898774e-02 -3.728351292334544098e-01 3.198250581181412144e-01
5.752462963872154722e-01 -5.393070982746892700e-02 -7.154061693372283648e-02
-1.019127520287389649e-01 2.437030023052821626e-01 -2.283517610664901332e-01
-1.593445080974143779e-01 2.053372557491585093e-01 -9.130608911033009090e-01
-1.854439680184217371e-02 -5.471738681442305241e-01 6.029875803357194197e-01
-5.699709174925589039e-01 -6.387893218394234962e-01 -3.698613814591318327e-01
1.764235153451695071e-01 5.502239499450655158e-01 2.334598820122713025e-01
-4.125377477643366597e-01 -3.463956664025761301e-01 8.485718833017507068e-01
1.041727935795949966e-01 4.546933076028178977e-01 -3.458007112525755822e-02
-9.275746304133079823e-02 -3.283455661809104864e-01 -8.172830802656153582e-01
5.424029857950247308e-02 3.372730393773361313e-02 -1.709470279857422947e-01
-2.607046758194603853e-01 1.708078640743170701e-02 -7.768358453919137208e-02
-3.526266982295073182e-02 8.633055953498733337e-02 2.429288304094703033e-01
1.291433547594867948e-01 -2.580917969787042132e-01 9.322952250516222117e-01
-2.781730581347763853e-01 -6.822445364655422839e-01 3.945217272082441884e-01
-3.095114475944185650e-02 5.070295160480924324e-01 -6.102421594768188129e-01
1.877201636522597139e-01 -1.104711119878525882e-01 9.734194648004199646e-01
-2.203997446484023959e-01 7.065536590945167839e-02 2.553288462913908541e-01
-1.178356297066397163e-01 -4.955297889173492232e-01 9.139144748862429446e-02
1.286584217417145182e-01 5.531484085460899314e-01 -6.569322440439478994e-01
7.504342420347400733e-01 4.904930163610023430e-01 -3.804793598814515954e-01
1.863515603887278826e-01 5.770719719278479334e-03 -1.329004052150346282e-01
-6.387824731756285013e-02 -5.758859564500302675e-01 5.601168713705833024e-01
8.330893150605612751e-01 4.479743250818215561e-01 2.705429508372297343e-01
2.565758508587662190e-01 -3.917695766086406323e-02 -8.708093123787941092e-01
8.437730175757993667e-01 4.628757573510635659e-01 1.968351563504210366e-01
1.057840658597319211e-01 2.102458349531727555e-01 8.880925499013456181e-02
-7.794244995058775549e-01 -1.914577368973625349e-01 4.066860415423048658e-01
8.436988816240694744e-01 4.401418722827788454e-01 -1.751781848166469036e-01
-2.729192310815270472e-01 3.747247438961896771e-02 -9.628658424742600475e-02
1.186027788865072902e-01 -1.081698467324100910e-01 -2.380247445147097018e-01
9.564175941157783412e-02 4.681068166283185450e-01 3.535946174711667722e-01
1.682092180228378919e-01 5.167297444632574788e-01 5.427409811633311376e-01
4.152736140643006335e-01 -8.299656428983175072e-02 -2.107748415303956624e-01
-3.683468204075526220e-01 -1.609166231616718512e-01 8.983197308421757565e-01
1.092147247701177361e-02 -1.928401750283458282e-01 2.075397134269608701e-01
-5.722660164583140974e-01 4.398715465282171388e-02 2.864915053285984059e-01
1.028781730543681106e-01 -4.400365766232979814e-01 4.253130182594696551e-01
-1.955960389082936624e-01 -4.946867558107218704e-02 -6.470289904937544245e-02
-7.568691236704764291e-01 -6.183004839782838546e-01 1.772461265916034923e-01
1.340918562961755933e-01 6.959641832862144273e-02 -9.484890359022024597e-01
-4.569975141082985998e-02 1.749747144718818981e-01 2.805126022178988654e-01
-4.706994652462503925e-01 2.096965245563428004e-01 -6.165046678192381835e-01
3.826239251562048582e-01 -2.805685440716642609e-01 4.977129204767767323e-01
1.631095718616710766e-01 -3.351832699292544571e-01 3.559275324128529094e-01
8.059320843046192673e-01 5.092392946927882802e-01 -2.121308515804116446e-01
6.039287932552717120e-01 4.889156224518260291e-02 7.424949202228520173e-01
5.025186555676192102e-01 7.220821325433101068e-01 -1.076281442849199438e-01
-8.495656923090850743e-01 -3.409232512271582749e-01 2.813523649764189671e-01
4.153263478598434588e-01 1.518161094855828216e-02 8.979153027406141518e-01
3.942351122878412495e-01 7.136719519312878512e-01 -4.501831943137991898e-02
-4.815030502401096979e-01 -5.659686766807657810e-01 -5.501799519024199725e-01
7.298681264759662168e-01 5.215295773786182698e-01 4.082794674662150181e-01
-1.198273291554929482e-01 -4.495086097710312423e-01 -6.572967336532322680e-01
-4.207730311561654751e-02 3.299052882774411999e-01 -2.215864561232415986e-01
2.867963049222053140e-01 -2.604590606142745401e-01 3.558339882670775167e-01
-5.739372188706552691e-02 -3.620014553105003197e-01 1.475871500066376907e-01
2.486280373851290082e-01 -8.182262087342091761e-02 -2.186756505964873309e-01
-8.806580165222767098e-01 -3.956130233011250774e-01 -1.266665078427417490e-01
-3.473475774859000054e-01 7.145413498331114333e-02 2.417233165565334518e-01
-2.020379156931213505e-01 2.619588575863174285e-01 -2.871893160357494867e-01
8.092237741147014773e-01 4.590826319806637357e-01 3.295334888733476575e-01
1.309455905295179301e-01 1.520429800138436149e-01 6.342482942351033992e-02
8.289207780584921803e-01 1.459315659066093562e-01 3.119936423242766210e-01
-1.239138716214045061e-01 2.983218042479214294e-01 -2.686039142368003563e-01
-7.362095357477512758e-01 -3.867492577012254795e-02 1.531123308812071260e-01
-1.536198555059953841e-01 2.082700244234890752e-01 8.355105210805133797e-01
3.363797924928942362e-01 -2.096970873924567103e-01 3.138138462561405606e-01
-3.105214677823348590e-01 1.640699334839003931e-01 7.238216561333679078e-01
6.000808087330602447e-01 9.751588137949028512e-02 -6.264250535364922490e-01
5.162759419972645647e-01 4.617876428587386339e-01 -6.806268214022173080e-01
2.624951067184093656e-01 -1.309871831481507487e-01 2.198408873772202676e-01
3.161218038903215732e-02 -4.445016752441560692e-01 8.014862902132122713e-01
-6.006835127661952489e-01 -3.545546398023976531e-01 7.086152705356730808e-01
-1.874976214820606724e-01 2.697701472423528202e-01 6.536386566550137500e-01
5.190826712383999064e-01 1.806625057648753030e-01 -7.529794453770584095e-01
3.848952672837847033e-01 7.109908795134483039e-01 -2.138703313018468499e-01
4.660196173766713024e-01 -7.604020502742285526e-02 -6.110995928956337586e-01
-5.604062047265413460e-01 -1.468022744283060121e-01 7.408741503955280638e-01
4.536313239705542788e-01 -2.052936227175100325e-01 3.858393605089845968e-01
9.186993638896932823e-02 -1.262921238790959411e-01 -9.046089674272742576e-01
5.043198233810034653e-02 -1.598809412878114400e-01 -2.419794434328395027e-01
1.071049293974133260e-01 4.416393087831566588e-01 1.981829314763875749e-01
1.289998884528805734e-01 -3.399263625315850357e-01 8.702881260585269008e-01
-2.331916584122739333e-01 -3.638398829243769811e-02 9.444761278868679666e-01
6.361278544520822253e-02 1.719050806200222714e-01 9.508126006546537834e-01
-3.115507717532678411e-01 -4.116786374723489794e-02 -9.197633707148400450e-01
-9.571008665104241420e-02 -9.870178209021683580e-02 -1.418787168450727221e-01
5.553911437423433850e-02 -1.937143037675217727e-01 -2.622280450878686775e-01
-4.647404428367897244e-01 5.678129137368581603e-02 3.731569776059309729e-02
-2.349325604710375826e-01 -4.263645864055536916e-01 -7.475480327895531740e-01
-7.860977751097243393e-01 -4.666027286970387267e-01 -3.723149839835251385e-01
3.150068331280160283e-01 6.876179166913409802e-01 -5.093077025171410116e-02
7.618956164493564387e-01 3.176927830633965305e-02 3.562252499977183184e-01
5.179967756070076312e-01 4.071638784116940468e-01 -7.131991160161832433e-01
-4.753869039052577294e-01 -2.702491715185181276e-01 -8.084552974605997422e-01
-2.385554737430780337e-01 1.064218822202495605e-02 1.723788047605068485e-01
-7.390686867846560926e-01 -4.762828415827215223e-02 -4.674072600775302511e-01
-4.928724535416211250e-01 8.085472154592866778e-02 5.255381430479214577e-01
6.300294449443648581e-01 5.369736593594773844e-01 -5.100130346973731355e-01
9.130725579398719927e-02 3.450010478790428992e-01 1.258137614281934491e-01
5.935668070212114789e-02 4.111261792584700037e-02 -1.670646486280477905e-01
-6.945142514105935583e-02 -4.869914875676567556e-01 2.103482295188267293e-01
7.053339126499653666e-01 -3.495684624534177443e-02 2.721441427051067286e-01
-8.456755769853488425e-02 -8.881430450196668713e-02 1.789218811032244894e-01
-8.678037333438397560e-01 -3.697902880087057254e-01 -2.294139654412801210e-01
7.264329490596820316e-01 5.102064035265103659e-01 -4.032343319305357054e-01
3.801917671439087321e-01 6.387295729089423890e-01 -5.251880109634203819e-01
-7.256325186349267542e-02 -4.590053829496633098e-01 -5.453867623456740699e-01
-8.827837067095609669e-01 -3.369925325392607585e-01 -1.643395906253040106e-01
-6.707005556292868764e-01 -2.623046273115388627e-01 -6.567143206019268042e-01
3.202643173348513894e-01 -7.632388598278259939e-02 -8.008118992346955345e-01
7.640361910856054983e-01 3.600123624953610602e-02 4.785398704646957879e-02
5.741881244465103507e-01 6.461275718786786415e-01 -3.937456631759889136e-01
-4.141068278218505427e-01 -6.609060022875403728e-01 -3.371580251947799978e-01
7.074318740148536344e-01 4.102371647239523300e-01 -5.130138367080704365e-01
3.120028950856361047e-02 1.397923655783733510e-01 2.167039761176670631e-01
3.205149265851374163e-01 -4.324503129729375533e-02 6.288535304198594744e-02
-4.533551149308970296e-01 6.693410075489025779e-02 2.301394779875669816e-01
5.065820395508221496e-01 4.829411574192793988e-01 6.659407320225405602e-01
3.370520570915410130e-01 -3.160356825816848514e-01 6.711642061349912813e-01
1.349582710099749838e-01 4.943038464323781245e-01 5.733277962452581339e-02
-3.121318890662811568e-02 -4.014196181476196723e-01 -6.668429624013917367e-01
-2.902170638735204408e-02 -1.541155022879411862e-01 1.889018447248378418e-01
7.956555126100808284e-01 8.426839226832091856e-02 -4.810041451967792675e-02
1.034825544924229158e-02 -6.713188236048478474e-02 2.115969319990039510e-01
-6.014635627158382292e-01 2.957215048517624831e-02 3.264656474588369384e-01
2.133004891646314571e-02 3.957828852205716452e-01 3.996708607975489880e-01
4.885884989837482872e-01 7.147712021412464534e-01 -2.134983211611181930e-01
1.517065932532081773e-01 2.656704853643384046e-01 -9.190752356392112299e-01
-1.326759031846089232e-01 3.337328804884129307e-01 -8.339733057499093549e-01
3.686931458460827038e-01 4.120108821674367539e-01 -7.947268060668539746e-01
2.738932128552178935e-01 -1.611319103561245081e-01 -3.469515925892517894e-01
6.394046539865582135e-01 4.563277067503106466e-01 5.986889344668577806e-01
-2.495810249880232590e-01 1.919251609342482179e-01 4.360274635076848426e-01
-1.336085722282493449e-01 -1.413670588692962915e-01 -7.268076314255370041e-02
1.433287627008356657e-01 -6.049256411426661567e-02 1.985030283056830602e-01
-4.388989507385521738e-01 -7.198087233745702473e-01 -6.522736346404793550e-02
4.859113559914429725e-01 7.194457969744453285e-01 -1.700601492115251523e-01
8.668227500292453869e-02 3.221634934582348619e-01 1.366543090505996372e-01
